# .PCD v0.7 - Point Cloud Data file format
VERSION 0.7
FIELDS x y z label
SIZE 4 4 4 4
TYPE F F F U
COUNT 1 1 1 1
WIDTH 1824
HEIGHT 1
VIEWPOINT 0 0 0 1 0 0 0
POINTS 1824
DATA ascii
10.692 -7.52 2.2390001 5
10.755 -7.5910001 2.2379999 5
10.63 -7.5609999 2.2409999 5
10.598 -7.5799999 2.2409999 5
10.786 -7.447 2.237 5
10.557 -7.5710001 2.2420001 5
10.758 -7.4320002 2.237 5
10.593 -7.5469999 2.2409999 5
10.753 -7.473 2.237 5
10.763 -7.381 2.2360001 5
10.734 -7.5040002 2.2379999 5
10.685 -7.5450001 2.2390001 5
10.792 -7.3610001 2.2360001 5
10.568 -7.5760002 2.2420001 5
10.758 -7.5929999 2.2379999 5
10.65 -7.5240002 2.24 5
10.677 -7.5440001 2.24 5
10.724 -7.4629998 2.2379999 5
10.662 -7.5250001 2.24 5
10.664 -7.4790001 2.2390001 5
10.728 -7.5240002 2.2379999 5
10.716 -7.4749999 2.2379999 5
10.707 -7.5409999 2.2390001 5
10.679 -7.5770001 2.24 5
10.753 -7.3870001 2.237 5
10.758 -7.5469999 2.2379999 5
10.654 -7.579 2.24 5
10.743 -7.402 2.237 5
10.681 -7.572 2.24 5
10.549 -7.5619998 2.2420001 5
10.697 -7.5029998 2.2390001 5
10.776 -7.401 2.2360001 5
10.76 -7.5489998 2.2379999 5
10.601 -7.5500002 2.2409999 5
10.712 -7.533 2.2390001 5
10.656 -7.579 2.24 5
10.705 -7.527 2.2390001 5
10.653 -7.4759998 2.2390001 5
10.652 -7.5050001 2.24 5
10.71 -7.5170002 2.2390001 5
10.668 -7.5430002 2.24 5
10.684 -7.5320001 2.2390001 5
10.638 -7.5679998 2.2409999 5
10.751 -7.4299998 2.237 5
10.646 -7.553 2.24 5
10.604 -7.5139999 2.2409999 5
10.722 -7.5469999 2.2390001 5
10.771 -7.4770002 2.237 5
10.708 -7.4159999 2.2379999 5
10.795 -7.3629999 2.2360001 5
10.77 -7.5289998 2.2379999 5
10.689 -7.48 2.2390001 5
10.724 -7.513 2.2379999 5
10.77 -7.375 2.2360001 5
10.71 -7.421 2.2379999 5
10.671 -7.5970001 2.24 5
10.679 -7.4819999 2.2390001 5
10.662 -7.5539999 2.24 5
10.591 -7.5780001 2.2420001 5
10.559 -7.5560002 2.2420001 5
10.617 -7.5139999 2.2409999 5
10.665 -7.5380001 2.24 5
10.553 -7.5830002 2.2420001 5
10.741 -7.5770001 2.2390001 5
10.67 -7.5450001 2.24 5
10.724 -7.5640001 2.2390001 5
10.693 -7.48 2.2390001 5
10.72 -7.427 2.2379999 5
10.758 -7.4229999 2.237 5
10.731 -7.395 2.237 5
10.711 -7.4330001 2.2379999 5
10.752 -7.448 2.237 5
10.695 -7.4710002 2.2390001 5
10.561 -7.5929999 2.2420001 5
10.668 -7.4720001 2.2390001 5
10.697 -7.5120001 2.2390001 5
10.661 -7.4860001 2.2390001 5
10.718 -7.5539999 2.2390001 5
10.617 -7.5689998 2.2409999 5
10.735 -7.5929999 2.2390001 5
10.686 -7.5430002 2.2390001 5
10.63 -7.5190001 2.24 5
10.753 -7.5240002 2.2379999 5
10.739 -7.4990001 2.2379999 5
10.737 -7.494 2.2379999 5
10.65 -7.5929999 2.2409999 5
10.594 -7.5380001 2.2409999 5
10.587 -7.5300002 2.2409999 5
10.715 -7.5770001 2.2390001 5
10.676 -7.5489998 2.24 5
10.771 -7.3920002 2.2360001 5
10.719 -7.5320001 2.2390001 5
10.637 -7.5229998 2.24 5
10.641 -7.527 2.24 5
10.698 -7.4349999 2.2379999 5
10.729 -7.573 2.2390001 5
10.687 -7.4970002 2.2390001 5
10.731 -7.4959998 2.2379999 5
10.747 -7.5970001 2.2390001 5
10.596 -7.5510001 2.2409999 5
10.705 -7.5549998 2.2390001 5
10.727 -7.4889998 2.2379999 5
10.785 -7.4510002 2.237 5
10.639 -7.5799999 2.2409999 5
10.593 -7.5380001 2.2409999 5
10.692 -7.6020002 2.24 5
10.711 -7.4289999 2.2379999 5
10.732 -7.559 2.2390001 5
10.63 -7.506 2.24 5
10.571 -7.5630002 2.2420001 5
10.734 -7.4130001 2.237 5
10.729 -7.4660001 2.2379999 5
10.759 -7.4749999 2.237 5
10.62 -7.5380001 2.2409999 5
10.609 -7.5739999 2.2409999 5
10.743 -7.5560002 2.2379999 5
10.628 -7.5279999 2.24 5
10.68 -7.5560002 2.24 5
10.634 -7.5949998 2.2409999 5
10.7 -7.4510002 2.2379999 5
10.633 -7.5819998 2.2409999 5
10.663 -7.4640002 2.2390001 5
10.757 -7.4640002 2.237 5
10.552 -7.559 2.2420001 5
10.727 -7.4889998 2.2379999 5
10.575 -7.5799999 2.2420001 5
10.611 -7.5630002 2.2409999 5
10.692 -7.4549999 2.2379999 5
10.688 -7.5310001 2.2390001 5
10.767 -7.5700002 2.2379999 5
10.743 -7.5560002 2.2379999 5
10.523 -7.5840001 2.243 5
10.732 -7.5539999 2.2390001 5
10.71 -7.5700002 2.2390001 5
10.545 -7.5840001 2.243 5
10.65 -7.4710002 2.2390001 5
10.533 -7.5819998 2.243 5
10.749 -7.4899998 2.2379999 5
10.638 -7.5380001 2.24 5
10.734 -7.441 2.2379999 5
10.731 -7.5869999 2.2390001 5
10.741 -7.5240002 2.2379999 5
10.662 -7.461 2.2390001 5
10.77 -7.4200001 2.237 5
10.566 -7.5830002 2.2420001 5
10.739 -7.4159999 2.237 5
10.763 -7.4590001 2.237 5
10.713 -7.5830002 2.2390001 5
10.765 -7.4320002 2.237 5
10.688 -7.5510001 2.2390001 5
10.768 -7.3930001 2.2360001 5
10.694 -7.5440001 2.2390001 5
10.745 -7.5229998 2.2379999 5
10.765 -7.461 2.237 5
10.724 -7.5409999 2.2390001 5
10.714 -7.5879998 2.2390001 5
10.601 -7.527 2.2409999 5
10.586 -7.592 2.2420001 5
10.664 -7.586 2.24 5
10.776 -7.362 2.2360001 5
10.72 -7.5380001 2.2390001 5
10.6 -7.5310001 2.2409999 5
10.631 -7.5040002 2.24 5
10.717 -7.5289998 2.2390001 5
10.767 -7.4239998 2.237 5
10.728 -7.5710001 2.2390001 5
10.631 -7.586 2.2409999 5
10.618 -7.5749998 2.2409999 5
10.749 -7.6009998 2.2390001 5
10.762 -7.4819999 2.237 5
10.729 -7.5190001 2.2379999 5
10.783 -7.428 2.2360001 5
10.568 -7.5799999 2.2420001 5
10.679 -7.4450002 2.2390001 5
10.582 -7.5409999 2.2409999 5
10.715 -7.5640001 2.2390001 5
10.57 -7.5469999 2.2420001 5
10.751 -7.4159999 2.237 5
10.672 -7.4510002 2.2390001 5
10.74 -7.388 2.237 5
10.755 -7.494 2.2379999 5
10.643 -7.5749998 2.2409999 5
10.765 -7.402 2.237 5
10.72 -7.5609999 2.2390001 5
10.67 -7.5279999 2.24 5
10.693 -7.5250001 2.2390001 5
10.517 -7.5890002 2.243 5
10.763 -7.5619998 2.2379999 5
10.76 -7.4850001 2.237 5
10.656 -7.559 2.24 5
10.601 -7.566 2.2409999 5
10.643 -7.5949998 2.2409999 5
10.584 -7.5760002 2.2420001 5
10.728 -7.4000001 2.237 5
10.725 -7.5749998 2.2390001 5
10.691 -7.5650001 2.24 5
10.742 -7.5320001 2.2379999 5
10.692 -7.48 2.2390001 5
10.678 -7.5879998 2.24 5
10.564 -7.573 2.2420001 5
10.646 -7.5599999 2.24 5
10.785 -7.428 2.2360001 5
10.697 -7.4970002 2.2390001 5
10.596 -7.5339999 2.2409999 5
10.767 -7.4200001 2.237 5
10.676 -7.5190001 2.2390001 5
10.772 -7.3790002 2.2360001 5
10.599 -7.533 2.2409999 5
10.745 -7.4289999 2.237 5
10.722 -7.5830002 2.2390001 5
10.727 -7.5510001 2.2390001 5
10.789 -7.3569999 2.2360001 5
10.725 -7.4450002 2.2379999 5
10.566 -7.5739999 2.2420001 5
10.757 -7.4219999 2.237 5
10.722 -7.4460001 2.2379999 5
10.675 -7.54 2.24 5
10.66 -7.6009998 2.24 5
10.663 -7.5539999 2.24 5
10.724 -7.573 2.2390001 5
10.668 -7.4920001 2.2390001 5
10.762 -7.5960002 2.2379999 5
10.749 -7.5630002 2.2379999 5
10.68 -7.5679998 2.24 5
10.774 -7.473 2.237 5
10.778 -7.5009999 2.237 5
10.7 -7.5479999 2.2390001 5
10.677 -7.5110002 2.2390001 5
10.723 -7.5570002 2.2390001 5
10.708 -7.5510001 2.2390001 5
10.693 -7.5760002 2.24 5
10.656 -7.572 2.24 5
10.665 -7.4790001 2.2390001 5
10.576 -7.5760002 2.2420001 5
10.562 -7.5710001 2.2420001 5
10.661 -7.5139999 2.24 5
10.68 -7.5469999 2.24 5
10.59 -7.5440001 2.2409999 5
10.632 -7.5359998 2.24 5
10.599 -7.5679998 2.2409999 5
10.624 -7.5489998 2.2409999 5
10.608 -7.5669999 2.2409999 5
10.586 -7.5560002 2.2420001 5
10.713 -7.428 2.2379999 5
10.694 -7.5580001 2.2390001 5
10.702 -7.572 2.2390001 5
10.636 -7.5900002 2.2409999 5
10.72 -7.4770002 2.2379999 5
10.773 -7.4489999 2.237 5
10.67 -7.5749998 2.24 5
10.732 -7.506 2.2379999 5
10.749 -7.4419999 2.237 5
10.595 -7.586 2.2420001 5
10.736 -7.4559999 2.2379999 5
10.72 -7.572 2.2390001 5
10.647 -7.5139999 2.24 5
10.752 -7.552 2.2379999 5
10.767 -7.5780001 2.2379999 5
10.695 -7.546 2.2390001 5
10.756 -7.3979998 2.237 5
10.766 -7.4039998 2.237 5
10.747 -7.513 2.2379999 5
10.632 -7.487 2.24 5
10.708 -7.474 2.2379999 5
10.544 -7.586 2.243 5
10.657 -7.54 2.24 5
10.714 -7.4759998 2.2379999 5
10.764 -7.461 2.237 5
10.755 -7.579 2.2379999 5
10.728 -7.402 2.237 5
10.768 -7.5219998 2.2379999 5
10.745 -7.5300002 2.2379999 5
10.748 -7.5560002 2.2379999 5
10.767 -7.3800001 2.2360001 5
10.609 -7.5489998 2.2409999 5
10.545 -7.5840001 2.243 5
10.628 -7.573 2.2409999 5
10.755 -7.5570002 2.2379999 5
10.783 -7.3990002 2.2360001 5
10.637 -7.5050001 2.24 5
10.657 -7.5250001 2.24 5
10.786 -7.3959999 2.2360001 5
10.593 -7.5229998 2.2409999 5
10.675 -7.5900002 2.24 5
10.707 -7.5089998 2.2390001 5
10.766 -7.5799999 2.2379999 5
10.74 -7.4879999 2.2379999 5
10.651 -7.5019999 2.24 5
10.727 -7.4629998 2.2379999 5
10.751 -7.4109998 2.237 5
10.63 -7.5250001 2.24 5
10.768 -7.5240002 2.2379999 5
10.684 -7.573 2.24 5
10.611 -7.5219998 2.2409999 5
10.579 -7.5380001 2.2409999 5
10.744 -7.5180001 2.2379999 5
10.738 -7.4219999 2.237 5
10.681 -7.5440001 2.24 5
10.739 -7.5170002 2.2379999 5
10.753 -7.4299998 2.237 5
10.727 -7.5489998 2.2390001 5
10.757 -7.4559999 2.237 5
10.759 -7.3959999 2.237 5
10.622 -7.506 2.24 5
10.644 -7.4889998 2.24 5
10.72 -7.5430002 2.2390001 5
10.547 -7.5689998 2.2420001 5
10.63 -7.5100002 2.24 5
10.703 -7.454 2.2379999 5
10.593 -7.5430002 2.2409999 5
10.778 -7.3829999 2.2360001 5
10.627 -7.5510001 2.2409999 5
10.737 -7.4180002 2.237 5
10.663 -7.5599999 2.24 5
10.653 -7.4790001 2.2390001 5
10.736 -7.5240002 2.2379999 5
10.621 -7.5609999 2.2409999 5
10.701 -7.5469999 2.2390001 5
10.777 -7.4000001 2.2360001 5
10.771 -7.3699999 2.2360001 5
10.665 -7.6009998 2.24 5
10.749 -7.5700002 2.2379999 5
10.764 -7.402 2.237 5
10.765 -7.3649998 2.2360001 5
10.652 -7.5079999 2.24 5
10.692 -7.5840001 2.24 5
10.611 -7.5029998 2.2409999 5
10.707 -7.4650002 1.653 5
10.71 -7.5700002 1.6339999 5
10.707 -7.461 1.665 5
10.708 -7.4819999 1.714 5
10.707 -7.4780002 1.6 5
10.708 -7.533 1.562 5
10.707 -7.4850001 1.49 5
10.707 -7.4580002 1.645 5
10.709 -7.5430002 1.559 5
10.71 -7.559 1.688 5
10.707 -7.4790001 1.584 5
10.708 -7.5050001 1.6059999 5
10.709 -7.559 1.604 5
10.707 -7.4840002 1.602 5
10.709 -7.5289998 1.715 5
10.707 -7.4759998 1.5140001 5
10.706 -7.4699998 1.478 5
10.708 -7.506 1.55 5
10.708 -7.513 1.6059999 5
10.707 -7.494 1.534 5
10.707 -7.467 1.557 5
10.708 -7.448 1.757 5
10.71 -7.5549998 1.675 5
10.708 -7.4809999 1.701 5
10.707 -7.4759998 1.579 5
10.709 -7.5289998 1.6210001 5
10.709 -7.5430002 1.65 5
10.707 -7.4860001 1.573 5
10.708 -7.5029998 1.546 5
10.708 -7.4819999 1.725 5
10.708 -7.5009999 1.548 5
10.71 -7.5650001 1.653 5
10.709 -7.5370002 1.631 5
10.711 -7.6020002 1.636 5
10.707 -7.461 1.601 5
10.709 -7.5689998 1.598 5
10.708 -7.4640002 1.77 5
10.708 -7.487 1.665 5
10.709 -7.4879999 1.7539999 5
10.707 -7.4619999 1.5880001 5
10.708 -7.4749999 1.669 5
10.709 -7.5370002 1.676 5
10.707 -7.4720001 1.622 5
10.708 -7.4759998 1.762 5
10.707 -7.473 1.628 5
10.707 -7.467 1.663 5
10.71 -7.5570002 1.677 5
10.707 -7.4920001 1.5140001 5
10.707 -7.4770002 1.508 5
10.709 -7.5539999 1.647 5
10.708 -7.473 1.7410001 5
10.71 -7.5770001 1.5930001 5
10.707 -7.4790001 1.5930001 5
10.707 -7.4650002 1.674 5
10.709 -7.5489998 1.626 5
10.708 -7.48 1.756 5
10.708 -7.4879999 1.623 5
10.708 -7.4790001 1.674 5
10.708 -7.5320001 1.581 5
10.709 -7.5419998 1.631 5
10.708 -7.5370002 1.55 5
10.707 -7.4660001 1.575 5
10.708 -7.5029998 1.54 5
10.707 -7.4640002 1.574 5
10.709 -7.5489998 1.575 5
10.71 -7.5799999 1.647 5
10.709 -7.5359998 1.6849999 5
10.708 -7.507 1.5369999 5
10.706 -7.4699998 1.4809999 5
10.708 -7.5 1.581 5
10.707 -7.487 1.498 5
10.709 -7.5250001 1.714 5
10.708 -7.494 1.699 5
10.71 -7.5549998 1.693 5
10.708 -7.4640002 1.774 5
10.708 -7.506 1.6109999 5
10.708 -7.4640002 1.776 5
10.708 -7.4990001 1.697 5
10.71 -7.5780001 1.6720001 5
10.707 -7.4790001 1.574 5
10.707 -7.4640002 1.551 5
10.71 -7.586 1.643 5
10.71 -7.573 1.617 5
10.71 -7.5900002 1.638 5
10.708 -7.487 1.669 5
10.708 -7.4970002 1.666 5
10.71 -7.5580001 1.699 5
10.707 -7.4990001 1.499 5
10.71 -7.5760002 1.661 5
10.71 -7.5999999 1.632 5
10.708 -7.5029998 1.659 5
10.707 -7.461 1.628 5
10.708 -7.5289998 1.5700001 5
10.709 -7.5349998 1.65 5
10.707 -7.4819999 1.561 5
10.708 -7.5009999 1.689 5
10.709 -7.4970002 1.753 5
10.707 -7.467 1.554 5
10.708 -7.5289998 1.5700001 5
10.711 -7.598 1.652 5
10.71 -7.573 1.669 5
10.71 -7.5710001 1.649 5
10.707 -7.467 1.53 5
10.708 -7.5050001 1.612 5
10.708 -7.4720001 1.75 5
10.708 -7.467 1.722 5
10.708 -7.5170002 1.594 5
10.71 -7.5879998 1.628 5
10.709 -7.5240002 1.676 5
10.707 -7.4920001 1.527 5
10.708 -7.4829998 1.624 5
10.71 -7.5749998 1.664 5
10.707 -7.487 1.53 5
10.707 -7.4530001 1.678 5
10.707 -7.4749999 1.594 5
10.708 -7.5110002 1.557 5
10.708 -7.5170002 1.627 5
10.707 -7.48 1.523 5
10.708 -7.5079999 1.528 5
10.71 -7.5619998 1.6900001 5
10.709 -7.5079999 1.674 5
10.708 -7.4499998 1.757 5
10.709 -7.553 1.638 5
10.708 -7.4829998 1.693 5
10.708 -7.4809999 1.6390001 5
10.707 -7.4679999 1.548 5
10.707 -7.4640002 1.553 5
10.709 -7.5440001 1.6619999 5
10.709 -7.5209999 1.641 5
10.708 -7.4980001 1.642 5
10.708 -7.4840002 1.738 5
10.708 -7.4559999 1.757 5
10.709 -7.5450001 1.633 5
10.709 -7.539 1.573 5
10.708 -7.4959998 1.6900001 5
10.71 -7.5799999 1.673 5
10.707 -7.4780002 1.539 5
10.709 -7.5100002 1.727 5
10.707 -7.4699998 1.646 5
10.708 -7.5180001 1.617 5
10.709 -7.5599999 1.587 5
10.708 -7.4650002 1.7640001 5
10.708 -7.4590001 1.763 5
10.709 -7.5320001 1.591 5
10.709 -7.5549998 1.632 5
10.706 -7.4770002 1.482 5
10.708 -7.4619999 1.693 5
10.708 -7.5380001 1.556 5
10.708 -7.473 1.714 5
10.707 -7.4710002 1.585 5
10.707 -7.4790001 1.535 5
10.708 -7.5149999 1.6160001 5
10.71 -7.566 1.676 5
10.708 -7.4510002 1.799 5
10.708 -7.4819999 1.737 5
10.707 -7.4819999 1.529 5
10.71 -7.5669999 1.653 5
10.708 -7.4720001 1.751 5
10.709 -7.5159998 1.699 5
10.708 -7.4899998 1.596 5
10.709 -7.5419998 1.6619999 5
10.708 -7.526 1.5880001 5
10.709 -7.5409999 1.604 5
10.708 -7.5079999 1.604 5
10.71 -7.586 1.646 5
10.711 -7.605 1.649 5
10.707 -7.4640002 1.646 5
10.707 -7.4710002 1.5420001 5
10.708 -7.473 1.7690001 5
10.708 -7.4850001 1.681 5
10.709 -7.5650001 1.603 5
10.709 -7.552 1.602 5
10.707 -7.4619999 1.631 5
10.709 -7.527 1.724 5
10.708 -7.4860001 1.638 5
10.709 -7.5689998 1.584 5
10.708 -7.4949999 1.666 5
10.709 -7.5250001 1.711 5
10.71 -7.5669999 1.647 5
10.709 -7.546 1.586 5
10.708 -7.4910002 1.609 5
10.71 -7.5970001 1.628 5
10.709 -7.5339999 1.6849999 5
10.708 -7.5100002 1.592 5
10.708 -7.4580002 1.776 5
10.709 -7.4970002 1.712 5
10.709 -7.54 1.647 5
10.708 -7.4840002 1.653 5
10.709 -7.5609999 1.596 5
10.707 -7.4860001 1.5930001 5
10.71 -7.5929999 1.637 5
10.709 -7.5440001 1.585 5
10.708 -7.4920001 1.698 5
10.708 -7.5170002 1.5650001 5
10.707 -7.4949999 1.52 5
10.706 -7.4780002 1.472 5
10.709 -7.5440001 1.609 5
10.71 -7.5949998 1.646 5
10.708 -7.5110002 1.658 5
10.708 -7.4720001 1.752 5
10.709 -7.5679998 1.599 5
10.707 -7.4619999 1.6619999 5
10.709 -7.5599999 1.596 5
10.709 -7.5469999 1.676 5
10.707 -7.474 1.526 5
10.707 -7.4650002 1.625 5
10.707 -7.4860001 1.4859999 5
10.707 -7.4699998 1.623 5
10.709 -7.5510001 1.627 5
10.709 -7.553 1.617 5
10.71 -7.5710001 1.659 5
10.708 -7.4819999 1.694 5
10.709 -7.5489998 1.67 5
10.708 -7.507 1.564 5
10.709 -7.539 1.632 5
10.709 -7.5190001 1.654 5
10.71 -7.5650001 1.668 5
10.708 -7.4780002 1.652 5
10.707 -7.506 1.516 5
10.708 -7.4689999 1.747 5
10.708 -7.4549999 1.784 5
10.708 -7.474 1.738 5
10.709 -7.527 1.651 5
10.71 -7.546 1.699 5
10.709 -7.5409999 1.558 5
10.709 -7.533 1.714 5
10.708 -7.4809999 1.751 5
10.709 -7.5180001 1.714 5
10.71 -7.546 1.705 5
10.707 -7.4770002 1.626 5
10.709 -7.552 1.579 5
10.709 -7.5609999 1.624 5
10.709 -7.5149999 1.668 5
10.708 -7.467 1.747 5
10.707 -7.4879999 1.511 5
10.711 -7.6030002 1.636 5
10.708 -7.5240002 1.5880001 5
10.708 -7.5079999 1.624 5
10.707 -7.4759998 1.513 5
10.708 -7.5180001 1.562 5
10.708 -7.5050001 1.613 5
10.707 -7.4780002 1.6059999 5
10.706 -7.4770002 1.4809999 5
10.709 -7.5539999 1.647 5
10.709 -7.5380001 1.691 5
10.709 -7.5539999 1.603 5
10.708 -7.493 1.704 5
10.71 -7.5479999 1.675 5
10.711 -7.6020002 1.63 5
10.71 -7.5869999 1.6390001 5
10.707 -7.4520001 1.72 5
10.708 -7.4510002 1.7460001 5
10.71 -7.5760002 1.614 5
10.71 -7.5440001 1.702 5
10.709 -7.5570002 1.603 5
10.71 -7.572 1.669 5
10.709 -7.5089998 1.688 5
10.709 -7.5029998 1.706 5
10.708 -7.4559999 1.755 5
10.71 -7.5679998 1.661 5
10.708 -7.5159998 1.516 5
10.708 -7.4889998 1.698 5
10.709 -7.5349998 1.625 5
10.709 -7.494 1.738 5
10.71 -7.5650001 1.6799999 5
10.707 -7.4510002 1.726 5
10.709 -7.5229998 1.625 5
10.709 -7.493 1.743 5
10.708 -7.5159998 1.552 5
10.707 -7.4910002 1.51 5
10.708 -7.5029998 1.683 5
10.711 -7.6149998 1.636 5
10.707 -7.4660001 1.649 5
10.708 -7.4619999 1.744 5
10.707 -7.461 1.595 5
10.708 -7.473 1.776 5
10.708 -7.467 1.716 5
10.708 -7.4790001 1.6950001 5
10.708 -7.46 1.7309999 5
10.707 -7.4829998 1.602 5
10.71 -7.5809999 1.612 5
10.708 -7.487 1.706 5
10.71 -7.5830002 1.654 5
10.707 -7.4549999 1.706 5
10.709 -7.5489998 1.6109999 5
10.708 -7.5209999 1.574 5
10.709 -7.5380001 1.674 5
10.709 -7.5209999 1.649 5
10.708 -7.5079999 1.568 5
10.731 -7.447 2.2030001 5
10.722 -7.2020001 2.191 5
10.73 -7.513 2.201 5
10.73 -7.4819999 2.2019999 5
10.73 -7.4699998 2.201 5
10.7 -6.9970002 2.165 5
10.715 -7.2030001 2.1830001 5
10.724 -7.3099999 2.194 5
10.717 -7.1090002 2.184 5
10.714 -7.0770001 2.181 5
10.727 -7.4879999 2.198 5
10.701 -6.974 2.165 5
10.715 -7.1059999 2.1830001 5
10.72 -7.1999998 2.1889999 5
10.695 -6.9450002 2.158 5
10.72 -7.4070001 2.1889999 5
10.715 -7.1129999 2.1830001 5
10.72 -7.349 2.1889999 5
10.722 -7.3039999 2.191 5
10.728 -7.5240002 2.198 5
10.721 -7.388 2.1900001 5
10.719 -7.0409999 2.187 5
10.703 -7.1149998 2.168 5
10.724 -7.4549999 2.194 5
10.726 -7.0209999 2.1960001 5
10.717 -7.1820002 2.1849999 5
10.726 -7.1789999 2.1960001 5
10.722 -7.1259999 2.1900001 5
10.708 -7.0029998 2.174 5
10.704 -7.1009998 2.1689999 5
10.72 -7.0640001 2.188 5
10.729 -7.48 2.2 5
10.722 -7.1539998 2.191 5
10.728 -7.3610001 2.1989999 5
10.722 -7.4320002 2.1919999 5
10.702 -6.9759998 2.1659999 5
10.719 -7.1669998 2.188 5
10.723 -7.1570001 2.1919999 5
10.7 -6.954 2.1630001 5
10.703 -7.0929999 2.168 5
10.698 -6.9629998 2.161 5
10.722 -7.1799998 2.191 5
10.721 -7.2589998 2.1889999 5
10.712 -6.9949999 2.1789999 5
10.725 -7.4990001 2.1949999 5
10.725 -7.2639999 2.1949999 5
10.711 -7.2379999 2.177 5
10.727 -7.099 2.197 5
10.725 -7.316 2.194 5
10.727 -7.316 2.197 5
10.73 -7.2319999 2.201 5
10.724 -7.3779998 2.194 5
10.717 -7.1259999 2.1849999 5
10.708 -7.099 2.174 5
10.732 -7.6059999 2.2030001 5
10.709 -7.0279999 2.175 5
10.715 -6.993 2.1830001 5
10.724 -7.4289999 2.194 5
10.699 -7.0100002 2.1630001 5
10.72 -7.2750001 2.1889999 5
10.705 -7.0219998 2.171 5
10.707 -6.9790001 2.1719999 5
10.715 -7.303 2.1830001 5
10.703 -7.0339999 2.168 5
10.728 -7.0630002 2.198 5
10.728 -7.3800001 2.198 5
10.728 -7.3730001 2.1989999 5
10.728 -7.0050001 2.198 5
10.731 -7.1389999 2.2019999 5
10.709 -6.9759998 2.175 5
10.725 -7.0339999 2.194 5
10.701 -6.9689999 2.165 5
10.706 -7.013 2.171 5
10.699 -7.0009999 2.1630001 5
10.699 -6.9429998 2.1630001 5
10.712 -7.1560001 2.178 5
10.721 -7.0619998 2.1900001 5
10.701 -6.9619999 2.165 5
10.728 -7.4320002 2.1989999 5
10.698 -6.9439998 2.161 5
10.722 -7.2509999 2.191 5
10.72 -7.1659999 2.1889999 5
10.716 -7.2309999 2.184 5
10.73 -7.2140002 2.201 5
10.696 -6.9460001 2.1589999 5
10.705 -7.0139999 2.1700001 5
10.718 -7.3559999 2.1860001 5
10.725 -7.2010002 2.194 5
10.732 -7.5640001 2.204 5
10.714 -7.1890001 2.1819999 5
10.724 -7.131 2.1930001 5
10.716 -7.1820002 2.1830001 5
10.726 -7.335 2.1960001 5
10.718 -7.3150001 2.1860001 5
10.723 -7.461 2.1930001 5
10.73 -7.257 2.201 5
10.722 -7.0760002 2.191 5
10.703 -7.0819998 2.168 5
10.729 -7.0229998 2.1989999 5
10.715 -7.263 2.1830001 5
10.703 -6.9829998 2.168 5
10.723 -7.4050002 2.1930001 5
10.731 -7.5609999 2.2030001 5
10.719 -7.2319999 2.187 5
10.724 -7.2270002 2.1930001 5
10.722 -7.0539999 2.1900001 5
10.725 -7.23 2.194 5
10.721 -7.1620002 2.1900001 5
10.715 -7.316 2.1819999 5
10.713 -7.0549998 2.1800001 5
10.732 -7.3709998 2.2030001 5
10.721 -7.3509998 2.191 5
10.721 -7.3870001 2.191 5
10.73 -7.1849999 2.201 5
10.713 -7.1729999 2.1800001 5
10.707 -7.0089998 2.1719999 5
10.722 -7.3000002 2.191 5
10.711 -7.0970001 2.178 5
10.711 -7.0380001 2.178 5
10.714 -7.2140002 2.181 5
10.732 -7.2480001 2.2030001 5
10.724 -7.2010002 2.1930001 5
10.719 -7.2069998 2.187 5
10.728 -7.4590001 2.198 5
10.695 -6.9559999 2.158 5
10.728 -7.1919999 2.198 5
10.721 -6.9949999 2.1889999 5
10.73 -7.204 2.201 5
10.709 -7.0879998 2.175 5
10.724 -7.276 2.194 5
10.724 -7.052 2.1930001 5
10.716 -7.0819998 2.1830001 5
10.721 -7.0320001 2.1889999 5
10.729 -7.0100002 2.1989999 5
10.717 -7.2090001 2.1849999 5
10.721 -7.0409999 2.1900001 5
10.718 -7.3649998 2.187 5
10.73 -7.316 2.201 5
10.729 -7.5570002 2.2 5
10.711 -6.9689999 2.177 5
10.723 -7.1719999 2.1919999 5
10.723 -7.3049998 2.1930001 5
10.715 -7.2979999 2.1830001 5
10.704 -6.96 2.1689999 5
10.73 -7.4780002 2.201 5
10.718 -7.2189999 2.187 5
10.711 -7.1160002 2.178 5
10.712 -7.0019999 2.1789999 5
10.729 -7.3769999 2.2 5
10.731 -7.5089998 2.2030001 5
10.697 -6.9899998 2.161 5
10.707 -7.072 2.1730001 5
10.719 -7.0999999 2.187 5
10.709 -7.0089998 2.175 5
10.732 -7.2280002 2.2030001 5
10.729 -7.323 2.2 5
10.723 -7.086 2.1919999 5
10.712 -7.138 2.1789999 5
10.73 -7.3390002 2.201 5
10.699 -7.033 2.1630001 5
10.713 -7.0949998 2.1800001 5
10.719 -7.309 2.188 5
10.704 -6.9879999 2.1689999 5
10.726 -7.1750002 2.1960001 5
10.706 -6.9879999 2.171 5
10.725 -7.0780001 2.1949999 5
10.73 -7.4380002 2.201 5
10.708 -6.9710002 2.174 5
10.722 -7.1849999 2.191 5
10.721 -7.0170002 2.1900001 5
10.731 -7.402 2.2019999 5
10.704 -7.086 2.1689999 5
10.723 -7.0289998 2.1919999 5
10.722 -7.105 2.191 5
10.704 -7.059 2.1689999 5
10.713 -7.1550002 2.1800001 5
10.701 -7.0489998 2.165 5
10.701 -6.973 2.1659999 5
10.731 -7.4699998 2.2030001 5
10.731 -7.1599998 2.2019999 5
10.731 -7.4699998 2.2030001 5
10.712 -7.0900002 2.178 5
10.731 -7.3270001 2.2030001 5
10.727 -7.1240001 2.197 5
10.71 -7.1059999 2.177 5
10.719 -7.0770001 2.188 5
10.72 -7.0469999 2.1889999 5
10.728 -7.316 2.198 5
10.728 -7.0320001 2.198 5
10.723 -7.3920002 2.1930001 5
10.73 -7.2480001 2.2 5
10.731 -7.0650001 2.201 5
10.705 -7.4889998 1.444 5
10.7 -7.5089998 1.395 5
10.702 -7.4990001 1.411 5
10.701 -7.4970002 1.402 5
10.705 -7.4860001 1.442 5
10.702 -7.5679998 1.3890001 5
10.703 -7.527 1.416 5
10.703 -7.513 1.419 5
10.699 -7.5110002 1.385 5
10.704 -7.487 1.432 5
10.702 -7.559 1.3940001 5
10.702 -7.559 1.392 5
10.699 -7.5040002 1.385 5
10.701 -7.513 1.4 5
10.698 -7.5089998 1.374 5
10.705 -7.4860001 1.442 5
10.704 -7.5079999 1.428 5
10.704 -7.493 1.429 5
10.703 -7.526 1.409 5
10.699 -7.5209999 1.381 5
10.7 -7.5110002 1.392 5
10.705 -7.4879999 1.443 5
10.703 -7.5209999 1.414 5
10.703 -7.5009999 1.425 5
10.704 -7.5190001 1.4220001 5
10.704 -7.4840002 1.4349999 5
10.703 -7.5300002 1.41 5
10.702 -7.527 1.406 5
10.702 -7.5279999 1.403 5
10.7 -7.5089998 1.39 5
10.704 -7.4980001 1.433 5
10.7 -7.5419998 1.38 5
10.702 -7.566 1.3890001 5
10.706 -7.4749999 1.456 5
10.727 -7.5780001 2.0039999 5
10.727 -7.3720002 1.99 5
10.727 -7.526 2.0050001 5
10.728 -7.6220002 2.0109999 5
10.727 -7.631 2.0079999 5
10.726 -7.4569998 1.988 5
10.718 -7.494 1.913 5
10.719 -7.4689999 1.916 5
10.723 -7.48 1.962 5
10.713 -7.434 1.8559999 5
10.718 -7.5219998 1.915 5
10.714 -7.4359999 1.865 5
10.728 -7.598 2.0109999 5
10.727 -7.5819998 2.0039999 5
10.724 -7.5749998 1.973 5
10.716 -7.5110002 1.8890001 5
10.718 -7.5240002 1.91 5
10.725 -7.5739999 1.9809999 5
10.713 -7.493 1.858 5
10.726 -7.6079998 1.993 5
10.717 -7.5229998 1.903 5
10.719 -7.526 1.9220001 5
10.726 -7.4889998 1.988 5
10.72 -7.493 1.928 5
10.726 -7.645 2 5
10.722 -7.5149999 1.949 5
10.726 -7.5349998 1.987 5
10.715 -7.4819999 1.876 5
10.726 -7.4000001 1.988 5
10.726 -7.5419998 1.995 5
10.71 -7.4450002 1.826 5
10.725 -7.5910001 1.9809999 5
10.726 -7.6420002 1.999 5
10.716 -7.4180002 1.886 5
10.721 -7.5599999 1.941 5
10.709 -7.4489999 1.816 5
10.715 -7.4520001 1.882 5
10.718 -7.4289999 1.911 5
10.727 -7.6290002 2.0039999 5
10.712 -7.4790001 1.852 5
10.725 -7.552 1.9809999 5
10.728 -7.638 2.02 5
10.726 -7.5640001 1.989 5
10.721 -7.487 1.943 5
10.72 -7.461 1.928 5
10.713 -7.4569998 1.8559999 5
10.724 -7.5019999 1.9680001 5
10.725 -7.4850001 1.976 5
10.716 -7.448 1.893 5
10.718 -7.4369998 1.9119999 5
10.727 -7.585 2 5
10.722 -7.506 1.949 5
10.723 -7.5029998 1.956 5
10.718 -7.402 1.9069999 5
10.711 -7.4400001 1.839 5
10.714 -7.5110002 1.875 5
10.721 -7.5679998 1.941 5
10.728 -7.6409998 2.0120001 5
10.713 -7.4780002 1.8559999 5
10.723 -7.428 1.955 5
10.715 -7.4970002 1.878 5
10.724 -7.375 1.9630001 5
10.722 -7.5560002 1.9529999 5
10.721 -7.4390001 1.936 5
10.723 -7.6129999 1.969 5
10.725 -7.6139998 1.984 5
10.726 -7.6129999 1.995 5
10.721 -7.507 1.938 5
10.728 -7.6719999 2.0220001 5
10.721 -7.4510002 1.941 5
10.722 -7.3920002 1.948 5
10.723 -7.4650002 1.96 5
10.712 -7.48 1.847 5
10.712 -7.4299998 1.848 5
10.722 -7.4499998 1.944 5
10.727 -7.6170001 2.01 5
10.721 -7.5320001 1.941 5
10.72 -7.4899998 1.934 5
10.719 -7.427 1.913 5
10.724 -7.4310002 1.965 5
10.717 -7.4980001 1.898 5
10.717 -7.4590001 1.9 5
10.726 -7.4400001 1.988 5
10.725 -7.579 1.987 5
10.721 -7.5419998 1.938 5
10.726 -7.4219999 1.989 5
10.726 -7.5209999 1.987 5
10.722 -7.434 1.951 5
10.726 -7.533 1.995 5
10.723 -7.4549999 1.954 5
10.724 -7.5910001 1.977 5
10.722 -7.5910001 1.957 5
10.714 -7.4850001 1.868 5
10.726 -7.4489999 1.987 5
10.719 -7.5560002 1.919 5
10.717 -7.4559999 1.899 5
10.727 -7.4390001 1.995 5
10.722 -7.5640001 1.9579999 5
10.712 -7.454 1.849 5
10.727 -7.5380001 2.0039999 5
10.721 -7.3940001 1.936 5
10.719 -7.4970002 1.923 5
10.718 -7.4629998 1.905 5
10.726 -7.4590001 1.989 5
10.718 -7.5409999 1.9119999 5
10.725 -7.4640002 1.978 5
10.716 -7.4219999 1.886 5
10.728 -7.6560001 2.0179999 5
10.715 -7.434 1.881 5
10.716 -7.4889998 1.887 5
10.716 -7.4850001 1.888 5
10.723 -7.408 1.952 5
10.718 -7.4180002 1.909 5
10.717 -7.4699998 1.9 5
10.724 -7.4369998 1.964 5
10.718 -7.4770002 1.909 5
10.722 -7.4419999 1.944 5
10.715 -7.4790001 1.8789999 5
10.728 -7.6420002 2.0190001 5
10.725 -7.6020002 1.983 5
10.726 -7.5780001 1.992 5
10.727 -7.5170002 2.0039999 5
10.725 -7.5970001 1.983 5
10.712 -7.447 1.852 5
10.722 -7.4759998 1.954 5
10.721 -7.3909998 1.937 5
10.724 -7.6259999 1.98 5
10.723 -7.553 1.962 5
10.711 -7.4710002 1.841 5
10.718 -7.4689999 1.913 5
10.718 -7.527 1.9170001 5
10.72 -7.5500002 1.9299999 5
10.724 -7.4749999 1.965 5
10.712 -7.4899998 1.851 5
10.726 -7.4130001 1.982 5
10.724 -7.474 1.966 5
10.715 -7.4809999 1.8789999 5
10.724 -7.5469999 1.973 5
10.717 -7.5219998 1.904 5
10.722 -7.5450001 1.955 5
10.715 -7.4959998 1.8839999 5
10.725 -7.4359999 1.974 5
10.722 -7.3969998 1.946 5
10.724 -7.3990002 1.967 5
10.725 -7.4749999 1.98 5
10.717 -7.5320001 1.906 5
10.72 -7.586 1.939 5
10.72 -7.566 1.936 5
10.714 -7.4889998 1.867 5
10.722 -7.4650002 1.952 5
10.722 -7.4289999 1.952 5
10.717 -7.4109998 1.897 5
10.726 -7.6030002 1.998 5
10.713 -7.4310002 1.86 5
10.724 -7.4980001 1.975 5
10.727 -7.6009998 2.003 5
10.726 -7.3759999 1.989 5
10.729 -7.6690001 2.023 5
10.72 -7.5250001 1.928 5
10.717 -7.4829998 1.905 5
10.716 -7.4710002 1.887 5
10.715 -7.474 1.8839999 5
10.727 -7.6360002 2.0009999 5
10.722 -7.3959999 1.949 5
10.724 -7.5250001 1.974 5
10.725 -7.5300002 1.984 5
10.726 -7.3709998 1.987 5
10.721 -7.4840002 1.9400001 5
10.725 -7.5689998 1.984 5
10.724 -7.5050001 1.969 5
10.722 -7.4520001 1.9450001 5
10.723 -7.4549999 1.959 5
10.722 -7.4569998 1.9450001 5
10.725 -7.4099998 1.979 5
10.726 -7.4790001 1.9859999 5
10.722 -7.4330001 1.951 5
10.716 -7.474 1.891 5
10.711 -7.447 1.836 5
10.721 -7.4949999 1.944 5
10.724 -7.6220002 1.979 5
10.727 -7.5440001 1.999 5
10.726 -7.619 1.992 5
10.723 -7.5009999 1.964 5
10.714 -7.4860001 1.874 5
10.726 -7.3769999 1.9809999 5
10.725 -7.454 1.979 5
10.724 -7.5630002 1.9680001 5
10.725 -7.4809999 1.983 5
10.726 -7.5450001 1.99 5
10.724 -7.5949998 1.978 5
10.722 -7.414 1.95 5
10.722 -7.4590001 1.9529999 5
10.723 -7.401 1.956 5
10.725 -7.4159999 1.976 5
10.719 -7.447 1.919 5
10.723 -7.428 1.955 5
10.727 -7.6430001 2.003 5
10.723 -7.4400001 1.956 5
10.724 -7.402 1.966 5
10.722 -7.4299998 1.951 5
10.712 -7.4580002 1.846 5
10.717 -7.4819999 1.9 5
10.727 -7.5879998 2.0039999 5
10.722 -7.4679999 1.946 5
10.723 -7.5300002 1.966 5
10.722 -7.5960002 1.955 5
10.714 -7.4910002 1.869 5
10.723 -7.4499998 1.9579999 5
10.723 -7.4239998 1.961 5
10.724 -7.402 1.9630001 5
10.71 -7.4380002 1.8279999 5
10.71 -7.4439998 1.8329999 5
10.727 -7.4679999 1.999 5
10.723 -7.5830002 1.967 5
10.725 -7.5560002 1.9809999 5
10.722 -7.5050001 1.947 5
10.719 -7.4770002 1.923 5
10.719 -7.5019999 1.923 5
10.727 -7.599 2.006 5
10.723 -7.3800001 1.952 5
10.727 -7.5339999 2.006 5
10.726 -7.4980001 1.989 5
10.724 -7.5019999 1.971 5
10.725 -7.5869999 1.982 5
10.721 -7.526 1.938 5
10.725 -7.4180002 1.98 5
10.721 -7.5479999 1.939 5
10.725 -7.3790002 1.976 5
10.721 -7.5510001 1.946 5
10.712 -7.4699998 1.854 5
10.713 -7.4229999 1.863 5
10.721 -7.3940001 1.938 5
10.722 -7.3850002 1.942 5
10.726 -7.54 1.988 5
10.715 -7.473 1.878 5
10.72 -7.5819998 1.939 5
10.725 -7.447 1.974 5
10.723 -7.414 1.957 5
10.725 -7.494 1.979 5
10.725 -7.493 1.977 5
10.726 -7.6259999 1.993 5
10.721 -7.4980001 1.936 5
10.722 -7.6030002 1.9579999 5
10.716 -7.4439998 1.886 5
10.715 -7.5139999 1.8789999 5
10.724 -7.434 1.966 5
10.717 -7.434 1.903 5
10.716 -7.428 1.885 5
10.727 -7.5900002 2 5
10.724 -7.4520001 1.972 5
10.728 -7.6370001 2.0190001 5
10.717 -7.434 1.898 5
10.726 -7.526 1.987 5
10.721 -7.5040002 1.938 5
10.726 -7.368 1.988 5
10.718 -7.4970002 1.909 5
10.719 -7.5570002 1.923 5
10.715 -7.4219999 1.8789999 5
10.719 -7.4840002 1.919 5
10.712 -7.4489999 1.851 5
10.726 -7.4580002 1.9910001 5
10.721 -7.414 1.937 5
10.719 -7.506 1.9170001 5
10.725 -7.5700002 1.983 5
10.725 -7.526 1.977 5
10.715 -7.5089998 1.8839999 5
10.718 -7.5159998 1.913 5
10.714 -7.46 1.864 5
10.711 -7.4650002 1.836 5
10.723 -7.428 1.954 5
10.721 -7.4980001 1.943 5
10.718 -7.54 1.9170001 5
10.72 -7.4819999 1.933 5
10.726 -7.572 1.9960001 5
10.714 -7.4840002 1.8660001 5
10.72 -7.4229999 1.928 5
10.724 -7.4349999 1.967 5
10.722 -7.5570002 1.955 5
10.72 -7.428 1.923 5
10.728 -7.632 2.016 5
10.715 -7.4260001 1.8789999 5
10.72 -7.5209999 1.932 5
10.716 -7.4450002 1.8890001 5
10.725 -7.4070001 1.974 5
10.712 -7.4819999 1.849 5
10.727 -7.5749998 2.003 5
10.714 -7.4720001 1.868 5
10.719 -7.4000001 1.9170001 5
10.721 -7.434 1.936 5
10.719 -7.4809999 1.92 5
10.721 -7.5370002 1.944 5
10.726 -7.5190001 1.992 5
10.721 -7.4099998 1.939 5
10.711 -7.4530001 1.835 5
10.71 -7.4439998 1.8279999 5
10.716 -7.5300002 1.888 5
10.726 -7.5349998 1.989 5
10.723 -7.6090002 1.965 5
10.722 -7.4650002 1.947 5
10.727 -7.6399999 2.0020001 5
10.727 -7.5 1.995 5
10.719 -7.4050002 1.913 5
10.715 -7.4190001 1.882 5
10.723 -7.5279999 1.965 5
10.71 -7.4349999 1.824 5
10.725 -7.5809999 1.9809999 5
10.726 -7.6279998 1.9910001 5
10.716 -7.526 1.891 5
10.727 -7.4710002 2 5
10.721 -7.4699998 2.073 5
10.722 -7.4250002 2.0580001 5
10.723 -7.585 2.066 5
10.724 -7.4109998 2.027 5
10.725 -7.4239998 2.0209999 5
10.728 -7.5539999 2.0109999 5
10.724 -7.5250001 2.05 5
10.726 -7.4320002 2.0079999 5
10.719 -7.48 2.1010001 5
10.719 -7.441 2.096 5
10.719 -7.4879999 2.0969999 5
10.728 -7.5430002 2.01 5
10.725 -7.5120001 2.033 5
10.727 -7.579 2.0209999 5
10.727 -7.5279999 2.0150001 5
10.725 -7.4200001 2.0239999 5
10.726 -7.6059999 2.0369999 5
10.723 -7.5510001 2.0610001 5
10.725 -7.5 2.0369999 5
10.718 -7.4840002 2.1129999 5
10.72 -7.448 2.0840001 5
10.726 -7.507 2.0220001 5
10.725 -7.4260001 2.02 5
10.726 -7.6139998 2.043 5
10.727 -7.5640001 2.0239999 5
10.727 -7.6139998 2.036 5
10.721 -7.408 2.059 5
10.718 -7.4970002 2.108 5
10.722 -7.5320001 2.0780001 5
10.724 -7.506 2.0420001 5
10.724 -7.5890002 2.0669999 5
10.727 -7.5560002 2.02 5
10.728 -7.625 2.0220001 5
10.726 -7.4159999 2.003 5
10.725 -7.5250001 2.0380001 5
10.727 -7.546 2.016 5
10.724 -7.5819998 2.063 5
10.723 -7.5250001 2.0639999 5
10.721 -7.4109998 2.0639999 5
10.723 -7.5570002 2.072 5
10.719 -7.428 2.0829999 5
10.725 -7.5289998 2.039 5
10.723 -7.5689998 2.072 5
10.725 -7.4419999 2.02 5
10.724 -7.5799999 2.059 5
10.718 -7.493 2.1059999 5
10.721 -7.4959998 2.0780001 5
10.724 -7.5310001 2.052 5
10.726 -7.4980001 2.023 5
10.721 -7.4219999 2.059 5
10.721 -7.4980001 2.075 5
10.724 -7.5100002 2.05 5
10.727 -7.6479998 2.036 5
10.722 -7.526 2.0680001 5
10.726 -7.605 2.0380001 5
10.724 -7.3930001 2.0280001 5
10.721 -7.5300002 2.0869999 5
10.725 -7.4330001 2.02 5
10.724 -7.5679998 2.0610001 5
10.719 -7.427 2.092 5
10.727 -7.6430001 2.04 5
10.727 -7.6160002 2.0339999 5
10.723 -7.4559999 2.0510001 5
10.719 -7.441 2.096 5
10.723 -7.4710002 2.0539999 5
10.723 -7.5120001 2.0569999 5
10.727 -7.5910001 2.0220001 5
10.726 -7.619 2.049 5
10.721 -7.4980001 2.076 5
10.723 -7.5630002 2.069 5
10.724 -7.5619998 2.059 5
10.726 -7.579 2.0409999 5
10.724 -7.473 2.0420001 5
10.725 -7.5700002 2.0480001 5
10.723 -7.5320001 2.066 5
10.725 -7.5619998 2.04 5
10.72 -7.4390001 2.0739999 5
10.725 -7.5419998 2.0450001 5
10.723 -7.4780002 2.052 5
10.725 -7.3839998 2.016 5
10.727 -7.4840002 2.007 5
10.723 -7.5549998 2.062 5
10.719 -7.4310002 2.0880001 5
10.728 -7.631 2.0280001 5
10.727 -7.5240002 2.016 5
10.723 -7.4910002 2.0550001 5
10.724 -7.5679998 2.062 5
10.722 -7.5149999 2.066 5
10.717 -7.4439998 2.1170001 5
10.72 -7.5190001 2.0910001 5
10.726 -7.3889999 1.998 5
10.722 -7.507 2.0680001 5
10.724 -7.4640002 2.0350001 5
10.726 -7.5159998 2.023 5
10.721 -7.4650002 2.0780001 5
10.727 -7.4239998 2.0009999 5
10.725 -7.5840001 2.053 5
10.721 -7.5100002 2.0769999 5
10.721 -7.473 2.075 5
10.722 -7.5570002 2.073 5
10.723 -7.5089998 2.0610001 5
10.721 -7.414 2.063 5
10.725 -7.4860001 2.0250001 5
10.723 -7.4910002 2.0580001 5
10.723 -7.421 2.043 5
10.727 -7.638 2.036 5
10.723 -7.533 2.0669999 5
10.727 -7.4099998 1.995 5
10.726 -7.5869999 2.0320001 5
10.721 -7.4369998 2.0669999 5
10.722 -7.447 2.0569999 5
10.724 -7.3979998 2.0309999 5
10.727 -7.5869999 2.0209999 5
10.728 -7.5630002 2.016 5
10.722 -7.4650002 2.066 5
10.726 -7.6170001 2.043 5
10.717 -7.447 2.1170001 5
10.723 -7.4159999 2.0420001 5
10.724 -7.5430002 2.049 5
10.721 -7.5100002 2.086 5
10.726 -7.4289999 2.003 5
10.725 -7.4559999 2.026 5
10.724 -7.5840001 2.0610001 5
10.725 -7.3889999 2.0139999 5
10.726 -7.4720001 2.017 5
10.727 -7.5929999 2.0320001 5
10.721 -7.5209999 2.0869999 5
10.724 -7.5830002 2.062 5
10.726 -7.3800001 2 5
10.726 -7.6329999 2.046 5
10.726 -7.631 2.0469999 5
10.72 -7.4710002 2.0899999 5
10.728 -7.5500002 2.0120001 5
10.727 -7.573 2.0220001 5
10.724 -7.4549999 2.0339999 5
10.724 -7.4029999 2.0280001 5
10.727 -7.5050001 2.0079999 5
10.719 -7.4829998 2.1010001 5
10.725 -7.4260001 2.0220001 5
10.719 -7.4460001 2.0880001 5
10.726 -7.527 2.023 5
10.725 -7.5310001 2.0409999 5
10.723 -7.5539999 2.0680001 5
10.723 -7.4549999 2.05 5
10.722 -7.4629998 2.059 5
10.721 -7.454 2.072 5
10.719 -7.434 2.0840001 5
10.721 -7.5349998 2.085 5
10.725 -7.5079999 2.033 5
10.724 -7.4520001 2.0380001 5
10.721 -7.5310001 2.0869999 5
10.725 -7.585 2.05 5
10.728 -7.6539998 2.0280001 5
10.725 -7.5560002 2.0480001 5
10.719 -7.4349999 2.0940001 5
10.726 -7.5580001 2.0350001 5
10.725 -7.4299998 2.0150001 5
10.725 -7.4109998 2.0139999 5
10.723 -7.408 2.0380001 5
10.722 -7.4569998 2.0599999 5
10.721 -7.4089999 2.063 5
10.727 -7.4860001 2.013 5
10.719 -7.513 2.1010001 5
10.725 -7.5289998 2.0350001 5
10.719 -7.4660001 2.0969999 5
10.724 -7.553 2.0510001 5
10.727 -7.6100001 2.027 5
10.725 -7.559 2.0450001 5
10.726 -7.6199999 2.0409999 5
10.727 -7.5419998 2.0179999 5
10.719 -7.4580002 2.0969999 5
10.728 -7.6729999 2.026 5
10.725 -7.3909998 2.0109999 5
10.718 -7.4390001 2.099 5
10.72 -7.5159998 2.0910001 5
10.727 -7.4749999 2.0109999 5
10.727 -7.5289998 2.0179999 5
10.72 -7.533 2.092 5
10.722 -7.5380001 2.069 5
10.717 -7.4629998 2.1170001 5
10.727 -7.4510002 2.006 5
10.726 -7.3850002 1.999 5
10.725 -7.5929999 2.0469999 5
10.718 -7.4450002 2.1040001 5
10.726 -7.6170001 2.039 5
10.727 -7.6550002 2.0350001 5
10.726 -7.3790002 1.994 5
10.724 -7.4169998 2.0339999 5
10.727 -7.4369998 2.003 5
10.726 -7.3839998 2.003 5
10.718 -7.4510002 2.1059999 5
10.721 -7.4749999 2.0780001 5
10.726 -7.6100001 2.043 5
10.725 -7.5560002 2.0469999 5
10.723 -7.4510002 2.052 5
10.725 -7.5640001 2.0480001 5
10.727 -7.6300001 2.03 5
10.721 -7.467 2.0739999 5
10.721 -7.5450001 2.0869999 5
10.722 -7.448 2.053 5
10.724 -7.4559999 2.036 5
10.723 -7.4619999 2.0439999 5
10.719 -7.4920001 2.096 5
10.723 -7.5159998 2.0569999 5
10.722 -7.5500002 2.0769999 5
10.724 -7.5970001 2.0639999 5
10.726 -7.4159999 2.0050001 5
10.724 -7.5219998 2.0450001 5
10.724 -7.5599999 2.0599999 5
10.726 -7.5100002 2.0220001 5
10.727 -7.4439998 2.0050001 5
10.725 -7.612 2.056 5
10.708 -7.4219999 1.646 5
10.707 -7.454 1.596 5
10.713 -7.3150001 1.633 5
10.716 -7.2319999 1.599 5
10.711 -7.3720002 1.677 5
10.714 -7.2779999 1.668 5
10.712 -7.3239999 1.567 5
10.708 -7.434 1.648 5
10.71 -7.3909998 1.5650001 5
10.712 -7.3299999 1.614 5
10.712 -7.335 1.627 5
10.712 -7.3249998 1.649 5
10.711 -7.3540001 1.579 5
10.713 -7.3179998 1.548 5
10.71 -7.388 1.635 5
10.715 -7.256 1.577 5
10.712 -7.336 1.628 5
10.707 -7.4429998 1.55 5
10.711 -7.3590002 1.6059999 5
10.713 -7.3070002 1.568 5
10.709 -7.4159999 1.73 5
10.712 -7.3410001 1.701 5
10.709 -7.4089999 1.5700001 5
10.709 -7.4089999 1.692 5
10.707 -7.4499998 1.648 5
10.709 -7.414 1.581 5
10.708 -7.428 1.495 5
10.71 -7.3839998 1.623 5
10.716 -7.2360001 1.601 5
10.714 -7.2839999 1.659 5
10.715 -7.2729998 1.655 5
10.71 -7.3979998 1.738 5
10.708 -7.4250002 1.658 5
10.71 -7.3759999 1.738 5
10.715 -7.256 1.581 5
10.709 -7.4060001 1.525 5
10.711 -7.3579998 1.5369999 5
10.708 -7.427 1.6 5
10.71 -7.3730001 1.692 5
10.711 -7.3540001 1.6950001 5
10.71 -7.382 1.567 5
10.709 -7.4159999 1.747 5
10.715 -7.2690001 1.64 5
10.715 -7.2509999 1.62 5
10.711 -7.3649998 1.604 5
10.717 -7.2140002 1.617 5
10.718 -7.191 1.6 5
10.709 -7.4169998 1.7640001 5
10.707 -7.447 1.477 5
10.713 -7.3169999 1.6950001 5
10.712 -7.3249998 1.551 5
10.711 -7.3540001 1.5470001 5
10.707 -7.4450002 1.512 5
10.712 -7.3319998 1.531 5
10.71 -7.395 1.737 5
10.714 -7.2930002 1.643 5
10.713 -7.323 1.6619999 5
10.712 -7.3470001 1.6849999 5
10.71 -7.3899999 1.707 5
10.709 -7.402 1.74 5
10.709 -7.4159999 1.6109999 5
10.712 -7.3470001 1.72 5
10.718 -7.1880002 1.597 5
10.711 -7.3449998 1.525 5
10.712 -7.3309999 1.707 5
10.711 -7.3639998 1.6950001 5
10.717 -7.2210002 1.607 5
10.717 -7.2080002 1.607 5
10.711 -7.3520002 1.569 5
10.711 -7.3569999 1.684 5
10.711 -7.3579998 1.705 5
10.708 -7.4359999 1.788 5
10.71 -7.3860002 1.523 5
10.712 -7.3340001 1.539 5
10.709 -7.3990002 1.531 5
10.716 -7.2459998 1.602 5
10.716 -7.2360001 1.599 5
10.715 -7.2509999 1.6109999 5
10.71 -7.3940001 1.725 5
10.71 -7.3850002 1.637 5
10.709 -7.4099998 1.765 5
10.712 -7.3449998 1.586 5
10.709 -7.4130001 1.7079999 5
10.711 -7.3540001 1.728 5
10.709 -7.414 1.59 5
10.708 -7.4349999 1.673 5
10.713 -7.3080001 1.636 5
10.711 -7.3499999 1.562 5
10.708 -7.4359999 1.507 5
10.711 -7.3670001 1.572 5
10.713 -7.3080001 1.6849999 5
10.71 -7.3790002 1.572 5
10.715 -7.256 1.597 5
10.707 -7.4559999 1.601 5
10.708 -7.4229999 1.656 5
10.706 -7.4660001 1.499 5
10.709 -7.4060001 1.738 5
10.707 -7.4559999 1.494 5
10.708 -7.441 1.74 5
10.717 -7.224 1.576 5
10.716 -7.2459998 1.567 5
10.716 -7.2360001 1.572 5
10.708 -7.441 1.581 5
10.715 -7.2579999 1.596 5
10.709 -7.4089999 1.723 5
10.712 -7.3369999 1.688 5
10.708 -7.4250002 1.524 5
10.711 -7.3639998 1.6849999 5
10.712 -7.329 1.572 5
10.714 -7.276 1.581 5
10.714 -7.277 1.612 5
10.712 -7.336 1.577 5
10.709 -7.3969998 1.603 5
10.711 -7.3699999 1.656 5
10.708 -7.427 1.776 5
10.715 -7.256 1.561 5
10.713 -7.3049998 1.601 5
10.716 -7.2399998 1.601 5
10.709 -7.408 1.738 5
10.709 -7.3959999 1.553 5
10.71 -7.3940001 1.717 5
10.71 -7.388 1.589 5
10.712 -7.3319998 1.6 5
10.71 -7.3720002 1.594 5
10.709 -7.4180002 1.597 5
10.71 -7.3829999 1.584 5
10.707 -7.4530001 1.613 5
10.709 -7.4169998 1.5930001 5
10.712 -7.3460002 1.705 5
10.71 -7.3779998 1.7359999 5
10.71 -7.3920002 1.558 5
10.71 -7.3790002 1.6 5
10.715 -7.263 1.569 5
10.713 -7.302 1.594 5
10.71 -7.388 1.6109999 5
10.709 -7.401 1.709 5
10.711 -7.3670001 1.5420001 5
10.712 -7.3280001 1.592 5
10.709 -7.3990002 1.618 5
10.708 -7.4229999 1.632 5
10.713 -7.2979999 1.545 5
10.709 -7.4109998 1.676 5
10.714 -7.2950001 1.5470001 5
10.711 -7.3520002 1.525 5
10.714 -7.283 1.635 5
10.707 -7.4520001 1.65 5
10.713 -7.303 1.544 5
10.709 -7.402 1.635 5
10.707 -7.454 1.548 5
10.708 -7.4299998 1.557 5
10.709 -7.4120002 1.775 5
10.708 -7.4450002 1.761 5
10.718 -7.198 1.594 5
10.715 -7.2719998 1.665 5
10.712 -7.3400002 1.526 5
10.708 -7.4330001 1.615 5
10.709 -7.4120002 1.722 5
10.715 -7.2519999 1.5700001 5
10.708 -7.4400001 1.5700001 5
10.709 -7.4070001 1.5319999 5
10.711 -7.3649998 1.568 5
10.709 -7.414 1.74 5
10.713 -7.3039999 1.539 5
10.715 -7.2729998 1.645 5
10.707 -7.4530001 1.595 5
10.714 -7.2870002 1.654 5
10.71 -7.3959999 1.712 5
10.709 -7.4169998 1.62 5
10.712 -7.3280001 1.673 5
10.716 -7.2259998 1.601 5
10.717 -7.2150002 1.592 5
10.707 -7.4489999 1.618 5
10.707 -7.454 1.63 5
10.716 -7.2360001 1.637 5
10.709 -7.415 1.499 5
10.707 -7.4619999 1.476 5
10.709 -7.4070001 1.566 5
10.708 -7.4289999 1.778 5
10.709 -7.402 1.768 5
10.708 -7.441 1.751 5
10.713 -7.3189998 1.569 5
10.713 -7.3039999 1.689 5
10.712 -7.323 1.529 5
10.709 -7.4050002 1.7079999 5
10.707 -7.46 1.474 5
10.711 -7.348 1.598 5
10.707 -7.4569998 1.5700001 5
10.71 -7.3860002 1.62 5
10.707 -7.447 1.7359999 5
10.715 -7.27 1.571 5
10.712 -7.3270001 1.602 5
10.708 -7.4320002 1.511 5
10.708 -7.441 1.688 5
10.713 -7.3070002 1.628 5
10.713 -7.3000002 1.605 5
10.71 -7.382 1.562 5
10.707 -7.4590001 1.5599999 5
10.707 -7.4530001 1.587 5
10.709 -7.401 1.523 5
10.71 -7.3940001 1.638 5
10.717 -7.211 1.586 5
10.711 -7.3600001 1.513 5
10.708 -7.4450002 1.712 5
10.71 -7.3759999 1.732 5
10.713 -7.3169999 1.5829999 5
10.713 -7.3179998 1.679 5
10.708 -7.4450002 1.721 5
10.707 -7.4569998 1.543 5
10.712 -7.3379998 1.7079999 5
10.712 -7.3299999 1.659 5
10.709 -7.408 1.779 5
10.714 -7.29 1.609 5
10.708 -7.4390001 1.539 5
10.711 -7.3439999 1.538 5
10.71 -7.3909998 1.54 5
10.711 -7.3660002 1.626 5
10.71 -7.3829999 1.701 5
10.711 -7.369 1.671 5
10.708 -7.4250002 1.614 5
10.708 -7.4239998 1.655 5
10.714 -7.2870002 1.604 5
10.709 -7.4120002 1.678 5
10.711 -7.348 1.601 5
10.71 -7.3790002 1.59 5
10.71 -7.3759999 1.666 5
10.707 -7.4499998 1.482 5
10.708 -7.428 1.772 5
10.707 -7.4549999 1.591 5
10.709 -7.3940001 1.526 5
10.707 -7.4530001 1.53 5
10.709 -7.4000001 1.589 5
10.71 -7.375 1.647 5
10.716 -7.2420001 1.637 5
10.713 -7.3210001 1.696 5
10.71 -7.3920002 1.597 5
10.713 -7.303 1.664 5
10.71 -7.381 1.5470001 5
10.708 -7.421 1.595 5
10.708 -7.4310002 1.73 5
10.708 -7.4419999 1.641 5
10.708 -7.427 1.778 5
10.715 -7.2620001 1.6109999 5
10.711 -7.3559999 1.701 5
10.712 -7.3260002 1.6799999 5
10.713 -7.303 1.614 5
10.712 -7.3439999 1.612 5
10.717 -7.2220001 1.607 5
10.713 -7.3189998 1.635 5
10.711 -7.3720002 1.665 5
10.716 -7.2309999 1.624 5
10.713 -7.3099999 1.6900001 5
10.707 -7.448 1.64 5
10.711 -7.3520002 1.724 5
10.709 -7.3969998 1.605 5
10.715 -7.2690001 1.6 5
10.707 -7.4510002 1.512 5
10.714 -7.2789998 1.599 5
10.711 -7.3660002 1.744 5
10.71 -7.381 1.676 5
10.711 -7.3709998 1.726 5
10.716 -7.2259998 1.6210001 5
10.713 -7.3000002 1.563 5
10.711 -7.369 1.585 5
10.709 -7.4130001 1.728 5
10.712 -7.3309999 1.645 5
10.709 -7.4130001 1.599 5
10.711 -7.348 1.6670001 5
10.711 -7.368 1.557 5
10.709 -7.4120002 1.508 5
10.711 -7.3660002 1.717 5
10.71 -7.3709998 1.608 5
10.711 -7.3730001 1.7180001 5
10.714 -7.2810001 1.6160001 5
10.712 -7.3400002 1.5549999 5
10.714 -7.2979999 1.62 5
10.708 -7.4390001 1.738 5
10.711 -7.3530002 1.585 5
10.706 -7.467 1.477 5
10.715 -7.2670002 1.577 5
10.712 -7.3379998 1.682 5
10.708 -7.421 1.666 5
10.709 -7.4000001 1.649 5
10.71 -7.3920002 1.742 5
10.713 -7.316 1.6 5
10.713 -7.3070002 1.677 5
10.712 -7.336 1.5549999 5
10.709 -7.415 1.506 5
10.709 -7.414 1.598 5
10.715 -7.2740002 1.656 5
10.708 -7.4190001 1.5420001 5
10.713 -7.3119998 1.643 5
10.709 -7.4099998 1.545 5
10.708 -7.421 1.541 5
10.71 -7.3730001 1.642 5
10.714 -7.2820001 1.647 5
10.71 -7.3769999 1.624 5
10.711 -7.368 1.527 5
10.709 -7.4089999 1.766 5
10.709 -7.415 1.523 5
10.711 -7.355 1.666 5
10.711 -7.3670001 1.711 5
10.709 -7.408 1.734 5
10.716 -7.2459998 1.573 5
10.712 -7.3390002 1.561 5
10.709 -7.415 1.643 5
10.708 -7.4330001 1.637 5
10.707 -7.454 1.53 5
10.707 -7.4489999 1.478 5
10.717 -7.211 1.603 5
10.716 -7.2319999 1.624 5
10.708 -7.4349999 1.728 5
10.711 -7.362 1.711 5
10.71 -7.3759999 1.646 5
10.713 -7.3010001 1.633 5
10.71 -7.3850002 1.663 5
10.71 -7.3959999 1.765 5
10.716 -7.2340002 1.627 5
10.709 -7.402 1.723 5
10.713 -7.3169999 1.551 5
10.712 -7.329 1.6160001 5
10.712 -7.3369999 1.533 5
10.711 -7.3579998 1.697 5
10.709 -7.395 1.517 5
10.709 -7.415 1.673 5
10.713 -7.3189998 1.607 5
10.711 -7.3610001 1.6 5
10.711 -7.368 1.552 5
10.707 -7.4460001 1.704 5
10.708 -7.4250002 1.605 5
10.713 -7.322 1.686 5
10.711 -7.3579998 1.575 5
10.711 -7.3590002 1.53 5
10.712 -7.3429999 1.619 5
10.709 -7.408 1.53 5
10.709 -7.414 1.728 5
10.713 -7.3200002 1.675 5
10.709 -7.3990002 1.653 5
10.714 -7.2909999 1.652 5
10.709 -7.4060001 1.4910001 5
10.71 -7.3769999 1.571 5
10.716 -7.2340002 1.586 5
10.712 -7.3249998 1.656 5
10.707 -7.4640002 1.529 5
10.711 -7.368 1.682 5
10.717 -7.2249999 1.582 5
10.709 -7.4109998 1.751 5
10.713 -7.3070002 1.544 5
10.71 -7.375 1.571 5
10.712 -7.3449998 1.619 5
10.714 -7.2919998 1.5930001 5
10.708 -7.4320002 1.515 5
10.718 -7.1999998 1.594 5
10.713 -7.3109999 1.6 5
10.715 -7.2519999 1.637 5
10.708 -7.4250002 1.681 5
10.711 -7.3660002 1.655 5
10.715 -7.2540002 1.596 5
10.713 -7.323 1.7029999 5
10.712 -7.342 1.669 5
10.709 -7.4089999 1.586 5
10.711 -7.3460002 1.531 5
10.709 -7.4120002 1.587 5
10.715 -7.2729998 1.5829999 5
10.708 -7.4250002 1.559 5
10.715 -7.263 1.654 5
10.707 -7.4489999 1.589 5
10.71 -7.382 1.6160001 5
10.713 -7.3070002 1.5880001 5
10.709 -7.4070001 1.4960001 5
10.71 -7.3850002 1.535 5
10.711 -7.349 1.602 5
10.708 -7.4239998 1.673 5
10.709 -7.415 1.625 5
10.71 -7.3699999 1.538 5
10.71 -7.3829999 1.73 5
10.71 -7.3899999 1.658 5
10.71 -7.3779998 1.751 5
10.714 -7.2979999 1.654 5
10.709 -7.4039998 1.745 5
10.708 -7.4320002 1.5779999 5
10.707 -7.4520001 1.6720001 5
10.713 -7.322 1.683 5
10.707 -7.4510002 1.6900001 5
10.707 -7.4439998 1.538 5
10.709 -7.4109998 1.752 5
10.712 -7.3439999 1.636 5
10.712 -7.3330002 1.671 5
10.713 -7.316 1.575 5
10.714 -7.2950001 1.544 5
10.71 -7.369 1.512 5
10.716 -7.244 1.619 5
10.713 -7.3189998 1.665 5
10.709 -7.408 1.539 5
10.709 -7.414 1.693 5
10.713 -7.3210001 1.689 5
10.711 -7.3649998 1.5549999 5
10.709 -7.4180002 1.64 5
10.715 -7.256 1.641 5
10.709 -7.4200001 1.666 5
10.713 -7.302 1.581 5
10.712 -7.3340001 1.554 5
10.708 -7.4369998 1.597 5
10.714 -7.2950001 1.557 5
10.71 -7.3860002 1.551 5
10.707 -7.4439998 1.571 5
10.713 -7.3010001 1.563 5
10.709 -7.4159999 1.627 5
10.712 -7.3260002 1.6059999 5
10.707 -7.461 1.506 5
10.716 -7.2480001 1.564 5
10.711 -7.349 1.567 5
10.711 -7.3530002 1.725 5
10.707 -7.4510002 1.604 5
10.712 -7.336 1.72 5
10.709 -7.414 1.506 5
10.709 -7.4000001 1.531 5
10.711 -7.3610001 1.7309999 5
10.71 -7.3740001 1.53 5
10.71 -7.381 1.632 5
10.708 -7.4299998 1.55 5
10.709 -7.4120002 1.776 5
10.71 -7.382 1.709 5
10.714 -7.2909999 1.633 5
10.712 -7.3410001 1.67 5
10.709 -7.3959999 1.5420001 5
10.709 -7.4180002 1.6619999 5
10.709 -7.421 1.768 5
10.708 -7.4390001 1.723 5
10.71 -7.3860002 1.5549999 5
10.71 -7.388 1.63 5
10.713 -7.3189998 1.594 5
10.716 -7.2449999 1.592 5
10.715 -7.2550001 1.596 5
10.713 -7.3179998 1.6210001 5
10.707 -7.4460001 1.563 5
10.71 -7.3730001 1.558 5
10.709 -7.402 1.587 5
10.708 -7.434 1.6900001 5
10.71 -7.3930001 1.631 5
10.715 -7.27 1.614 5
10.708 -7.4380002 1.715 5
10.709 -7.4039998 1.503 5
10.709 -7.4050002 1.636 5
10.716 -7.2470002 1.613 5
10.707 -7.4559999 1.478 5
10.716 -7.2399998 1.596 5
10.716 -7.2480001 1.576 5
10.708 -7.4320002 1.607 5
10.708 -7.4310002 1.4859999 5
10.71 -7.3909998 1.552 5
10.707 -7.4559999 1.567 5
10.713 -7.3099999 1.5549999 5
10.711 -7.3699999 1.615 5
10.709 -7.3979998 1.5930001 5
10.709 -7.4130001 1.5549999 5
10.709 -7.4120002 1.696 5
10.71 -7.3800001 1.59 5
10.715 -7.2649999 1.615 5
10.712 -7.335 1.5319999 5
10.707 -7.4439998 1.554 5
10.715 -7.2659998 1.619 5
