# .PCD v0.7 - Point Cloud Data file format
VERSION 0.7
FIELDS x y z label
SIZE 4 4 4 4
TYPE F F F U
COUNT 1 1 1 1
WIDTH 1526
HEIGHT 1
VIEWPOINT 0 0 0 1 0 0 0
POINTS 1526
DATA ascii
9.6289997 -6.6890001 0.75199997 2
9.6260004 -6.6939998 0.74800003 2
9.6300001 -6.691 0.69300002 2
9.6210003 -6.7059999 0.70999998 2
9.6400003 -6.671 0.68599999 2
9.6260004 -6.698 0.68900001 2
9.6269999 -6.6929998 0.74299997 2
9.6359997 -6.6739998 0.77399999 2
9.6339998 -6.677 0.77200001 2
9.6350002 -6.6799998 0.69400001 2
9.6260004 -6.698 0.68800002 2
9.6350002 -6.6750002 0.78899997 2
9.6409998 -6.6690001 0.69099998 2
9.6309996 -6.6869998 0.72299999 2
9.6359997 -6.6729999 0.80199999 2
9.6409998 -6.6719999 0.65899998 2
9.6379995 -6.6700001 0.76200002 2
9.6219997 -6.7049999 0.708 2
9.6379995 -6.6690001 0.76800001 2
9.6230001 -6.7049999 0.69599998 2
9.6330004 -6.678 0.77999997 2
9.6379995 -6.6680002 0.79699999 2
9.6309996 -6.6869998 0.71700001 2
9.6339998 -6.6820002 0.699 2
9.6429996 -6.6669998 0.64399999 2
9.6190004 -6.71 0.708 2
9.6389999 -6.6700001 0.73000002 2
9.6269999 -6.6950002 0.73000002 2
9.6379995 -6.6680002 0.80000001 2
9.6359997 -6.678 0.70700002 2
9.6339998 -6.6830001 0.69999999 2
9.6330004 -6.6789999 0.78200001 2
9.6350002 -6.677 0.75800002 2
9.6210003 -6.7069998 0.71499997 2
9.6239996 -6.7020001 0.70599997 2
9.6230001 -6.704 0.699 2
9.1309996 -6.7420001 0.40200001 2
9.1330004 -6.7620001 0.41999999 2
9.1029997 -6.7410002 0.40900001 2
9.1660004 -6.7550001 0.40400001 2
9.1359997 -6.7480001 0.40700001 2
9.1669998 -6.757 0.40599999 2
9.1009998 -6.7410002 0.41 2
9.1350002 -6.7529998 0.41100001 2
9.1239996 -6.7519999 0.414 2
9.1630001 -6.7459998 0.39700001 2
9.1499996 -6.7509999 0.405 2
9.1350002 -6.75 0.40900001 2
9.1009998 -6.7379999 0.40799999 2
9.1400003 -6.7639999 0.41999999 2
9.1219997 -6.7610002 0.42199999 2
9.1389999 -6.757 0.414 2
9.1440001 -6.7649999 0.41999999 2
9.1140003 -6.7399998 0.40599999 2
9.151 -6.7449999 0.39899999 2
9.1339998 -6.7589998 0.417 2
9.158 -6.7449999 0.39700001 2
9.1129999 -6.7399998 0.40599999 2
9.0930004 -6.7399998 0.41100001 2
9.1660004 -6.7509999 0.40099999 2
9.099 -6.7399998 0.41 2
9.1499996 -6.77 0.42199999 2
9.1520004 -6.7420001 0.396 2
9.118 -6.7579999 0.421 2
9.0939999 -6.7410002 0.412 2
9.1569996 -6.743 0.396 2
9.198 -6.7600002 0.414 2
9.29 -6.7319999 0.40000001 2
9.1669998 -6.7729998 0.42399999 2
9.243 -6.7420001 0.40200001 2
9.1669998 -6.7600002 0.40900001 2
9.2069998 -6.75 0.40400001 2
9.2279997 -6.7490001 0.40799999 2
9.2220001 -6.763 0.42300001 2
9.2419996 -6.744 0.405 2
9.2290001 -6.7389998 0.396 2
9.2250004 -6.7509999 0.41 2
9.2209997 -6.7550001 0.41299999 2
9.3140001 -6.73 0.40200001 2
9.2530003 -6.7449999 0.40799999 2
9.1890001 -6.7690001 0.42399999 2
9.224 -6.7589998 0.419 2
9.2480001 -6.7389998 0.40000001 2
9.1890001 -6.7719998 0.428 2
9.2539997 -6.7449999 0.40799999 2
9.2200003 -6.757 0.41600001 2
9.2320004 -6.7529998 0.414 2
9.198 -6.7449999 0.396 2
9.2550001 -6.7389998 0.40099999 2
9.1739998 -6.763 0.414 2
9.2399998 -6.7529998 0.41499999 2
9.243 -6.757 0.41999999 2
9.2180004 -6.75 0.40700001 2
9.1719999 -6.7659998 0.417 2
9.2159996 -6.7480001 0.40400001 2
9.3269997 -6.7280002 0.40200001 2
9.2209997 -6.7399998 0.396 2
9.276 -6.7340002 0.40000001 2
9.2539997 -6.7480001 0.41100001 2
9.2770004 -6.7340002 0.40000001 2
9.1789999 -6.7719998 0.42500001 2
9.29 -6.7399998 0.41 2
9.1700001 -6.7779999 0.43099999 2
9.1969995 -6.77 0.42699999 2
9.3290005 -6.7290001 0.405 2
9.2320004 -6.7490001 0.40900001 2
9.1859999 -6.7690001 0.42399999 2
9.283 -6.7350001 0.40200001 2
9.224 -6.757 0.41600001 2
9.184 -6.7519999 0.40200001 2
9.184 -6.7639999 0.41600001 2
9.3009996 -6.737 0.40799999 2
9.3129997 -6.7309999 0.40400001 2
9.191 -6.7470002 0.39700001 2
9.2089996 -6.7639999 0.421 2
9.3360004 -6.7220001 0.428 2
9.3149996 -6.7309999 0.42399999 2
9.2840004 -6.7389998 0.43200001 2
9.3450003 -6.7119999 0.44999999 2
9.3190002 -6.7319999 0.417 2
9.1929998 -6.7709999 0.43200001 2
9.302 -6.7350001 0.42699999 2
9.3050003 -6.7360001 0.41999999 2
9.3520002 -6.7140002 0.43799999 2
9.3570004 -6.7119999 0.43900001 2
9.3500004 -6.7129998 0.442 2
9.3290005 -6.7199998 0.44299999 2
9.3190002 -6.7280002 0.42899999 2
9.2019997 -6.7659998 0.43399999 2
9.2379999 -6.7550001 0.43200001 2
9.2770004 -6.743 0.428 2
9.3459997 -6.7199998 0.42500001 2
9.3000002 -6.73 0.44299999 2
9.2119999 -6.7639999 0.433 2
9.3529997 -6.7140002 0.43700001 2
9.3360004 -6.717 0.447 2
9.3310003 -6.7220001 0.435 2
9.2480001 -6.7529998 0.428 2
9.1969995 -6.7670002 0.43900001 2
9.2869997 -6.743 0.41600001 2
9.3290005 -6.724 0.42899999 2
9.2589998 -6.743 0.44499999 2
9.2510004 -6.7529998 0.42399999 2
9.2959995 -6.7290001 0.45100001 2
9.2659998 -6.743 0.43900001 2
9.2110004 -6.7649999 0.43000001 2
9.3710003 -6.7049999 0.44600001 2
9.3669996 -6.7119999 0.428 2
9.243 -6.757 0.41999999 2
9.2659998 -6.7490001 0.421 2
9.3640003 -6.7140002 0.42300001 2
9.217 -6.7600002 0.43700001 2
9.2589998 -6.7490001 0.42699999 2
9.2659998 -6.744 0.43700001 2
9.3470001 -6.7150002 0.44 2
9.3009996 -6.737 0.419 2
9.3389997 -6.7119999 0.45699999 2
9.3249998 -6.7290001 0.41999999 2
9.3129997 -6.7259998 0.442 2
9.191 -6.7719998 0.42899999 2
9.3409996 -6.7179999 0.435 2
9.2460003 -6.7480001 0.44499999 2
9.3369999 -6.7199998 0.43599999 2
9.3549995 -6.71 0.44600001 2
9.2519999 -6.7459998 0.44400001 2
9.3730001 -6.7020001 0.45199999 2
9.2939997 -6.7319999 0.44400001 2
9.2670002 -6.75 0.417 2
9.3509998 -6.717 0.43000001 2
9.1929998 -6.7680001 0.43900001 2
9.3789997 -6.698 0.45899999 2
9.2749996 -6.743 0.42899999 2
9.2700005 -6.7420001 0.43599999 2
9.2910004 -6.7399998 0.421 2
9.2069998 -6.7659998 0.43099999 2
9.3149996 -6.7319999 0.41999999 2
9.3470001 -6.7129998 0.44600001 2
9.3319998 -6.73 0.40900001 2
9.3330002 -6.7280002 0.41600001 2
9.2919998 -6.7360001 0.43399999 2
9.2950001 -6.7410002 0.414 2
9.3470001 -6.7119999 0.44999999 2
9.2790003 -6.743 0.426 2
9.2299995 -6.7600002 0.42399999 2
9.3360004 -6.7179999 0.44100001 2
9.3070002 -6.7360001 0.41600001 2
9.2639999 -6.7490001 0.42199999 2
9.401 -6.6989999 0.41499999 2
9.382 -6.7090001 0.414 2
9.3889999 -6.6989999 0.43900001 2
9.3710003 -6.711 0.42199999 2
9.3879995 -6.697 0.449 2
9.3710003 -6.717 0.403 2
9.3640003 -6.717 0.414 2
9.3739996 -6.7150002 0.403 2
9.4180002 -6.6919999 0.41 2
9.4029999 -6.6950002 0.42899999 2
9.3710003 -6.7150002 0.41100001 2
9.3959999 -6.7030001 0.40799999 2
9.4090004 -6.6950002 0.41999999 2
9.3660002 -6.7150002 0.41800001 2
9.401 -6.7030001 0.40200001 2
9.3859997 -6.697 0.44999999 2
9.3769999 -6.7069998 0.42899999 2
9.3839998 -6.7090001 0.40900001 2
9.3800001 -6.704 0.435 2
9.3920002 -6.6960001 0.44299999 2
9.382 -6.711 0.405 2
9.4230003 -6.6919999 0.40200001 2
9.3859997 -6.7010002 0.43700001 2
9.368 -6.711 0.428 2
9.4180002 -6.6929998 0.42899999 2
9.4420004 -6.6929998 0.435 2
9.4130001 -6.6939998 0.442 2
9.4160004 -6.6919999 0.426 2
9.4759998 -6.6929998 0.421 2
9.4259996 -6.6929998 0.435 2
9.441 -6.6950002 0.44800001 2
9.4639997 -6.6950002 0.44499999 2
9.4560003 -6.6919999 0.414 2
9.3940001 -6.6939998 0.45699999 2
9.4860001 -6.6939998 0.42899999 2
9.4259996 -6.6929998 0.433 2
9.4209995 -6.6929998 0.428 2
9.4329996 -6.6919999 0.41999999 2
9.4820004 -6.6929998 0.42199999 2
9.4280005 -6.6929998 0.43200001 2
9.4289999 -6.691 0.40700001 2
9.3979998 -6.6939998 0.45300001 2
9.3999996 -6.6939998 0.45199999 2
9.4720001 -6.6929998 0.41999999 2
9.4259996 -6.6919999 0.421 2
9.4200001 -6.6929998 0.43900001 2
9.4639997 -6.6929998 0.42199999 2
9.5109997 -6.6950002 0.433 2
9.5159998 -6.6950002 0.43200001 2
9.4720001 -6.6939998 0.43000001 2
9.4370003 -6.6939998 0.43900001 2
9.4519997 -6.6950002 0.45100001 2
9.4919996 -6.6950002 0.43700001 2
9.4940004 -6.6950002 0.442 2
9.4420004 -6.6919999 0.41800001 2
9.474 -6.6950002 0.44100001 2
9.4259996 -6.691 0.414 2
9.5209999 -6.6950002 0.43399999 2
9.4280005 -6.6929998 0.43599999 2
9.4560003 -6.6919999 0.41100001 2
9.4680004 -6.6929998 0.41999999 2
9.4759998 -6.6950002 0.44600001 2
9.4399996 -6.6929998 0.435 2
9.4510002 -6.6919999 0.41499999 2
9.4460001 -6.6950002 0.449 2
9.4840002 -6.6739998 0.38800001 2
9.4700003 -6.6830001 0.40099999 2
9.4399996 -6.6869998 0.39899999 2
9.4840002 -6.678 0.396 2
9.5310001 -6.671 0.39899999 2
9.507 -6.6739998 0.39700001 2
9.54 -6.671 0.40200001 2
9.4720001 -6.6739998 0.384 2
9.5 -6.6739998 0.39399999 2
9.5240002 -6.6750002 0.405 2
9.4540005 -6.6810002 0.39199999 2
9.4790001 -6.6719999 0.38299999 2
9.4530001 -6.677 0.384 2
9.4639997 -6.6799998 0.39300001 2
9.4940004 -6.6799998 0.40400001 2
9.5129995 -6.671 0.39199999 2
9.5089998 -6.6700001 0.38800001 2
9.5459995 -6.6690001 0.40099999 2
9.4919996 -6.678 0.398 2
9.5439997 -6.6700001 0.40200001 2
9.4940004 -6.6700001 0.384 2
9.4680004 -6.6700001 0.375 2
9.4709997 -6.6700001 0.37599999 2
9.5439997 -6.6700001 0.40099999 2
9.4870005 -6.6789999 0.398 2
9.4490004 -6.6859999 0.40000001 2
9.552 -6.6690001 0.403 2
9.5489998 -6.6669998 0.38100001 2
9.5019999 -6.6690001 0.384 2
9.5459995 -6.6680002 0.39199999 2
9.5410004 -6.6680002 0.38499999 2
9.5030003 -6.6690001 0.37900001 2
9.5179996 -6.6680002 0.37900001 2
9.5419998 -6.6680002 0.38699999 2
9.5380001 -6.6680002 0.38100001 2
9.5530005 -6.6669998 0.375 2
9.5559998 -6.6680002 0.39500001 2
9.5419998 -6.6680002 0.39300001 2
9.5229998 -6.6680002 0.384 2
9.5620003 -6.6669998 0.38999999 2
9.5129995 -6.6680002 0.37400001 2
9.5 -6.6690001 0.38299999 2
9.5190001 -6.6690001 0.38999999 2
9.5620003 -6.6669998 0.389 2
9.5340004 -6.6900001 0.43000001 2
9.5010004 -6.6929998 0.426 2
9.5039997 -6.6830001 0.41100001 2
9.5369997 -6.6810002 0.41800001 2
9.4860001 -6.6929998 0.421 2
9.5469999 -6.6799998 0.41800001 2
9.5500002 -6.6750002 0.412 2
9.5209999 -6.6929998 0.43099999 2
9.5360003 -6.6760001 0.40900001 2
9.5 -6.6929998 0.42500001 2
9.5609999 -6.6719999 0.41 2
9.5310001 -6.6890001 0.428 2
9.4820004 -6.6890001 0.41299999 2
9.5190001 -6.6880002 0.42300001 2
9.4650002 -6.6919999 0.41299999 2
9.5439997 -6.6830001 0.42199999 2
9.5559998 -6.6789999 0.41999999 2
9.5279999 -6.6820002 0.417 2
9.5050001 -6.6880002 0.41800001 2
9.5380001 -6.6919999 0.433 2
9.4860001 -6.6869998 0.41299999 2
9.4849997 -6.6900001 0.41600001 2
9.4779997 -6.6849999 0.40599999 2
9.507 -6.6890001 0.421 2
9.5 -6.691 0.42300001 2
9.5039997 -6.6880002 0.419 2
9.5340004 -6.6849999 0.42199999 2
9.5290003 -6.691 0.43000001 2
9.4840002 -6.691 0.417 2
9.0109997 -6.3800001 0.39199999 2
9.0039997 -6.2719998 0.42399999 2
9.0039997 -6.3070002 0.40700001 2
9.0019999 -6.3140001 0.396 2
9.0109997 -6.3239999 0.41999999 2
9 -6.3330002 0.38 2
9.0139999 -6.3629999 0.41100001 2
9 -6.342 0.377 2
9.0019999 -6.2880001 0.41100001 2
9 -6.2579999 0.421 2
9.0129995 -6.3920002 0.39399999 2
9.007 -6.3070002 0.41600001 2
9.0089998 -6.3010001 0.42699999 2
9.0209999 -6.3639998 0.433 2
9.0039997 -6.3169999 0.403 2
9.0170002 -6.355 0.42699999 2
9.0080004 -6.3709998 0.38800001 2
9.0279999 -6.395 0.442 2
9.0100002 -6.3839998 0.38499999 2
9.0240002 -6.3860002 0.435 2
9 -6.3270001 0.382 2
9.0209999 -6.4000001 0.41499999 2
9.026 -6.3899999 0.43799999 2
9.0080004 -6.3829999 0.37900001 2
9.0159998 -6.3670001 0.417 2
9.0249996 -6.401 0.428 2
9.0109997 -6.3109999 0.42899999 2
9.0170002 -6.342 0.433 2
9.0019999 -6.3280001 0.389 2
9.0059996 -6.29 0.42300001 2
9.0150003 -6.3720002 0.40900001 2
9.0019999 -6.362 0.37 2
9.0209999 -6.3979998 0.41600001 2
9.0010004 -6.336 0.38100001 2
9.0190001 -6.402 0.40799999 2
9.007 -6.381 0.38 2
9.0179996 -6.3520002 0.43000001 2
9.0129995 -6.3940001 0.39300001 2
9.0279999 -6.4099998 0.43200001 2
9.0030003 -6.3699999 0.37200001 2
9.0039997 -6.3429999 0.38699999 2
9.0170002 -6.3870001 0.41 2
9.0010004 -6.3720002 0.361 2
9.0179996 -6.3909998 0.41100001 2
9.0010004 -6.3610001 0.36899999 2
9.0010004 -6.3800001 0.35699999 2
9.0129995 -6.3410001 0.41999999 2
9.007 -6.3569999 0.39199999 2
9.0080004 -6.3119998 0.41999999 2
9.0100002 -6.342 0.41 2
9.0170002 -6.3959999 0.40400001 2
9.0089998 -6.349 0.403 2
9.0170002 -6.3829999 0.41100001 2
9.0039997 -6.3330002 0.39500001 2
9.007 -6.329 0.40400001 2
9.026 -6.3870001 0.43799999 2
9.0109997 -6.3839998 0.391 2
9.0139999 -6.3559999 0.41499999 2
9.0159998 -6.3670001 0.41600001 2
9.0050001 -6.3709998 0.375 2
9.0220003 -6.3920002 0.42500001 2
9 -6.2620001 0.417 2
9.0030003 -6.2859998 0.41600001 2
9.0190001 -6.3709998 0.42500001 2
9.026 -6.3940001 0.43700001 2
9.0299997 -6.4109998 0.44 2
9.007 -6.3699999 0.38499999 2
9 -6.3319998 0.38100001 2
9.0030003 -6.276 0.41999999 2
9.0209999 -6.388 0.421 2
9.0190001 -6.3530002 0.435 2
9.0200005 -6.4060001 0.40799999 2
9.0139999 -6.3340001 0.426 2
9.0229998 -6.4060001 0.41800001 2
9.0170002 -6.3530002 0.426 2
9.007 -6.3769999 0.38 2
9.0200005 -6.355 0.43700001 2
9.0010004 -6.322 0.38999999 2
9.0129995 -6.355 0.41100001 2
9.0109997 -6.3559999 0.40400001 2
9.0139999 -6.362 0.412 2
8.9989996 -6.3070002 0.377 2
8.9989996 -6.3660002 0.35800001 2
8.9989996 -6.3390002 0.35800001 2
8.9989996 -6.3309999 0.36199999 2
8.9989996 -6.3390002 0.37200001 2
8.9989996 -6.2979999 0.39399999 2
8.9989996 -6.3309999 0.37599999 2
8.9989996 -6.369 0.35699999 2
8.9980001 -6.3280001 0.361 2
8.9989996 -6.3670001 0.35299999 2
8.9989996 -6.348 0.354 2
8.9989996 -6.3080001 0.37799999 2
8.9989996 -6.3629999 0.35800001 2
8.9989996 -6.3439999 0.35299999 2
8.9989996 -6.3130002 0.37799999 2
8.9989996 -6.3080001 0.377 2
8.9989996 -6.336 0.36899999 2
9.026 -6.4390001 0.42699999 2
9.0279999 -6.4860001 0.391 2
9.0249996 -6.4559999 0.412 2
9.0299997 -6.4910002 0.38999999 2
9.0270004 -6.4679999 0.40400001 2
9.0290003 -6.467 0.40799999 2
9.0310001 -6.4289999 0.44 2
9.0319996 -6.427 0.442 2
9.0310001 -6.4530001 0.421 2
9.0229998 -6.4559999 0.40900001 2
9.0150003 -6.447 0.40700001 2
9.026 -6.4359999 0.428 2
9.0190001 -6.454 0.405 2
9.0299997 -6.4689999 0.40700001 2
9.0150003 -6.4400001 0.412 2
9.0270004 -6.4749999 0.39899999 2
9.026 -6.4840002 0.38999999 2
9.0270004 -6.4840002 0.37900001 2
9.0150003 -6.4489999 0.405 2
9.0290003 -6.494 0.377 2
9.0209999 -6.4450002 0.384 2
9.0249996 -6.4489999 0.375 2
9.0220003 -6.4510002 0.38499999 2
9.0299997 -6.5019999 0.37599999 2
9.0229998 -6.4520001 0.38299999 2
9.0249996 -6.4819999 0.38600001 2
9.0170002 -6.4460001 0.39700001 2
9.0249996 -6.4679999 0.38100001 2
9.0240002 -6.4720001 0.384 2
9.0190001 -6.4520001 0.39300001 2
9.0279999 -6.4840002 0.377 2
9.0129995 -6.4159999 0.398 2
9.0170002 -6.408 0.403 2
9.0129995 -6.4359999 0.40700001 2
9.0050001 -6.3959999 0.36899999 2
9.0249996 -6.4229999 0.43000001 2
9.0179996 -6.4099998 0.40700001 2
9.0220003 -6.4120002 0.417 2
9.0059996 -6.4099998 0.37900001 2
9.0190001 -6.4310002 0.41800001 2
9.0150003 -6.414 0.40099999 2
9.0080004 -6.4180002 0.38800001 2
9.0200005 -6.4250002 0.419 2
9.0129995 -6.4310002 0.405 2
9.0270004 -6.427 0.43599999 2
9.0170002 -6.4070001 0.40099999 2
9.0209999 -6.4089999 0.412 2
9.0050001 -6.408 0.37599999 2
9.0170002 -6.427 0.41299999 2
9.0740004 -6.6890001 0.419 2
9.0690002 -6.7059999 0.40200001 2
9.0760002 -6.6939998 0.42300001 2
9.0799999 -6.6659999 0.43799999 2
9.0740004 -6.684 0.417 2
9.0719995 -6.6880002 0.41100001 2
9.073 -6.6620002 0.41800001 2
9.0600004 -6.6760001 0.377 2
9.073 -6.677 0.417 2
9.0710001 -6.6739998 0.41100001 2
9.0719995 -6.684 0.41100001 2
9.0740004 -6.698 0.41600001 2
9.0640001 -6.6929998 0.38699999 2
9.0749998 -6.6950002 0.41999999 2
9.0760002 -6.6729999 0.426 2
9.0769997 -6.6810002 0.428 2
9.0819998 -6.6570001 0.44499999 2
9.066 -6.6680002 0.39500001 2
9.0690002 -6.7179999 0.40000001 2
9.0600004 -6.6750002 0.37799999 2
9.0719995 -6.6919999 0.41 2
9.0780001 -6.6810002 0.43200001 2
9.0629997 -6.691 0.384 2
9.0690002 -6.6810002 0.40400001 2
9.0679998 -6.671 0.40200001 2
9.0819998 -6.6539998 0.447 2
9.0799999 -6.6459999 0.44400001 2
9.0609999 -6.6110001 0.40400001 2
9.0559998 -6.6079998 0.39199999 2
9.0500002 -6.599 0.37799999 2
9.0600004 -6.645 0.389 2
9.052 -6.6139998 0.37900001 2
9.0609999 -6.6539998 0.38800001 2
9.0719995 -6.6539998 0.417 2
9.0679998 -6.6220002 0.41999999 2
9.0600004 -6.6020002 0.40599999 2
9.052 -6.592 0.38600001 2
9.0539999 -6.6220002 0.38 2
9.059 -6.6440001 0.38699999 2
9.0629997 -6.6669998 0.38800001 2
9.0550003 -6.631 0.38100001 2
9.0690002 -6.632 0.417 2
9.0489998 -6.5770001 0.38499999 2
9.0699997 -6.6529999 0.412 2
9.0719995 -6.6550002 0.417 2
9.0509996 -6.6090002 0.377 2
9.052 -6.6160002 0.37799999 2
9.0500002 -6.5900002 0.38100001 2
9.0559998 -6.5999999 0.396 2
9.0649996 -6.652 0.39899999 2
9.0509996 -6.5999999 0.38 2
9.0719995 -6.632 0.426 2
9.0559998 -6.625 0.38600001 2
9.073 -6.6399999 0.42699999 2
9.0690002 -6.6240001 0.42199999 2
9.0579996 -6.6329999 0.38600001 2
9.066 -6.6269999 0.412 2
9.059 -6.645 0.38600001 2
9.0699997 -6.658 0.41100001 2
9.0819998 -6.6479998 0.44800001 2
9.0640001 -6.6199999 0.41 2
9.0530005 -6.618 0.38 2
9.0629997 -6.6389999 0.39899999 2
9.0600004 -6.6129999 0.40099999 2
9.0469999 -6.573 0.38 2
9.0539999 -6.5869999 0.39399999 2
9.0609999 -6.6110001 0.405 2
9.0640001 -6.618 0.40900001 2
9.0640001 -6.638 0.403 2
9.073 -6.6430001 0.426 2
9.0609999 -6.671 0.38100001 2
9.073 -6.6459999 0.42300001 2
9.0469999 -6.5840001 0.375 2
9.0620003 -6.5479999 0.449 2
9.0480003 -6.5349998 0.40900001 2
9.0509996 -6.5089998 0.44 2
9.0439997 -6.4679999 0.449 2
9.0469999 -6.527 0.41100001 2
9.0620003 -6.5949998 0.41800001 2
9.0469999 -6.5100002 0.42500001 2
9.0509996 -6.546 0.412 2
9.0699997 -6.6110001 0.43099999 2
9.0410004 -6.4770002 0.43099999 2
9.0640001 -6.5910001 0.426 2
9.059 -6.5560002 0.43200001 2
9.0640001 -6.5970001 0.42300001 2
9.0649996 -6.6009998 0.42300001 2
9.0550003 -6.5630002 0.417 2
9.0469999 -6.5469999 0.398 2
9.0480003 -6.5100002 0.42899999 2
9.0439997 -6.5079999 0.41600001 2
9.0480003 -6.5019999 0.435 2
9.0480003 -6.566 0.38999999 2
9.0570002 -6.566 0.42199999 2
9.0710001 -6.6069999 0.43799999 2
9.0579996 -6.5479999 0.43399999 2
9.0550003 -6.5819998 0.40099999 2
9.0760002 -6.6290002 0.442 2
9.0699997 -6.6100001 0.43399999 2
9.0459995 -6.5219998 0.41299999 2
9.0450001 -6.5640001 0.37799999 2
9.0530005 -6.5669999 0.405 2
9.059 -6.5549998 0.433 2
9.0550003 -6.5700002 0.41100001 2
9.0430002 -6.4640002 0.449 2
9.0550003 -6.5450001 0.428 2
9.0539999 -6.5349998 0.43200001 2
9.0450001 -6.5089998 0.41999999 2
9.0620003 -6.5599999 0.44100001 2
9.052 -6.5250001 0.433 2
9.0799999 -6.6339998 0.44999999 2
9.0570002 -6.527 0.449 2
9.052 -6.5019999 0.44999999 2
9.0530005 -6.5450001 0.421 2
9.0749998 -6.6240001 0.44100001 2
9.0489998 -6.5180001 0.428 2
9.0620003 -6.5549998 0.44600001 2
9.0450001 -6.4959998 0.43000001 2
9.0649996 -6.5830002 0.43799999 2
9.0489998 -6.5009999 0.43799999 2
9.0480003 -6.5640001 0.391 2
9.0410004 -6.4590001 0.44400001 2
9.0550003 -6.5549998 0.421 2
9.0679998 -6.5809999 0.44999999 2
9.0480003 -6.5539999 0.39399999 2
9.073 -6.6129999 0.44400001 2
9.0480003 -6.553 0.396 2
9.073 -6.6059999 0.44800001 2
9.04 -6.4559999 0.44299999 2
9.066 -6.5869999 0.43900001 2
9.0509996 -6.5229998 0.43099999 2
9.0430002 -6.4640002 0.44800001 2
9.0600004 -6.5669999 0.43399999 2
9.059 -6.5609999 0.428 2
9.0509996 -6.5339999 0.42199999 2
9.0459995 -6.5110002 0.42199999 2
9.0509996 -6.5479999 0.41 2
9.0489998 -6.5009999 0.44 2
9.0570002 -6.5900002 0.403 2
9.0410004 -6.4840002 0.42399999 2
9.0710001 -6.6110001 0.435 2
9.0430002 -6.493 0.42699999 2
9.0600004 -6.5430002 0.44800001 2
9.0609999 -6.572 0.43000001 2
9.0550003 -6.5840001 0.40099999 2
9.0469999 -6.5029998 0.43099999 2
9.0469999 -6.5120001 0.42500001 2
9.0690002 -6.598 0.43900001 2
9.0489998 -6.4980001 0.44400001 2
9.0430002 -6.4629998 0.449 2
9.0500002 -6.5609999 0.40000001 2
9.0509996 -6.5279999 0.42699999 2
9.0389996 -6.4660001 0.43000001 2
9.0620003 -6.592 0.419 2
9.0380001 -6.4580002 0.43599999 2
9.0509996 -6.5510001 0.40900001 2
9.0500002 -6.566 0.39500001 2
9.0600004 -6.5580001 0.43799999 2
9.04 -6.4640002 0.43700001 2
9.0430002 -6.5029998 0.419 2
9.0769997 -6.6220002 0.44999999 2
9.0550003 -6.533 0.435 2
9.0579996 -6.5869999 0.40900001 2
9.0389996 -6.4689999 0.428 2
9.066 -6.6030002 0.426 2
9.0389996 -6.4910002 0.41100001 2
9.04 -6.5219998 0.391 2
9.0360003 -6.448 0.435 2
9.0410004 -6.5110002 0.40200001 2
9.0439997 -6.5570002 0.37900001 2
9.0410004 -6.5250001 0.39300001 2
9.0380001 -6.526 0.382 2
9.0419998 -6.5440001 0.38100001 2
9.0369997 -6.5279999 0.377 2
9.0360003 -6.4790001 0.41100001 2
9.0349998 -6.4359999 0.43900001 2
9.0380001 -6.5139999 0.39199999 2
9.04 -6.526 0.38999999 2
9.0419998 -6.5419998 0.38499999 2
9.0360003 -6.5139999 0.384 2
9.0340004 -6.5170002 0.37599999 2
9.0360003 -6.5089998 0.38699999 2
9.0389996 -6.52 0.391 2
9.0340004 -6.447 0.43000001 2
9.0380001 -6.5149999 0.391 2
9.0810003 -6.7319999 0.41299999 2
9.1459999 -6.7579999 0.46799999 2
9.0900002 -6.7350001 0.421 2
9.1289997 -6.763 0.43200001 2
9.1389999 -6.7579999 0.45699999 2
9.1149998 -6.7420001 0.44600001 2
9.1210003 -6.7589998 0.426 2
9.132 -6.7540002 0.45199999 2
9.1359997 -6.7680001 0.43399999 2
9.1020002 -6.744 0.42300001 2
9.125 -6.7620001 0.428 2
9.1079998 -6.7410002 0.43700001 2
9.0909996 -6.7389998 0.414 2
9.0780001 -6.7309999 0.40799999 2
9.0819998 -6.7309999 0.41499999 2
9.099 -6.744 0.41999999 2
9.1389999 -6.7519999 0.46799999 2
9.1099997 -6.7490001 0.42699999 2
9.1099997 -6.7509999 0.42300001 2
9.099 -6.743 0.41999999 2
9.1350002 -6.7639999 0.44 2
9.1280003 -6.7470002 0.45899999 2
9.1090002 -6.744 0.43599999 2
9.0839996 -6.7340002 0.41299999 2
9.1140003 -6.7540002 0.42500001 2
9.0810003 -6.7319999 0.412 2
9.1339998 -6.743 0.46799999 2
9.0950003 -6.671 0.45500001 2
9.1149998 -6.7080002 0.46200001 2
9.0799999 -6.7179999 0.419 2
9.0799999 -6.7059999 0.42399999 2
9.1049995 -6.7030001 0.45300001 2
9.1059999 -6.7259998 0.44400001 2
9.0889997 -6.73 0.42399999 2
9.1149998 -6.71 0.461 2
9.1210003 -6.73 0.46000001 2
9.092 -6.684 0.44600001 2
9.0950003 -6.7090001 0.44 2
9.092 -6.723 0.43000001 2
9.0740004 -6.7179999 0.412 2
9.0979996 -6.71 0.442 2
9.0830002 -6.7049999 0.428 2
9.0979996 -6.7220001 0.43700001 2
9.1120005 -6.7280002 0.44999999 2
9.1070004 -6.7080002 0.45300001 2
9.0900002 -6.7119999 0.43200001 2
9.073 -6.7220001 0.41 2
9.0979996 -6.704 0.44400001 2
9.092 -6.7340002 0.42500001 2
9.1210003 -6.7319999 0.458 2
9.099 -6.7090001 0.44400001 2
9.0950003 -6.6820002 0.45100001 2
9.0740004 -6.7090001 0.41600001 2
9.0880003 -6.704 0.43399999 2
9.1190004 -6.717 0.46200001 2
9.1040001 -6.7319999 0.43900001 2
9.0799999 -6.6830001 0.43399999 2
9.0769997 -6.7030001 0.42199999 2
9.0839996 -6.7210002 0.42300001 2
9.1110001 -6.724 0.45100001 2
9.1009998 -6.7340002 0.435 2
9.132 -6.7350001 0.47 2
9.0819998 -6.6760001 0.43900001 2
9.1090002 -6.711 0.454 2
9.1040001 -6.7350001 0.43900001 2
9.0839996 -6.6700001 0.44299999 2
9.0939999 -6.7160001 0.43599999 2
9.1040001 -6.7020001 0.45199999 2
9.0889997 -6.6789999 0.44600001 2
9.0830002 -6.724 0.419 2
9.1140003 -6.7259998 0.45300001 2
9.0959997 -6.6989999 0.44400001 2
9.441 -6.191 0.45899999 2
9.4429998 -6.2129998 0.48800001 2
9.4370003 -6.2119999 0.461 2
9.4460001 -6.1859999 0.47400001 2
9.4390001 -6.2090001 0.46700001 2
9.4630003 -6.1999998 0.565 2
9.4499998 -6.2179999 0.52600002 2
9.4390001 -6.2090001 0.46700001 2
9.4350004 -6.2140002 0.458 2
9.4560003 -6.1900001 0.52200001 2
9.4350004 -6.2119999 0.456 2
9.4449997 -6.1919999 0.47999999 2
9.4440002 -6.2150002 0.49700001 2
9.4440002 -6.1900001 0.47099999 2
9.448 -6.2160001 0.51599997 2
9.4390001 -6.1890001 0.447 2
9.4630003 -6.2010002 0.56599998 2
9.4440002 -6.1919999 0.47299999 2
9.4589996 -6.2119999 0.55800003 2
9.4519997 -6.2030001 0.51899999 2
9.4429998 -6.1799998 0.456 2
9.4680004 -6.2080002 0.59399998 2
9.4689999 -6.197 0.58700001 2
9.4560003 -6.204 0.53600001 2
9.4379997 -6.2140002 0.47 2
9.4560003 -6.1999998 0.53399998 2
9.4540005 -6.1900001 0.51599997 2
9.4370003 -6.1939998 0.44400001 2
9.4469995 -6.211 0.50300002 2
9.4630003 -6.198 0.56 2
9.4440002 -6.2090001 0.48899999 2
9.4499998 -6.2140002 0.52200001 2
9.4440002 -6.1939998 0.477 2
9.4490004 -6.1869998 0.491 2
9.4700003 -6.1999998 0.59600002 2
9.4510002 -6.1919999 0.505 2
9.4460001 -6.191 0.48100001 2
9.4700003 -6.21 0.60299999 2
9.4519997 -6.2049999 0.52200001 2
9.4390001 -6.1890001 0.44999999 2
9.4510002 -6.1890001 0.5 2
9.4680004 -6.2049999 0.58999997 2
9.4350004 -6.204 0.44499999 2
9.4429998 -6.1890001 0.465 2
9.4460001 -6.2080002 0.49900001 2
9.4440002 -6.217 0.49599999 2
9.4420004 -6.2069998 0.479 2
9.4440002 -6.184 0.463 2
9.4460001 -6.191 0.47999999 2
9.4370003 -6.1849999 0.43399999 2
9.448 -6.1999998 0.49700001 2
9.4560003 -6.2150002 0.54900002 2
9.4510002 -6.1830001 0.49399999 2
9.4519997 -6.1989999 0.51700002 2
9.4460001 -6.2150002 0.50400001 2
9.4420004 -6.197 0.46900001 2
9.4700003 -6.1989999 0.59500003 2
9.4460001 -6.1820002 0.47099999 2
9.4359999 -6.2020001 0.44999999 2
9.4460001 -6.1859999 0.47499999 2
9.467 -6.335 0.47400001 2
9.4709997 -6.3390002 0.48500001 2
9.4689999 -6.2220001 0.59299999 2
9.4750004 -6.3940001 0.442 2
9.4729996 -6.283 0.546 2
9.4700003 -6.2319999 0.58399999 2
9.4860001 -6.3800001 0.49599999 2
9.4729996 -6.3850002 0.44499999 2
9.4680004 -6.2540002 0.55400002 2
9.4390001 -6.2389998 0.46599999 2
9.4359999 -6.2350001 0.46000001 2
9.4729996 -6.302 0.52899998 2
9.4549999 -6.2839999 0.479 2
9.4580002 -6.2519999 0.523 2
9.4779997 -6.302 0.546 2
9.4829998 -6.4200001 0.449 2
9.4659996 -6.3210001 0.484 2
9.4829998 -6.3010001 0.56400001 2
9.4630003 -6.2639999 0.52999997 2
9.441 -6.2529998 0.461 2
9.4860001 -6.4310002 0.447 2
9.4829998 -6.402 0.46599999 2
9.4779997 -6.382 0.46599999 2
9.4399996 -6.2490001 0.461 2
9.4569998 -6.2360001 0.53299999 2
9.4709997 -6.3800001 0.44299999 2
9.4549999 -6.2449999 0.51899999 2
9.467 -6.3649998 0.44400001 2
9.4840002 -6.421 0.45199999 2
9.4849997 -6.4130001 0.46200001 2
9.4510002 -6.25 0.50099999 2
9.4750004 -6.3429999 0.495 2
9.4820004 -6.263 0.59799999 2
9.4420004 -6.237 0.47799999 2
9.4790001 -6.3940001 0.45699999 2
9.4460001 -6.276 0.45500001 2
9.474 -6.296 0.53799999 2
9.4580002 -6.2610002 0.51300001 2
9.4809999 -6.348 0.51200002 2
9.4759998 -6.2989998 0.54100001 2
9.4610004 -6.2979999 0.48699999 2
9.4750004 -6.2470002 0.588 2
9.4650002 -6.2779999 0.51999998 2
9.4809999 -6.3779998 0.47999999 2
9.4469995 -6.2750001 0.458 2
9.4650002 -6.2480001 0.55000001 2
9.4820004 -6.4130001 0.449 2
9.4610004 -6.2659998 0.51899999 2
9.4790001 -6.3740001 0.47600001 2
9.4469995 -6.2449999 0.48899999 2
9.4650002 -6.3520002 0.449 2
9.4399996 -6.2340002 0.47499999 2
9.4580002 -6.2969999 0.477 2
9.4809999 -6.2820001 0.57499999 2
9.4569998 -6.3010001 0.46900001 2
9.4729996 -6.3559999 0.47499999 2
9.448 -6.2680001 0.47 2
9.4700003 -6.2709999 0.54699999 2
9.474 -6.237 0.59299999 2
9.4510002 -6.2880001 0.461 2
9.4689999 -6.2389998 0.574 2
9.4510002 -6.2220001 0.528 2
9.4770002 -6.2849998 0.55900002 2
9.434 -6.2259998 0.46200001 2
9.4779997 -6.2729998 0.57300001 2
9.4759998 -6.2940001 0.54500002 2
9.4829998 -6.2740002 0.59200001 2
9.4639997 -6.2350001 0.56 2
9.4729996 -6.3709998 0.461 2
9.4729996 -6.2490001 0.57800001 2
9.4820004 -6.4159999 0.44999999 2
9.4560003 -6.289 0.47799999 2
9.4779997 -6.3909998 0.456 2
9.4709997 -6.2639999 0.55699998 2
9.4709997 -6.3010001 0.51999998 2
9.4639997 -6.3080001 0.49000001 2
9.4790001 -6.2950001 0.55699998 2
9.4680004 -6.2620001 0.54699999 2
9.4560003 -6.2880001 0.48100001 2
9.4799995 -6.3299999 0.52499998 2
9.4750004 -6.368 0.46900001 2
9.4759998 -6.3239999 0.51800001 2
9.4709997 -6.3390002 0.48199999 2
9.4429998 -6.2360001 0.48300001 2
9.4569998 -6.2600002 0.51099998 2
9.4840002 -6.3010001 0.56800002 2
9.4770002 -6.3249998 0.51999998 2
9.4770002 -6.2340002 0.61000001 2
9.4469995 -6.2220001 0.51300001 2
9.4469995 -6.2259998 0.509 2
9.4630003 -6.257 0.53399998 2
9.4829998 -6.4130001 0.45300001 2
9.4750004 -6.2670002 0.56800002 2
9.4680004 -6.2319999 0.579 2
9.4639997 -6.342 0.45699999 2
9.4799995 -6.3790002 0.47600001 2
9.4770002 -6.3439999 0.49900001 2
9.4759998 -6.302 0.537 2
9.4820004 -6.2090001 0.65100002 2
9.4569998 -6.243 0.52600002 2
9.4770002 -6.237 0.60500002 2
9.4689999 -6.2459998 0.56800002 2
9.4650002 -6.2989998 0.50300002 2
9.4720001 -6.2839999 0.54100001 2
9.4399996 -6.223 0.484 2
9.4809999 -6.3410001 0.51700002 2
9.4729996 -6.362 0.46700001 2
9.4610004 -6.2309999 0.55400002 2
9.46 -6.3109999 0.47099999 2
9.4589996 -6.2729998 0.505 2
9.4729996 -6.2389998 0.58999997 2
9.467 -6.2589998 0.54799998 2
9.4680004 -6.2389998 0.57099998 2
9.46 -6.2919998 0.48899999 2
9.4630003 -6.3060002 0.48800001 2
9.4650002 -6.2259998 0.57200003 2
9.474 -6.3140001 0.52100003 2
9.46 -6.2519999 0.53100002 2
9.4840002 -6.4060001 0.46399999 2
9.4499998 -6.2659998 0.47999999 2
9.4540005 -6.309 0.45100001 2
9.4840002 -6.2989998 0.57099998 2
9.4639997 -6.2189999 0.57599998 2
9.4429998 -6.2529998 0.46700001 2
9.46 -6.329 0.45199999 2
9.4750004 -6.2259998 0.60900003 2
9.448 -6.257 0.47999999 2
9.4799995 -6.4029999 0.45199999 2
9.4540005 -6.3099999 0.45100001 2
9.4860001 -6.4239998 0.454 2
9.4809999 -6.3049998 0.551 2
9.474 -6.3049998 0.528 2
9.4650002 -6.2519999 0.54799998 2
9.4849997 -6.3720002 0.50199997 2
9.4779997 -6.3210001 0.52700001 2
9.4820004 -6.3579998 0.50300002 2
9.4700003 -6.2129998 0.60500002 2
9.448 -6.2820001 0.456 2
9.4659996 -6.3410001 0.463 2
9.4809999 -6.3309999 0.52700001 2
9.474 -6.3150001 0.51899999 2
9.4589996 -6.2449999 0.53399998 2
9.4720001 -6.3530002 0.472 2
9.4610004 -6.2410002 0.54400003 2
9.4680004 -6.2449999 0.56599998 2
9.4630003 -6.323 0.46900001 2
9.4820004 -6.4060001 0.45699999 2
9.474 -6.2779999 0.55599999 2
9.474 -6.3189998 0.51499999 2
9.4569998 -6.2550001 0.51599997 2
9.4700003 -6.2350001 0.58099997 2
9.448 -6.2350001 0.50300002 2
9.4770002 -6.283 0.55900002 2
9.4700003 -6.2259998 0.59200001 2
9.4729996 -6.2259998 0.602 2
9.474 -6.3629999 0.472 2
9.4799995 -6.329 0.52499998 2
9.4689999 -6.289 0.52399999 2
9.4659996 -6.355 0.44999999 2
9.4790001 -6.2290001 0.62 2
9.4390001 -6.2350001 0.47 2
9.4519997 -6.2490001 0.50300002 2
9.4580002 -6.2579999 0.51599997 2
9.4549999 -6.223 0.54100001 2
9.4829998 -6.316 0.55000001 2
9.4809999 -6.335 0.52399999 2
9.4460001 -6.2350001 0.49599999 2
9.4689999 -6.3260002 0.49000001 2
9.4790001 -6.2360001 0.61400002 2
9.46 -6.217 0.56400001 2
9.4659996 -6.3590002 0.44600001 2
9.4680004 -6.323 0.49000001 2
9.4779997 -6.3119998 0.53500003 2
9.4729996 -6.3590002 0.472 2
9.4580002 -6.2800002 0.49599999 2
9.4420004 -6.2459998 0.47 2
9.4729996 -6.302 0.52700001 2
9.474 -6.2579999 0.574 2
9.4790001 -6.27 0.57999998 2
9.4700003 -6.3140001 0.50599998 2
9.4519997 -6.2779999 0.47499999 2
9.4560003 -6.25 0.51499999 2
9.4390001 -6.244 0.461 2
9.4650002 -6.3039999 0.49700001 2
9.4779997 -6.349 0.49900001 2
9.4840002 -6.3140001 0.55400002 2
9.4809999 -6.381 0.479 2
9.474 -6.2259998 0.60399997 2
9.4689999 -6.3200002 0.49399999 2
9.46 -6.3280001 0.45500001 2
9.4619999 -6.2179999 0.56900001 2
9.4549999 -6.2989998 0.46399999 2
9.4510002 -6.2839999 0.46399999 2
9.4499998 -6.23 0.51700002 2
9.4790001 -6.29 0.56099999 2
9.4440002 -6.2360001 0.48899999 2
9.4729996 -6.2410002 0.588 2
9.4799995 -6.2129998 0.63999999 2
9.4809999 -6.355 0.50300002 2
9.4750004 -6.2880001 0.54900002 2
9.474 -6.3779998 0.458 2
9.4659996 -6.277 0.52600002 2
9.4720001 -6.2919998 0.53500003 2
9.4610004 -6.3330002 0.454 2
9.4709997 -6.3179998 0.50400001 2
9.4630003 -6.2519999 0.54000002 2
9.4519997 -6.263 0.49000001 2
9.4519997 -6.2210002 0.53299999 2
9.4820004 -6.4200001 0.442 2
9.4779997 -6.4099998 0.43799999 2
9.4650002 -6.2449999 0.55400002 2
9.4619999 -6.322 0.46799999 2
9.4709997 -6.3270001 0.495 2
9.4569998 -6.3140001 0.458 2
9.4729996 -6.2379999 0.59100002 2
9.4519997 -6.2880001 0.46399999 2
9.4829998 -6.2579999 0.60600001 2
9.4589996 -6.3179998 0.46000001 2
9.4510002 -6.224 0.523 2
9.4820004 -6.2800002 0.58099997 2
9.4510002 -6.2290001 0.51800001 2
9.4700003 -6.223 0.59200001 2
9.4770002 -6.3629999 0.47999999 2
9.474 -6.2670002 0.565 2
9.4720001 -6.2740002 0.551 2
9.4619999 -6.2199998 0.56800002 2
9.441 -6.237 0.47499999 2
9.4720001 -6.2950001 0.53200001 2
9.4560003 -6.2579999 0.50999999 2
9.4569998 -6.2649999 0.50599998 2
9.4359999 -6.2329998 0.46000001 2
9.4799995 -6.2600002 0.59299999 2
9.4720001 -6.2800002 0.54299998 2
9.4449997 -6.2729998 0.45300001 2
9.4560003 -6.3210001 0.44800001 2
9.4580002 -6.3319998 0.44299999 2
9.4779997 -6.4130001 0.43700001 2
9.4809999 -6.4250002 0.435 2
9.4440002 -6.2719998 0.45300001 2
9.4429998 -6.2690001 0.45300001 2
9.5059996 -6.165 0.671 2
9.493 -6.1750002 0.616 2
9.5 -6.177 0.667 2
9.4860001 -6.1900001 0.61799997 2
9.493 -6.1849999 0.65100002 2
9.4860001 -6.184 0.59899998 2
9.5030003 -6.1659999 0.65399998 2
9.4960003 -6.1719999 0.62300003 2
9.4870005 -6.1820002 0.602 2
9.4899998 -6.1750002 0.59799999 2
9.4870005 -6.1939998 0.64300001 2
9.4940004 -6.178 0.634 2
9.4860001 -6.1810002 0.59100002 2
9.493 -6.1849999 0.65200001 2
9.5010004 -6.1729999 0.66500002 2
9.5019999 -6.1620002 0.63599998 2
9.4860001 -6.1929998 0.62900001 2
9.4919996 -6.1700001 0.59100002 2
9.4890003 -6.191 0.64700001 2
9.4890003 -6.1739998 0.588 2
9.4960003 -6.184 0.66799998 2
9.4969997 -6.1760001 0.64600003 2
9.5019999 -6.1719999 0.66799998 2
9.4980001 -6.1659999 0.61900002 2
9.4860001 -6.1849999 0.60299999 2
9.4849997 -6.1999998 0.64600003 2
9.5039997 -6.1700001 0.67400002 2
9.4870005 -6.1810002 0.59799999 2
9.4910002 -6.1700001 0.58499998 2
9.4949999 -6.171 0.62 2
9.4989996 -6.177 0.66600001 2
9.5010004 -6.1680002 0.64499998 2
9.4849997 -6.197 0.63800001 2
9.4840002 -6.1900001 0.60699999 2
9.4940004 -6.1820002 0.65100002 2
9.493 -6.1669998 0.59100002 2
9.5150003 -6.2129998 0.73299998 2
9.5249996 -6.2519999 0.73299998 2
9.5 -6.2270002 0.68599999 2
9.5480003 -6.3270001 0.74299997 2
9.5279999 -6.2490001 0.74199998 2
9.5 -6.2379999 0.68099999 2
9.5500002 -6.2839999 0.77700001 2
9.5310001 -6.2820001 0.73000002 2
9.5500002 -6.2940001 0.76999998 2
9.5290003 -6.2789998 0.727 2
9.5139999 -6.2319999 0.71799999 2
9.5710001 -6.369 0.77399999 2
9.559 -6.2919998 0.79299998 2
9.5319996 -6.1859999 0.79400003 2
9.5010004 -6.2329998 0.68599999 2
9.5369997 -6.2470002 0.76599997 2
9.5229998 -6.2210002 0.74800003 2
9.5299997 -6.2179999 0.76800001 2
9.4919996 -6.223 0.67000002 2
9.526 -6.2410002 0.74299997 2
9.5310001 -6.2649999 0.73900002 2
9.4940004 -6.2189999 0.676 2
9.54 -6.303 0.73699999 2
9.5319996 -6.1900001 0.79100001 2
9.5299997 -6.296 0.71799999 2
9.5220003 -6.2800002 0.70700002 2
9.5539999 -6.2810001 0.787 2
9.5450001 -6.2509999 0.78299999 2
9.5539999 -6.342 0.74800003 2
9.5220003 -6.197 0.76099998 2
9.5200005 -6.2199998 0.74199998 2
9.5389996 -6.257 0.76499999 2
9.5469999 -6.2490001 0.79000002 2
9.5220003 -6.1919999 0.764 2
9.5129995 -6.191 0.74199998 2
9.5380001 -6.29 0.74199998 2
9.5150003 -6.2529998 0.708 2
9.5769997 -6.3759999 0.78500003 2
9.5159998 -6.2189999 0.73100001 2
9.5410004 -6.2379999 0.78200001 2
9.5190001 -6.2129998 0.74199998 2
9.5170002 -6.2470002 0.71600002 2
9.5340004 -6.2600002 0.75 2
9.4989996 -6.2199998 0.68900001 2
9.5349998 -6.276 0.74400002 2
9.5299997 -6.2399998 0.75400001 2
9.5530005 -6.2670002 0.79299998 2
9.5089998 -6.2490001 0.69499999 2
9.4940004 -6.2010002 0.68699998 2
9.5349998 -6.2399998 0.76499999 2
9.4989996 -6.2129998 0.69400001 2
9.5670004 -6.3499999 0.77600002 2
9.5050001 -6.2129998 0.708 2
9.5030003 -6.244 0.68400002 2
9.5340004 -6.2909999 0.73100001 2
9.54 -6.223 0.79000002 2
9.5190001 -6.2290001 0.73299998 2
9.5579996 -6.3369999 0.76300001 2
9.5600004 -6.3179998 0.77899998 2
9.5570002 -6.342 0.75599998 2
9.5080004 -6.224 0.70899999 2
9.5010004 -6.2249999 0.69 2
9.5179996 -6.2350001 0.727 2
9.5290003 -6.1849999 0.78600001 2
9.5609999 -6.3340001 0.77100003 2
9.5430002 -6.302 0.74800003 2
9.5059996 -6.244 0.69 2
9.5419998 -6.2010002 0.80800003 2
9.5200005 -6.1999998 0.75400001 2
9.5430002 -6.3119998 0.73900002 2
9.5170002 -6.2129998 0.73900002 2
9.5369997 -6.1859999 0.80599999 2
9.5489998 -6.2449999 0.79699999 2
9.5319996 -6.2789998 0.73400003 2
9.5100002 -6.223 0.71399999 2
9.5319996 -6.1849999 0.79400003 2
9.5249996 -6.2800002 0.71600002 2
9.5550003 -6.3099999 0.77100003 2
9.5550003 -6.3130002 0.76999998 2
9.4949999 -6.21 0.68599999 2
9.5220003 -6.2080002 0.75400001 2
9.5299997 -6.2719998 0.73299998 2
9.5670004 -6.3649998 0.76599997 2
9.5380001 -6.2750001 0.75199997 2
9.5459995 -6.3070002 0.75099999 2
9.5299997 -6.243 0.75199997 2
9.5120001 -6.244 0.70499998 2
9.5419998 -6.2659998 0.76599997 2
9.559 -6.277 0.80199999 2
9.4989996 -6.2249999 0.68599999 2
9.5170002 -6.2600002 0.70700002 2
9.5030003 -6.2090001 0.70599997 2
9.5500002 -6.2839999 0.77499998 2
9.573 -6.3530002 0.78899997 2
9.5640001 -6.3080001 0.79500002 2
9.5150003 -6.2049999 0.73799998 2
9.5790005 -6.388 0.78200001 2
9.5349998 -6.2319999 0.77100003 2
9.5609999 -6.3509998 0.75999999 2
9.5500002 -6.2740002 0.78100002 2
9.5369997 -6.198 0.796 2
9.5150003 -6.2610002 0.70099998 2
9.5570002 -6.3270001 0.76499999 2
9.5430002 -6.2420001 0.78500003 2
9.5810003 -6.3850002 0.79000002 2
9.5369997 -6.2350001 0.773 2
9.5209999 -6.277 0.70700002 2
9.5360003 -6.1919999 0.79900002 2
9.5570002 -6.2870002 0.79100001 2
9.5159998 -6.237 0.72000003 2
9.566 -6.3260002 0.79000002 2
9.5439997 -6.2810001 0.76099998 2
9.5240002 -6.2150002 0.75300002 2
9.5170002 -6.237 0.722 2
9.5290003 -6.2820001 0.72299999 2
9.5629997 -6.349 0.76700002 2
9.5819998 -6.388 0.78899997 2
9.5220003 -6.2529998 0.72399998 2
9.5439997 -6.211 0.80599999 2
9.5220003 -6.257 0.72100002 2
9.5249996 -6.2459998 0.736 2
9.5489998 -6.2709999 0.78100002 2
9.5190001 -6.217 0.74000001 2
9.5539999 -6.3189998 0.764 2
9.5190001 -6.2519999 0.71700001 2
9.5290003 -6.1939998 0.77999997 2
9.533 -6.2610002 0.74800003 2
9.5469999 -6.2610002 0.78299999 2
9.5080004 -6.2490001 0.69300002 2
9.5509996 -6.27 0.787 2
9.5299997 -6.1929998 0.78200001 2
9.5299997 -6.2490001 0.74699998 2
9.573 -6.3610001 0.78299999 2
9.5380001 -6.2340002 0.77700001 2
9.526 -6.2880001 0.713 2
9.5080004 -6.197 0.72500002 2
9.5089998 -6.2480001 0.69599998 2
9.5649996 -6.3649998 0.76099998 2
9.5120001 -6.2579999 0.69700003 2
9.5319996 -6.2059999 0.77999997 2
9.533 -6.2090001 0.77999997 2
9.526 -6.2420001 0.74199998 2
9.559 -6.3470001 0.759 2
9.5290003 -6.2350001 0.75300002 2
9.5249996 -6.191 0.773 2
9.5340004 -6.3010001 0.72399998 2
9.5489998 -6.2859998 0.77100003 2
9.533 -6.2410002 0.75999999 2
9.5690002 -6.3559999 0.77700001 2
9.5430002 -6.323 0.73199999 2
9.5310001 -6.2810001 0.73000002 2
9.5240002 -6.197 0.764 2
9.4949999 -6.2290001 0.671 2
9.552 -6.25 0.801 2
9.533 -6.2290001 0.76899999 2
9.5159998 -6.2049999 0.74000001 2
9.5430002 -6.2800002 0.76200002 2
9.573 -6.3800001 0.773 2
9.5579996 -6.2950001 0.78799999 2
9.5080004 -6.2420001 0.69700003 2
9.5299997 -6.2470002 0.74900001 2
9.5170002 -6.198 0.74800003 2
9.5410004 -6.302 0.74199998 2
9.552 -6.3390002 0.74599999 2
9.4949999 -6.2160001 0.68000001 2
9.5539999 -6.2810001 0.787 2
9.5209999 -6.2550001 0.72100002 2
9.5319996 -6.1999998 0.78500003 2
9.5459995 -6.2880001 0.76300001 2
9.54 -6.316 0.73100001 2
9.5670004 -6.3280001 0.79100001 2
9.54 -6.3109999 0.73199999 2
9.4969997 -6.2069998 0.69099998 2
9.5050001 -6.224 0.70200002 2
9.5649996 -6.3270001 0.78600001 2
9.5089998 -6.256 0.69 2
9.5270004 -6.2410002 0.74400002 2
9.5550003 -6.2729998 0.79500002 2
9.5059996 -6.2319999 0.699 2
9.5410004 -6.198 0.80699998 2
9.5570002 -6.3070002 0.77899998 2
9.5380001 -6.1999998 0.79900002 2
9.5480003 -6.2449999 0.79400003 2
9.5010004 -6.2049999 0.70300001 2
9.5030003 -6.2459998 0.68199998 2
9.5760002 -6.375 0.78299999 2
9.5500002 -6.263 0.78899997 2
9.5380001 -6.1939998 0.801 2
9.5360003 -6.2189999 0.78100002 2
9.5340004 -6.25 0.75700003 2
9.5240002 -6.2839999 0.70999998 2
9.5139999 -6.2389998 0.71399999 2
9.5690002 -6.3720002 0.76599997 2
9.5469999 -6.2399998 0.79500002 2
9.507 -6.223 0.70700002 2
9.5 -6.2150002 0.69400001 2
9.5609999 -6.3569999 0.75700003 2
9.5150003 -6.2529998 0.70700002 2
9.5459995 -6.2340002 0.79799998 2
9.4910002 -6.1939998 0.667 2
9.4960003 -6.191 0.68000001 2
9.5080004 -6.1869998 0.71700001 2
9.5270004 -6.1729999 0.76800001 2
9.5209999 -6.1739998 0.74599999 2
9.4919996 -6.1960001 0.671 2
9.5200005 -6.1729999 0.74000001 2
9.5170002 -6.165 0.713 2
9.5209999 -6.1810002 0.759 2
9.5080004 -6.1659999 0.68300003 2
9.5170002 -6.1789999 0.73900002 2
9.4969997 -6.1960001 0.69099998 2
9.5089998 -6.1700001 0.69199997 2
9.4969997 -6.1900001 0.68099999 2
9.5100002 -6.1789999 0.71200001 2
9.5249996 -6.1799998 0.77100003 2
9.5229998 -6.177 0.75599998 2
9.4860001 -6.2030001 0.662 2
9.5050001 -6.1739998 0.685 2
9.5200005 -6.1799998 0.75300002 2
9.5059996 -6.1919999 0.72000003 2
9.5050001 -6.1939998 0.71899998 2
9.5220003 -6.165 0.736 2
9.5129995 -6.1700001 0.708 2
9.5349998 -6.177 0.80299997 2
9.5129995 -6.1570001 0.68599999 2
9.5200005 -6.1669998 0.73000002 2
9.5209999 -6.1669998 0.73400003 2
9.5170002 -6.1869998 0.75099999 2
9.5059996 -6.1729999 0.68599999 2
9.5109997 -6.1830001 0.72399998 2
9.5290003 -6.1799998 0.78399998 2
9.5109997 -6.1789999 0.71700001 2
9.5109997 -6.1659999 0.69400001 2
9.5109997 -6.1620002 0.68900001 2
9.493 -6.1989999 0.68199998 2
9.5220003 -6.1700001 0.74400002 2
9.5109997 -6.1810002 0.71799999 2
9.493 -6.1950002 0.676 2
9.4940004 -6.1999998 0.68699998 2
9.5509996 -6.6820002 0.52999997 2
9.5340004 -6.6680002 0.47999999 2
9.5310001 -6.6669998 0.47 2
9.573 -6.6539998 0.65600002 2
9.5450001 -6.6570001 0.537 2
9.5310001 -6.6570001 0.48100001 2
9.5649996 -6.6700001 0.60000002 2
9.5279999 -6.6469998 0.48500001 2
9.5640001 -6.651 0.62099999 2
9.5579996 -6.6659999 0.57700002 2
9.5410004 -6.6620002 0.514 2
9.5500002 -6.6799998 0.52600002 2
9.5889997 -6.6529999 0.72100002 2
9.5760002 -6.6659999 0.64999998 2
9.5410004 -6.6620002 0.51499999 2
9.5249996 -6.6570001 0.45699999 2
9.5220003 -6.6479998 0.461 2
9.5480003 -6.677 0.52499998 2
9.5310001 -6.652 0.48899999 2
9.5310001 -6.6820002 0.44800001 2
9.5480003 -6.684 0.51300001 2
9.5410004 -6.6890001 0.47799999 2
9.5799999 -6.6529999 0.68300003 2
9.5860004 -6.6589999 0.70200002 2
9.5450001 -6.6820002 0.505 2
9.5459995 -6.6620002 0.537 2
9.5699997 -6.6630001 0.63200003 2
9.5319996 -6.6630001 0.47999999 2
9.5559998 -6.6630001 0.57200003 2
9.5360003 -6.6900001 0.458 2
9.5970001 -6.6539998 0.75 2
9.5240002 -6.658 0.454 2
9.5319996 -6.6630001 0.479 2
9.5419998 -6.6630001 0.51700002 2
9.5430002 -6.651 0.54100001 2
9.5489998 -6.6739998 0.52899998 2
9.5760002 -6.6609998 0.65799999 2
9.5710001 -6.6570001 0.64399999 2
9.5319996 -6.6560001 0.48800001 2
9.5369997 -6.6719999 0.48500001 2
9.5489998 -6.6630001 0.54699999 2
9.5319996 -6.6700001 0.46700001 2
9.5360003 -6.691 0.45500001 2
9.5699997 -6.6630001 0.63200003 2
9.5539999 -6.6500001 0.58700001 2
9.5480003 -6.6700001 0.53200001 2
9.5550003 -6.6669998 0.56400001 2
9.5930004 -6.6570001 0.73100001 2
9.5279999 -6.6729999 0.449 2
9.5340004 -6.6700001 0.47499999 2
9.5430002 -6.6750002 0.505 2
9.5419998 -6.6729999 0.50400001 2
9.5369997 -6.6799998 0.47299999 2
9.5629997 -6.6729999 0.58899999 2
9.5600004 -6.6620002 0.59100002 2
9.559 -6.6589999 0.59399998 2
9.5539999 -6.678 0.54699999 2
9.5509996 -6.6830001 0.528 2
9.559 -6.6729999 0.57200003 2
9.5430002 -6.6739998 0.50599998 2
9.559 -6.6589999 0.59200001 2
9.533 -6.651 0.49900001 2
9.5509996 -6.6760001 0.537 2
9.5579996 -6.6719999 0.57099998 2
9.559 -6.6539998 0.597 2
9.5439997 -6.6479998 0.54900002 2
9.5500002 -6.6719999 0.53600001 2
9.5349998 -6.6539998 0.50300002 2
9.5369997 -6.651 0.51599997 2
9.5480003 -6.6849999 0.514 2
9.5509996 -6.6479998 0.57499999 2
9.5620003 -6.664 0.59799999 2
9.5579996 -6.6609998 0.58600003 2
9.5539999 -6.6500001 0.58499998 2
9.5670004 -6.6659999 0.61400002 2
9.5469999 -6.6760001 0.51999998 2
9.5670004 -6.6659999 0.61400002 2
9.5780001 -6.6539998 0.67400002 2
9.5430002 -6.6620002 0.523 2
9.5249996 -6.652 0.46599999 2
9.5459995 -6.6550002 0.54799998 2
9.5939999 -6.651 0.745 2
9.5609999 -6.6700001 0.583 2
9.5609999 -6.6729999 0.58200002 2
9.533 -6.6500001 0.5 2
9.5410004 -6.651 0.53299999 2
9.5480003 -6.6659999 0.537 2
9.5279999 -6.6599998 0.465 2
9.5410004 -6.6620002 0.51599997 2
9.5699997 -6.665 0.62599999 2
9.5080004 -6.52 0.477 2
9.566 -6.645 0.63499999 2
9.5279999 -6.6430001 0.48899999 2
9.5010004 -6.4910002 0.46399999 2
9.559 -6.6479998 0.60799998 2
9.5279999 -6.6149998 0.505 2
9.5500002 -6.5609999 0.61900002 2
9.5640001 -6.6290002 0.63999999 2
9.559 -6.6059999 0.63300002 2
9.5290003 -6.5289998 0.55500001 2
9.5459995 -6.645 0.55900002 2
9.5539999 -6.631 0.59799999 2
9.5489998 -6.5999999 0.59500003 2
9.552 -6.572 0.625 2
9.5749998 -6.6079998 0.69499999 2
9.5209999 -6.6240001 0.46900001 2
9.5500002 -6.6350002 0.57999998 2
9.5249996 -6.546 0.528 2
9.5439997 -6.5580001 0.59399998 2
9.5360003 -6.559 0.56199998 2
9.5530005 -6.5970001 0.611 2
9.5360003 -6.5580001 0.56800002 2
9.533 -6.6009998 0.53299999 2
9.5220003 -6.5710001 0.50400001 2
9.5830002 -6.6290002 0.713 2
9.5360003 -6.6149998 0.53600001 2
9.5679998 -6.6079998 0.667 2
9.5600004 -6.5770001 0.65100002 2
9.5220003 -6.625 0.47400001 2
9.5799999 -6.6090002 0.71100003 2
9.5819998 -6.6339998 0.70599997 2
9.4899998 -6.4569998 0.44 2
9.5139999 -6.6079998 0.454 2
9.5129995 -6.5229998 0.49399999 2
9.5139999 -6.5869999 0.463 2
9.507 -6.4910002 0.49000001 2
9.5220003 -6.5679998 0.50700003 2
9.5719995 -6.6240001 0.67400002 2
9.5159998 -6.5300002 0.50300002 2
9.493 -6.474 0.44299999 2
9.5389996 -6.5689998 0.57499999 2
9.5299997 -6.598 0.523 2
9.5760002 -6.6300001 0.685 2
9.552 -6.6259999 0.59399998 2
9.5270004 -6.6440001 0.48199999 2
9.5360003 -6.625 0.52999997 2
9.5419998 -6.6059999 0.56300002 2
9.526 -6.5669999 0.523 2
9.5459995 -6.5570002 0.60500002 2
9.559 -6.5939999 0.639 2
9.5640001 -6.6440001 0.62900001 2
9.5050001 -6.4990001 0.47600001 2
9.5369997 -6.6300001 0.53100002 2
9.5190001 -6.5479999 0.50099999 2
9.5129995 -6.54 0.484 2
9.5279999 -6.5640001 0.53200001 2
9.5670004 -6.5890002 0.67299998 2
9.5240002 -6.5320001 0.53200001 2
9.5389996 -6.539 0.58700001 2
9.559 -6.5960002 0.639 2
9.5129995 -6.5050001 0.50400001 2
9.5290003 -6.553 0.54000002 2
9.5240002 -6.585 0.505 2
9.5129995 -6.5619998 0.477 2
9.5039997 -6.494 0.47499999 2
9.5369997 -6.6129999 0.53899997 2
9.5909996 -6.6440001 0.73400003 2
9.5290003 -6.5650001 0.53500003 2
9.5080004 -6.5050001 0.48500001 2
9.559 -6.5960002 0.63800001 2
9.5360003 -6.5970001 0.54699999 2
9.5640001 -6.6230001 0.64200002 2
9.5860004 -6.6360002 0.722 2
9.5170002 -6.5110002 0.51700002 2
9.5179996 -6.5310001 0.509 2
9.5880003 -6.6290002 0.73199999 2
9.5150003 -6.5419998 0.48899999 2
9.5179996 -6.566 0.49399999 2
9.5249996 -6.612 0.49200001 2
9.4980001 -6.4990001 0.44999999 2
9.5369997 -6.6389999 0.52499998 2
9.5229998 -6.625 0.477 2
9.5190001 -6.5679998 0.493 2
9.5290003 -6.592 0.51999998 2
9.5459995 -6.5830002 0.59299999 2
9.552 -6.5739999 0.62099999 2
9.5369997 -6.6220002 0.53299999 2
9.5459995 -6.5510001 0.60900003 2
9.5179996 -6.5869999 0.48199999 2
9.5670004 -6.5910001 0.67000002 2
9.5179996 -6.5450001 0.50099999 2
9.526 -6.6269999 0.491 2
9.5539999 -6.6149998 0.60600001 2
9.5509996 -6.6220002 0.58999997 2
9.5190001 -6.539 0.50599998 2
9.5489998 -6.612 0.58999997 2
9.5769997 -6.6459999 0.68000001 2
9.5570002 -6.6399999 0.60399997 2
9.5240002 -6.5619998 0.51899999 2
9.526 -6.5500002 0.52999997 2
9.533 -6.5710001 0.54699999 2
9.5190001 -6.5110002 0.52399999 2
9.5360003 -6.585 0.55199999 2
9.4969997 -6.4759998 0.456 2
9.5209999 -6.6329999 0.46700001 2
9.5270004 -6.5749998 0.52100003 2
9.5469999 -6.631 0.57200003 2
9.4989996 -6.4809999 0.46399999 2
9.5220003 -6.5320001 0.52499998 2
9.5550003 -6.6409998 0.597 2
9.5270004 -6.5939999 0.51099998 2
9.5019999 -6.506 0.46000001 2
9.5299997 -6.5539999 0.542 2
9.5170002 -6.5110002 0.51499999 2
9.5830002 -6.6160002 0.72000003 2
9.526 -6.539 0.537 2
9.5410004 -6.5710001 0.58099997 2
9.5489998 -6.5710001 0.61199999 2
9.5550003 -6.6399999 0.59500003 2
9.5209999 -6.6139998 0.47499999 2
9.5349998 -6.5700002 0.55900002 2
9.5439997 -6.5500002 0.602 2
9.5299997 -6.5929999 0.52399999 2
9.5310001 -6.6389999 0.50099999 2
9.5120001 -6.5549998 0.46900001 2
9.5310001 -6.6209998 0.514 2
9.5039997 -6.4850001 0.47999999 2
9.5469999 -6.5549998 0.60900003 2
9.533 -6.632 0.514 2
9.5240002 -6.5289998 0.53299999 2
9.5550003 -6.5739999 0.63200003 2
9.5550003 -6.605 0.61699998 2
