# .PCD v0.7 - Point Cloud Data file format
VERSION 0.7
FIELDS x y z label
SIZE 4 4 4 4
TYPE F F F U
COUNT 1 1 1 1
WIDTH 1539
HEIGHT 1
VIEWPOINT 0 0 0 1 0 0 0
POINTS 1539
DATA ascii
7.29 -7.414 0.537 2
7.302 -7.4099998 0.48899999 2
7.2589998 -7.3720002 0.611 2
7.2859998 -7.3909998 0.528 2
7.2659998 -7.388 0.60100001 2
7.2659998 -7.3790002 0.59200001 2
7.289 -7.3990002 0.52600002 2
7.2919998 -7.4089999 0.52499998 2
7.2600002 -7.3720002 0.60900003 2
7.2610002 -7.3660002 0.59899998 2
7.2820001 -7.4120002 0.565 2
7.2800002 -7.4050002 0.565 2
7.276 -7.382 0.55800003 2
7.2620001 -7.3889999 0.61799997 2
7.2639999 -7.3920002 0.61199999 2
7.2670002 -7.3930001 0.60299999 2
7.2719998 -7.415 0.60900003 2
7.2740002 -7.4070001 0.58899999 2
7.2859998 -7.4120002 0.54900002 2
7.2839999 -7.3889999 0.53600001 2
7.2729998 -7.3870001 0.574 2
7.2729998 -7.415 0.60399997 2
7.276 -7.3899999 0.56599998 2
7.27 -7.3860002 0.58399999 2
7.2729998 -7.3779998 0.56400001 2
7.263 -7.3660002 0.59100002 2
7.2849998 -7.3930001 0.53399998 2
7.2690001 -7.401 0.60500002 2
7.2989998 -7.4070001 0.49599999 2
7.277 -7.4200001 0.59200001 2
7.2589998 -7.3740001 0.61500001 2
7.2930002 -7.4180002 0.53100002 2
7.2750001 -7.3829999 0.56300002 2
7.2709999 -7.3969998 0.59100002 2
7.3070002 -7.4130001 0.47299999 2
7.2750001 -7.414 0.59399998 2
7.263 -7.3860002 0.61199999 2
7.277 -7.3870001 0.55900002 2
7.256 -7.3639998 0.61400002 2
7.2600002 -7.3670001 0.60399997 2
7.3010001 -7.415 0.49900001 2
7.2649999 -7.3959999 0.61199999 2
7.2750001 -7.414 0.59500003 2
7.2849998 -7.3889999 0.52899998 2
7.2740002 -7.3959999 0.58099997 2
7.2969999 -7.414 0.51300001 2
7.2719998 -7.3850002 0.57499999 2
7.276 -7.4120002 0.58999997 2
7.277 -7.4159999 0.588 2
7.2690001 -7.3860002 0.588 2
7.2709999 -7.3969998 0.59399998 2
7.277 -7.4000001 0.57200003 2
7.2919998 -7.4159999 0.53100002 2
7.2639999 -7.3759999 0.59799999 2
7.3499999 -7.3909998 0.433 2
7.2709999 -7.3379998 0.43399999 2
7.3099999 -7.3520002 0.43200001 2
7.276 -7.3309999 0.433 2
7.348 -7.3759999 0.43200001 2
7.3179998 -7.3600001 0.433 2
7.3280001 -7.4089999 0.435 2
7.3010001 -7.3649998 0.43399999 2
7.2600002 -7.3099999 0.43200001 2
7.3649998 -7.3899999 0.43200001 2
7.3099999 -7.3520002 0.43200001 2
7.3369999 -7.3860002 0.433 2
7.3179998 -7.4130001 0.43599999 2
7.2880001 -7.3639998 0.435 2
7.316 -7.3649998 0.433 2
7.3499999 -7.3920002 0.433 2
7.2690001 -7.316 0.43200001 2
7.283 -7.3439999 0.433 2
7.2600002 -7.3189998 0.433 2
7.3099999 -7.3940001 0.435 2
7.2839999 -7.3390002 0.433 2
7.3260002 -7.368 0.433 2
7.2930002 -7.3720002 0.435 2
7.2740002 -7.3309999 0.433 2
7.335 -7.3850002 0.433 2
7.303 -7.3460002 0.43200001 2
7.3499999 -7.3959999 0.433 2
7.3530002 -7.3899999 0.433 2
7.3210001 -7.3740001 0.433 2
7.3520002 -7.3800001 0.43200001 2
7.3189998 -7.3670001 0.433 2
7.342 -7.3909998 0.433 2
7.2989998 -7.3850002 0.435 2
7.276 -7.3280001 0.433 2
7.2989998 -7.3829999 0.435 2
7.316 -7.3839998 0.43399999 2
7.2789998 -7.3439999 0.43399999 2
7.2820001 -7.3319998 0.433 2
7.3169999 -7.3610001 0.433 2
7.2620001 -7.3130002 0.43200001 2
7.2480001 -7.3239999 0.523 2
7.2810001 -7.3639998 0.47 2
7.2709999 -7.3660002 0.54400003 2
7.2620001 -7.3629999 0.58899999 2
7.2880001 -7.3829999 0.495 2
7.2600002 -7.3460002 0.53799999 2
7.2509999 -7.3439999 0.58200002 2
7.257 -7.3210001 0.454 2
7.2940001 -7.3850002 0.46700001 2
7.2480001 -7.3150001 0.491 2
7.2690001 -7.349 0.48500001 2
7.2610002 -7.3340001 0.48300001 2
7.3010001 -7.3959999 0.46000001 2
7.29 -7.3720002 0.44299999 2
7.2680001 -7.3429999 0.47099999 2
7.2849998 -7.3790002 0.50300002 2
7.2989998 -7.3990002 0.48300001 2
7.2690001 -7.335 0.43599999 2
7.2680001 -7.3499999 0.49900001 2
7.2490001 -7.3130002 0.47299999 2
7.2750001 -7.3610001 0.493 2
7.256 -7.3499999 0.57499999 2
7.256 -7.3150001 0.44100001 2
7.2709999 -7.3569999 0.50700003 2
7.2909999 -7.3839998 0.484 2
7.2979999 -7.395 0.479 2
7.2800002 -7.3649998 0.47600001 2
7.257 -7.3169999 0.43900001 2
7.2670002 -7.3439999 0.48100001 2
7.2680001 -7.3369999 0.447 2
7.2709999 -7.3639998 0.53299999 2
7.2800002 -7.368 0.493 2
7.2880001 -7.3860002 0.50599998 2
7.2839999 -7.3600001 0.435 2
7.2540002 -7.3429999 0.55900002 2
7.2709999 -7.3709998 0.56 2
7.2820001 -7.3709998 0.491 2
7.2820001 -7.3740001 0.50199997 2
7.2490001 -7.342 0.59299999 2
7.2989998 -7.3969998 0.47999999 2
7.2930002 -7.382 0.461 2
7.25 -7.3330002 0.546 2
7.2550001 -7.3530002 0.59299999 2
7.276 -7.3740001 0.53899997 2
7.2659998 -7.3629999 0.56199998 2
7.2989998 -7.3899999 0.45500001 2
7.2989998 -7.3959999 0.47600001 2
7.2519999 -7.3239999 0.50300002 2
7.2620001 -7.3429999 0.51099998 2
7.2509999 -7.3369999 0.55599999 2
7.2540002 -7.3340001 0.52399999 2
7.2859998 -7.3649998 0.43799999 2
7.2810001 -7.362 0.456 2
7.2610002 -7.362 0.59299999 2
7.2839999 -7.3829999 0.52100003 2
7.29 -7.3870001 0.49700001 2
7.2600002 -7.3540001 0.56699997 2
7.283 -7.3800001 0.51999998 2
7.2550001 -7.3309999 0.50700003 2
7.2789998 -7.3590002 0.461 2
7.2909999 -7.3850002 0.48500001 2
7.2680001 -7.336 0.44299999 2
7.2880001 -7.3709998 0.45199999 2
7.302 -7.3930001 0.44499999 2
7.2540002 -7.3460002 0.57099998 2
7.2719998 -7.3499999 0.47099999 2
7.2659998 -7.3639998 0.56199998 2
7.2659998 -7.3530002 0.52399999 2
7.2800002 -7.3569999 0.447 2
7.2550001 -7.3390002 0.53399998 2
7.2709999 -7.3629999 0.53100002 2
7.2670002 -7.3460002 0.48800001 2
7.2519999 -7.342 0.57099998 2
7.257 -7.3309999 0.495 2
7.2659998 -7.3340001 0.449 2
7.2859998 -7.3850002 0.51700002 2
7.2779999 -7.3569999 0.458 2
7.2979999 -7.3909998 0.461 2
7.2969999 -7.3899999 0.46399999 2
7.2740002 -7.3449998 0.43799999 2
7.2649999 -7.342 0.48899999 2
7.2969999 -7.3829999 0.43799999 2
7.289 -7.3779998 0.47 2
7.2509999 -7.3470001 0.60000002 2
7.2750001 -7.3590002 0.48800001 2
7.2789998 -7.368 0.49599999 2
7.2740002 -7.348 0.45100001 2
7.2470002 -7.3080001 0.46700001 2
7.2800002 -7.3590002 0.456 2
7.2579999 -7.3239999 0.463 2
7.2509999 -7.3449998 0.58999997 2
7.2870002 -7.3860002 0.51499999 2
7.25 -7.3460002 0.59899998 2
7.2649999 -7.3460002 0.50099999 2
7.2579999 -7.3460002 0.54500002 2
7.2659998 -7.348 0.50400001 2
7.2639999 -7.3429999 0.49700001 2
7.277 -7.3670001 0.509 2
7.2800002 -7.3800001 0.53899997 2
7.2880001 -7.3740001 0.46000001 2
7.2859998 -7.3850002 0.514 2
7.2649999 -7.3410001 0.48100001 2
7.2729998 -7.3530002 0.47799999 2
7.2919998 -7.388 0.49000001 2
7.2670002 -7.3559999 0.52999997 2
7.2839999 -7.3709998 0.47799999 2
7.3010001 -7.401 0.479 2
7.2800002 -7.3610001 0.46399999 2
7.2859998 -7.3850002 0.51499999 2
7.2550001 -7.3439999 0.55900002 2
7.27 -7.3590002 0.52100003 2
7.2509999 -7.3410001 0.57599998 2
7.2940001 -7.3860002 0.47 2
7.2789998 -7.369 0.49900001 2
7.2870002 -7.3670001 0.44 2
7.2880001 -7.3720002 0.45199999 2
7.2639999 -7.3340001 0.463 2
7.25 -7.3070002 0.44499999 2
7.2690001 -7.355 0.50999999 2
7.2919998 -7.3889999 0.49399999 2
7.2490001 -7.3169999 0.49000001 2
7.2950001 -7.3860002 0.46000001 2
7.2480001 -7.3080001 0.46200001 2
7.2509999 -7.3070002 0.44 2
7.2690001 -7.362 0.53500003 2
7.25 -7.3400002 0.579 2
7.2610002 -7.3249998 0.447 2
7.2859998 -7.3670001 0.44800001 2
7.2540002 -7.3309999 0.51599997 2
7.2649999 -7.3649998 0.57800001 2
7.2550001 -7.3270001 0.49599999 2
7.25 -7.3130002 0.46900001 2
7.29 -7.3839998 0.48800001 2
7.3099999 -7.4039998 0.43900001 2
7.2490001 -7.316 0.48500001 2
7.2610002 -7.3410001 0.50800002 2
7.2839999 -7.3699999 0.47499999 2
7.2820001 -7.5609999 0.53100002 2
7.3060002 -7.5089998 0.366 2
7.283 -7.5570002 0.523 2
7.2849998 -7.5250001 0.44800001 2
7.2750001 -7.5679998 0.56199998 2
7.2989998 -7.4980001 0.35800001 2
7.29 -7.5159998 0.417 2
7.302 -7.52 0.40099999 2
7.2849998 -7.5310001 0.461 2
7.2839999 -7.5560002 0.51899999 2
7.2909999 -7.4840002 0.345 2
7.2789998 -7.5609999 0.54000002 2
7.29 -7.5279999 0.44400001 2
7.303 -7.5120001 0.38100001 2
7.2950001 -7.4889998 0.347 2
7.2909999 -7.5349998 0.45699999 2
7.2810001 -7.5650001 0.54500002 2
7.2859998 -7.559 0.52100003 2
7.303 -7.5190001 0.39500001 2
7.2919998 -7.4920001 0.36000001 2
7.2880001 -7.5500002 0.49599999 2
7.2859998 -7.5170002 0.428 2
7.29 -7.5079999 0.398 2
7.2849998 -7.5630002 0.53100002 2
7.3000002 -7.5079999 0.377 2
7.296 -7.4990001 0.36700001 2
7.2870002 -7.5240002 0.44100001 2
7.2880001 -7.5120001 0.414 2
7.289 -7.493 0.368 2
7.27 -7.5970001 0.63700002 2
7.2859998 -7.5419998 0.484 2
7.27 -7.598 0.639 2
7.2849998 -7.5190001 0.43399999 2
7.2989998 -7.527 0.42300001 2
7.277 -7.5669999 0.55699998 2
7.2870002 -7.507 0.40400001 2
7.283 -7.5430002 0.491 2
7.2940001 -7.5359998 0.45300001 2
7.277 -7.5549998 0.52999997 2
7.296 -7.533 0.44 2
7.3060002 -7.5120001 0.37400001 2
7.2800002 -7.5500002 0.514 2
7.29 -7.4980001 0.377 2
7.2880001 -7.5430002 0.47999999 2
7.2719998 -7.5949998 0.63 2
7.2940001 -7.4850001 0.34099999 2
7.277 -7.5669999 0.55599999 2
7.2979999 -7.5079999 0.382 2
7.2800002 -7.5710001 0.56 2
7.2810001 -7.5689998 0.551 2
7.2930002 -7.4819999 0.33700001 2
7.2820001 -7.6009998 0.616 2
7.375 -7.677 0.51999998 2
7.375 -7.645 0.456 2
7.3080001 -7.553 0.44999999 2
7.382 -7.665 0.47499999 2
7.3449998 -7.6339998 0.51300001 2
7.3499999 -7.6589999 0.551 2
7.3410001 -7.6599998 0.57499999 2
7.3260002 -7.5650001 0.42699999 2
7.3109999 -7.5289998 0.39500001 2
7.3870001 -7.677 0.48699999 2
7.3280001 -7.5760002 0.44400001 2
7.3860002 -7.6830001 0.50099999 2
7.3860002 -7.6659999 0.46900001 2
7.3169999 -7.579 0.47600001 2
7.329 -7.625 0.53600001 2
7.369 -7.6680002 0.51899999 2
7.349 -7.664 0.56300002 2
7.3499999 -7.6430001 0.51700002 2
7.3920002 -7.697 0.514 2
7.2750001 -7.5910001 0.61299998 2
7.3720002 -7.6789999 0.52999997 2
7.3070002 -7.5310001 0.40799999 2
7.3400002 -7.645 0.54900002 2
7.3499999 -7.5840001 0.403 2
7.3200002 -7.5250001 0.36399999 2
7.3140001 -7.527 0.38499999 2
7.3439999 -7.6069999 0.461 2
7.3499999 -7.5869999 0.40700001 2
7.348 -7.6409998 0.51800001 2
7.3280001 -7.605 0.49900001 2
7.3150001 -7.6079998 0.54100001 2
7.3559999 -7.6539998 0.52499998 2
7.296 -7.5549998 0.48500001 2
7.3060002 -7.5819998 0.51200002 2
7.3559999 -7.6560001 0.528 2
7.4320002 -7.7259998 0.46700001 2
7.4229999 -7.7189999 0.47799999 2
7.368 -7.6170001 0.41999999 2
7.3439999 -7.625 0.49900001 2
7.3369999 -7.6279998 0.523 2
7.29 -7.6139998 0.61900002 2
7.362 -7.6269999 0.45500001 2
7.3319998 -7.6490002 0.57700002 2
7.3649998 -7.6789999 0.55000001 2
7.3569999 -7.671 0.55599999 2
7.303 -7.5900002 0.53799999 2
7.322 -7.6409998 0.588 2
7.3969998 -7.7030001 0.51300001 2
7.3850002 -7.6680002 0.477 2
7.3299999 -7.585 0.45500001 2
7.3990002 -7.704 0.50999999 2
7.428 -7.7189999 0.46200001 2
7.3189998 -7.5320001 0.38 2
7.2969999 -7.5949998 0.56400001 2
7.3569999 -7.6570001 0.528 2
7.3800001 -7.6430001 0.44 2
7.3010001 -7.6100001 0.58099997 2
7.2940001 -7.5869999 0.55400002 2
7.3460002 -7.6430001 0.52999997 2
7.3439999 -7.6290002 0.50599998 2
7.3800001 -7.651 0.454 2
7.2930002 -7.6149998 0.61400002 2
7.3299999 -7.573 0.43399999 2
7.323 -7.6459999 0.59500003 2
7.3099999 -7.6240001 0.58600003 2
7.3460002 -7.6059999 0.45500001 2
7.3200002 -7.5489998 0.412 2
7.362 -7.6279998 0.456 2
7.309 -7.5669999 0.47499999 2
7.303 -7.5250001 0.40799999 2
7.3460002 -7.6609998 0.56599998 2
7.3280001 -7.612 0.514 2
7.3870001 -7.6859999 0.50599998 2
7.4039998 -7.6760001 0.44100001 2
7.3060002 -7.5300002 0.40900001 2
7.3369999 -7.5799999 0.428 2
7.3000002 -7.5599999 0.486 2
7.3189998 -7.5570002 0.43000001 2
7.3049998 -7.598 0.54699999 2
7.3010001 -7.5669999 0.49599999 2
7.3249998 -7.5380001 0.37599999 2
7.2709999 -7.6040001 0.64999998 2
7.27 -7.6069999 0.65600002 2
7.401 -7.6859999 0.46799999 2
7.3039999 -7.6209998 0.59500003 2
7.4289999 -7.7270002 0.47600001 2
7.3330002 -7.5619998 0.40200001 2
7.3390002 -7.6110001 0.484 2
7.3119998 -7.6209998 0.57499999 2
7.3379998 -7.6160002 0.49700001 2
7.4219999 -7.7179999 0.47600001 2
7.3860002 -7.6690001 0.47499999 2
7.3119998 -7.6040001 0.54000002 2
7.3200002 -7.5679998 0.44999999 2
7.302 -7.6020002 0.565 2
7.3509998 -7.619 0.46799999 2
7.3439999 -7.6199999 0.48800001 2
7.348 -7.6009998 0.43900001 2
7.3870001 -7.651 0.43599999 2
7.3390002 -7.6199999 0.50099999 2
7.3759999 -7.6360002 0.43399999 2
7.2950001 -7.6230001 0.62199998 2
7.3920002 -7.6900001 0.49900001 2
7.3309999 -7.631 0.54500002 2
7.3850002 -7.6859999 0.51200002 2
7.3670001 -7.664 0.514 2
7.3099999 -7.5580001 0.454 2
7.336 -7.5570002 0.384 2
7.3249998 -7.6139998 0.52700001 2
7.2950001 -7.5500002 0.477 2
7.2919998 -7.5580001 0.50199997 2
7.303 -7.5770001 0.51099998 2
7.3189998 -7.5419998 0.39899999 2
7.362 -7.6399999 0.479 2
7.3200002 -7.631 0.57499999 2
7.3660002 -7.6269999 0.44600001 2
7.3099999 -7.631 0.60100001 2
7.4310002 -7.7249999 0.465 2
7.2800002 -7.5900002 0.597 2
7.3870001 -7.691 0.51499999 2
7.3099999 -7.579 0.49599999 2
7.3109999 -7.5510001 0.43799999 2
7.302 -7.6300001 0.62099999 2
7.3720002 -7.6430001 0.46000001 2
7.3109999 -7.572 0.479 2
7.2880001 -7.5570002 0.50999999 2
7.2839999 -7.5780001 0.56199998 2
7.335 -7.586 0.44600001 2
7.3390002 -7.6209998 0.50400001 2
7.3119998 -7.5560002 0.447 2
7.3559999 -7.605 0.42699999 2
7.2969999 -7.5749998 0.52399999 2
7.3829999 -7.6859999 0.51499999 2
7.3130002 -7.6339998 0.59799999 2
7.2919998 -7.605 0.59500003 2
7.3340001 -7.6240001 0.52200001 2
7.4070001 -7.704 0.486 2
7.3889999 -7.6760001 0.47999999 2
7.302 -7.5500002 0.46000001 2
7.3239999 -7.573 0.447 2
7.3499999 -7.6500001 0.53399998 2
7.3520002 -7.6420002 0.50999999 2
7.3169999 -7.6300001 0.57999998 2
7.3600001 -7.6719999 0.54900002 2
7.3280001 -7.619 0.528 2
7.3280001 -7.539 0.37099999 2
7.322 -7.566 0.43799999 2
7.3010001 -7.5560002 0.47400001 2
7.3169999 -7.5209999 0.36199999 2
7.3099999 -7.5190001 0.37900001 2
7.3449998 -7.6220002 0.491 2
7.3530002 -7.645 0.51599997 2
7.3699999 -7.678 0.53500003 2
7.3200002 -7.5879998 0.486 2
7.388 -7.664 0.46000001 2
7.3839998 -7.6620002 0.465 2
7.3080001 -7.5320001 0.40799999 2
7.348 -7.6209998 0.47999999 2
7.3559999 -7.6459999 0.50800002 2
7.3270001 -7.6420002 0.57599998 2
7.3699999 -7.6550002 0.48899999 2
7.3260002 -7.6209998 0.53899997 2
7.2940001 -7.5749998 0.53100002 2
7.355 -7.6669998 0.55299997 2
7.3200002 -7.5580001 0.43000001 2
7.302 -7.605 0.56999999 2
7.2839999 -7.5929999 0.59299999 2
7.309 -7.5929999 0.52700001 2
7.3109999 -7.5560002 0.449 2
7.3010001 -7.6059999 0.574 2
7.3439999 -7.6620002 0.57300001 2
7.3140001 -7.6370001 0.60100001 2
7.4180002 -7.7069998 0.46700001 2
7.4039998 -7.7049999 0.49900001 2
7.2849998 -7.612 0.62699997 2
7.3709998 -7.618 0.412 2
7.3299999 -7.6479998 0.58099997 2
7.3249998 -7.6090002 0.51700002 2
7.3390002 -7.5669999 0.398 2
7.2880001 -7.5939999 0.58399999 2
7.2719998 -7.5999999 0.639 2
7.3499999 -7.5799999 0.39300001 2
7.3039999 -7.5710001 0.49700001 2
7.342 -7.6560001 0.56599998 2
7.2930002 -7.5479999 0.479 2
7.3340001 -7.6399999 0.55500001 2
7.3759999 -7.671 0.505 2
7.3779998 -7.6609998 0.47999999 2
7.3249998 -7.5679998 0.43700001 2
7.3579998 -7.6059999 0.42399999 2
7.2719998 -7.6009998 0.63999999 2
7.3309999 -7.598 0.47999999 2
7.342 -7.5809999 0.41600001 2
7.2940001 -7.573 0.52700001 2
7.2870002 -7.5830002 0.56699997 2
7.3410001 -7.5830002 0.421 2
7.3740001 -7.6750002 0.51800001 2
7.2810001 -7.6069999 0.62800002 2
7.3239999 -7.5380001 0.37799999 2
7.3039999 -7.566 0.48699999 2
7.3379998 -7.5570002 0.38 2
7.3899999 -7.678 0.47999999 2
7.3309999 -7.599 0.47999999 2
7.3200002 -7.6139998 0.53899997 2
7.2810001 -7.598 0.61199999 2
7.3639998 -7.6399999 0.47600001 2
7.336 -7.6440001 0.55599999 2
7.2729998 -7.6110001 0.65799999 2
7.4000001 -7.6810002 0.461 2
7.3169999 -7.6420002 0.60299999 2
7.362 -7.6490002 0.498 2
7.369 -7.6129999 0.40700001 2
7.395 -7.6999998 0.51300001 2
7.3990002 -7.6849999 0.472 2
7.3390002 -7.6459999 0.55400002 2
7.4169998 -7.7150002 0.484 2
7.336 -7.6230001 0.51700002 2
7.3080001 -7.605 0.55299997 2
7.2950001 -7.5609999 0.5 2
7.3850002 -7.6500001 0.43900001 2
7.3130002 -7.5819998 0.49399999 2
7.3850002 -7.678 0.49399999 2
7.3280001 -7.5890002 0.46900001 2
7.3769999 -7.632 0.42300001 2
7.3179998 -7.559 0.435 2
7.3850002 -7.677 0.493 2
7.335 -7.5669999 0.40700001 2
7.3039999 -7.5879998 0.52899998 2
7.3670001 -7.6659999 0.51800001 2
7.3330002 -7.6090002 0.49399999 2
7.3769999 -7.6459999 0.45300001 2
7.316 -7.585 0.49200001 2
7.316 -7.5170002 0.35699999 2
7.3200002 -7.5430002 0.398 2
7.2969999 -7.5599999 0.49399999 2
7.2820001 -7.6149998 0.64200002 2
7.336 -7.6360002 0.54100001 2
7.4070001 -7.7049999 0.49000001 2
7.3140001 -7.5120001 0.35499999 2
7.2969999 -7.6079998 0.58999997 2
7.4029999 -7.7049999 0.50099999 2
7.2989998 -7.6199999 0.60699999 2
7.3660002 -7.6680002 0.52600002 2
7.3889999 -7.6560001 0.442 2
7.348 -7.5749998 0.38699999 2
7.3470001 -7.6100001 0.45899999 2
7.2849998 -7.6069999 0.61900002 2
7.3379998 -7.6329999 0.53200001 2
7.3969998 -7.698 0.50300002 2
7.3200002 -7.54 0.39300001 2
7.296 -7.5479999 0.47099999 2
7.3779998 -7.6570001 0.47099999 2
7.329 -7.6160002 0.51899999 2
7.2870002 -7.5960002 0.58999997 2
7.289 -7.6110001 0.616 2
7.355 -7.5910001 0.40000001 2
7.375 -7.6479998 0.461 2
7.3429999 -7.6560001 0.56199998 2
7.29 -7.6009998 0.59299999 2
7.3610001 -7.6199999 0.44499999 2
7.2909999 -7.6230001 0.63599998 2
7.3070002 -7.6199999 0.58600003 2
7.3060002 -7.6350002 0.61799997 2
7.3499999 -7.6389999 0.51099998 2
7.3319998 -7.5780001 0.43700001 2
7.2789998 -7.579 0.57800001 2
7.3319998 -7.559 0.39899999 2
7.3119998 -7.579 0.49200001 2
7.4000001 -7.6760001 0.45199999 2
7.415 -7.7020001 0.465 2
7.349 -7.6269999 0.48699999 2
7.3390002 -7.6149998 0.491 2
7.3379998 -7.6589999 0.58099997 2
7.402 -7.6880002 0.47 2
7.3629999 -7.6090002 0.414 2
7.2969999 -7.5630002 0.49900001 2
7.4120002 -7.7080002 0.48300001 2
7.388 -7.6659999 0.461 2
7.3189998 -7.586 0.48699999 2
7.309 -7.566 0.47400001 2
7.303 -7.5830002 0.52200001 2
7.3870001 -7.652 0.43799999 2
7.3039999 -7.5450001 0.44499999 2
7.3649998 -7.665 0.52200001 2
7.369 -7.6550002 0.49200001 2
7.3530002 -7.5869999 0.398 2
7.2810001 -7.6139998 0.64300001 2
7.2870002 -7.599 0.59799999 2
7.362 -7.6539998 0.509 2
7.3060002 -7.6220002 0.59299999 2
7.4120002 -7.7129998 0.49200001 2
7.3410001 -7.5949998 0.44800001 2
7.296 -7.5599999 0.49700001 2
7.3889999 -7.651 0.43099999 2
7.3610001 -7.6339998 0.472 2
7.355 -7.6030002 0.42399999 2
7.2859998 -7.5890002 0.579 2
7.3200002 -7.6290002 0.56900001 2
7.3439999 -7.5840001 0.417 2
7.3309999 -7.652 0.58700001 2
7.2729998 -7.5960002 0.62900001 2
7.3429999 -7.5739999 0.40000001 2
7.3769999 -7.6389999 0.44 2
7.2839999 -7.6100001 0.62699997 2
7.4000001 -7.6719999 0.442 2
7.2979999 -7.5739999 0.51700002 2
7.3249998 -7.6030002 0.50599998 2
7.3319998 -7.6170001 0.514 2
7.2989998 -7.5910001 0.54799998 2
7.3270001 -7.6399999 0.574 2
7.3530002 -7.6160002 0.458 2
7.3610001 -7.6459999 0.495 2
7.302 -7.6160002 0.58999997 2
7.289 -7.6129999 0.61900002 2
7.336 -7.6469998 0.56199998 2
7.3709998 -7.6739998 0.52600002 2
7.3860002 -7.6680002 0.472 2
7.3530002 -7.6420002 0.50800002 2
7.3280001 -7.5539999 0.40000001 2
7.3070002 -7.5320001 0.41299999 2
7.3829999 -7.6690001 0.48199999 2
7.2820001 -7.5770001 0.56699997 2
7.2750001 -7.599 0.62699997 2
7.3930001 -7.6989999 0.51499999 2
7.4029999 -7.6869998 0.46700001 2
7.3590002 -7.618 0.44499999 2
7.323 -7.6139998 0.53299999 2
7.3200002 -7.6020002 0.51700002 2
7.3860002 -7.6459999 0.43099999 2
7.3340001 -7.6069999 0.48899999 2
7.3060002 -7.5349998 0.41999999 2
7.3740001 -7.6240001 0.417 2
7.375 -7.658 0.48300001 2
7.3189998 -7.6440001 0.60299999 2
7.3299999 -7.5949998 0.47400001 2
7.382 -7.6669998 0.48100001 2
7.348 -7.5999999 0.43900001 2
7.355 -7.6669998 0.55199999 2
7.2930002 -7.5539999 0.491 2
7.2979999 -7.5910001 0.55299997 2
7.3189998 -7.6240001 0.56 2
7.3899999 -7.652 0.43099999 2
7.2820001 -7.5929999 0.59799999 2
7.303 -7.6290002 0.61199999 2
7.3990002 -7.7059999 0.514 2
7.3109999 -7.6220002 0.579 2
7.369 -7.645 0.47099999 2
7.3099999 -7.507 0.352 2
7.395 -7.678 0.47 2
7.3080001 -7.6269999 0.597 2
7.2849998 -7.6139998 0.634 2
7.2870002 -7.5609999 0.52100003 2
7.2950001 -7.592 0.56199998 2
7.4070001 -7.6999998 0.48199999 2
7.3210001 -7.6279998 0.56400001 2
7.3060002 -7.5489998 0.447 2
7.3049998 -7.5840001 0.51800001 2
7.3930001 -7.6609998 0.44100001 2
7.3590002 -7.665 0.53899997 2
7.2940001 -7.579 0.54000002 2
7.2979999 -7.5380001 0.44600001 2
7.329 -7.6409998 0.56900001 2
7.2979999 -7.5770001 0.52499998 2
7.3000002 -7.573 0.50999999 2
7.3509998 -7.6539998 0.537 2
7.3850002 -7.6739998 0.48899999 2
7.3800001 -7.6329999 0.419 2
7.3000002 -7.572 0.50800002 2
7.3590002 -7.6339998 0.477 2
7.2930002 -7.552 0.48800001 2
7.2969999 -7.5489998 0.47299999 2
7.3390002 -7.6040001 0.47 2
7.362 -7.6129999 0.428 2
7.3260002 -7.631 0.56 2
7.4200001 -7.7049999 0.45500001 2
7.3559999 -7.6609998 0.53799999 2
7.296 -7.5910001 0.55599999 2
7.348 -7.6129999 0.465 2
7.3470001 -7.6399999 0.51999998 2
7.322 -7.6290002 0.565 2
7.3249998 -7.645 0.588 2
7.3610001 -7.6739998 0.55000001 2
7.401 -7.6729999 0.44100001 2
7.3499999 -7.579 0.391 2
7.3330002 -7.552 0.382 2
7.2930002 -7.6220002 0.62699997 2
7.3309999 -7.645 0.57300001 2
7.3429999 -7.612 0.47600001 2
7.3189998 -7.6160002 0.54500002 2
7.302 -7.618 0.59600002 2
7.3850002 -7.5149999 0.44800001 2
7.3959999 -7.54 0.47499999 2
7.3649998 -7.5089998 0.50800002 2
7.3169999 -7.421 0.45100001 2
7.3400002 -7.4790001 0.51899999 2
7.3829999 -7.527 0.48699999 2
7.3839998 -7.5149999 0.45199999 2
7.3379998 -7.4640002 0.48800001 2
7.4130001 -7.5580001 0.46000001 2
7.3899999 -7.5219998 0.449 2
7.369 -7.5120001 0.50099999 2
7.3109999 -7.4569998 0.56400001 2
7.2930002 -7.4359999 0.57499999 2
7.3569999 -7.5029998 0.52100003 2
7.329 -7.4499998 0.48199999 2
7.4109998 -7.5560002 0.46200001 2
7.2859998 -7.4250002 0.57300001 2
7.3429999 -7.4640002 0.46799999 2
7.3979998 -7.5409999 0.46900001 2
7.3189998 -7.4229999 0.44800001 2
7.4050002 -7.5469999 0.461 2
7.3779998 -7.5170002 0.479 2
7.3540001 -7.4689999 0.44 2
7.3200002 -7.4439998 0.498 2
7.3759999 -7.52 0.495 2
7.4299998 -7.5749998 0.44400001 2
7.4029999 -7.5479999 0.47099999 2
7.2989998 -7.4359999 0.55299997 2
7.336 -7.4829998 0.54400003 2
7.3709998 -7.4990001 0.45699999 2
7.2979999 -7.441 0.56999999 2
7.349 -7.487 0.50800002 2
7.3200002 -7.4549999 0.52899998 2
7.3309999 -7.4489999 0.472 2
7.3010001 -7.4229999 0.51300001 2
7.322 -7.4499998 0.50800002 2
7.29 -7.427 0.56400001 2
7.3959999 -7.5250001 0.435 2
7.3099999 -7.4299998 0.49900001 2
7.3720002 -7.5170002 0.505 2
7.3210001 -7.46 0.53500003 2
7.336 -7.4549999 0.47 2
7.3189998 -7.4569998 0.53600001 2
7.4229999 -7.5650001 0.44400001 2
7.3179998 -7.4380002 0.49200001 2
7.3179998 -7.4200001 0.44400001 2
7.3130002 -7.4239998 0.47499999 2
7.3260002 -7.4439998 0.47499999 2
7.4320002 -7.579 0.447 2
7.289 -7.427 0.56599998 2
7.3759999 -7.513 0.479 2
7.4039998 -7.5469999 0.463 2
7.3299999 -7.46 0.50400001 2
7.3730001 -7.4980001 0.44800001 2
7.2930002 -7.4219999 0.53799999 2
7.2740002 -7.4219999 0.60900003 2
7.3600001 -7.5019999 0.50700003 2
7.3330002 -7.4699998 0.51800001 2
7.303 -7.4390001 0.54699999 2
7.3169999 -7.4330001 0.48100001 2
7.276 -7.421 0.60000002 2
7.3109999 -7.4580002 0.56900001 2
7.3769999 -7.5089998 0.465 2
7.3200002 -7.4250002 0.447 2
7.3670001 -7.4889998 0.44400001 2
7.381 -7.5229998 0.484 2
7.3499999 -7.487 0.505 2
7.3730001 -7.5029998 0.46200001 2
7.2969999 -7.4310002 0.55000001 2
7.362 -7.4920001 0.472 2
7.3759999 -7.5100002 0.46700001 2
7.4310002 -7.573 0.43399999 2
7.3260002 -7.4650002 0.53299999 2
7.348 -7.487 0.51099998 2
7.4180002 -7.5580001 0.44299999 2
7.309 -7.4239998 0.48800001 2
7.3109999 -7.4310002 0.5 2
7.3280001 -7.474 0.54900002 2
7.342 -7.4699998 0.48899999 2
7.4320002 -7.5760002 0.44100001 2
7.335 -7.4450002 0.449 2
7.3379998 -7.4559999 0.46599999 2
7.3839998 -7.5300002 0.49200001 2
7.3369999 -7.4450002 0.43900001 2
7.3060002 -7.447 0.55900002 2
7.3309999 -7.4460001 0.465 2
7.3280001 -7.4660001 0.52600002 2
7.3439999 -7.4759998 0.49399999 2
7.336 -7.4520001 0.46200001 2
7.4219999 -7.5619998 0.43700001 2
7.3730001 -7.5009999 0.45500001 2
7.3540001 -7.487 0.49000001 2
7.4330001 -7.5799999 0.44299999 2
7.4239998 -7.5669999 0.44299999 2
7.3790002 -7.5029998 0.44 2
7.3720002 -7.4990001 0.454 2
7.4180002 -7.5580001 0.44100001 2
7.3779998 -7.5009999 0.43900001 2
7.2950001 -7.4299998 0.55299997 2
7.3140001 -7.4489999 0.53200001 2
7.3239999 -7.448 0.495 2
7.3540001 -7.4920001 0.50400001 2
7.329 -7.461 0.51099998 2
7.3060002 -7.421 0.48800001 2
7.3340001 -7.467 0.50800002 2
7.3400002 -7.4590001 0.46399999 2
7.3600001 -7.506 0.51800001 2
7.3439999 -7.4790001 0.50400001 2
7.3330002 -7.461 0.49700001 2
7.4180002 -7.5630002 0.454 2
7.3369999 -7.4499998 0.45199999 2
7.329 -7.4380002 0.45199999 2
7.3249998 -7.4699998 0.54900002 2
7.3670001 -7.4980001 0.47099999 2
7.3730001 -7.4959998 0.44299999 2
7.3249998 -7.461 0.52899998 2
7.3150001 -7.434 0.49200001 2
7.3249998 -7.4520001 0.5 2
7.3439999 -7.4770002 0.49900001 2
7.3990002 -7.5409999 0.46799999 2
7.408 -7.5450001 0.44499999 2
7.323 -7.4710002 0.55699998 2
7.348 -7.4910002 0.52200001 2
7.3709998 -7.506 0.477 2
7.3460002 -7.4559999 0.43799999 2
7.3379998 -7.4619999 0.48100001 2
7.3150001 -7.4460001 0.51999998 2
7.4239998 -7.5640001 0.43599999 2
7.3070002 -7.454 0.57300001 2
7.3189998 -7.4390001 0.49000001 2
7.3530002 -7.5009999 0.52899998 2
7.2969999 -7.4299998 0.54699999 2
7.3179998 -7.4310002 0.47099999 2
7.3730001 -7.507 0.472 2
7.3709998 -7.5170002 0.505 2
7.3429999 -7.4910002 0.537 2
7.3200002 -7.4320002 0.46799999 2
7.3070002 -7.4499998 0.56 2
7.2810001 -7.428 0.60000002 2
7.4180002 -7.5580001 0.44100001 2
7.3150001 -7.4450002 0.51999998 2
7.3330002 -7.441 0.44400001 2
7.316 -7.4650002 0.56699997 2
7.329 -7.4759998 0.551 2
7.3540001 -7.474 0.45199999 2
7.3720002 -7.5029998 0.465 2
7.3530002 -7.4840002 0.484 2
7.3730001 -7.5100002 0.47799999 2
7.388 -7.5339999 0.48800001 2
7.3850002 -7.5170002 0.454 2
7.3309999 -7.4489999 0.47400001 2
7.3000002 -7.4260001 0.52399999 2
7.348 -7.4720001 0.472 2
7.3610001 -7.4829998 0.45199999 2
7.3410001 -7.487 0.53799999 2
7.316 -7.428 0.47099999 2
7.3590002 -7.487 0.46799999 2
7.316 -7.4380002 0.49900001 2
7.3920002 -7.5279999 0.45699999 2
7.349 -7.4819999 0.493 2
7.3829999 -7.5229998 0.47799999 2
7.3699999 -7.5110002 0.49599999 2
7.3579998 -7.474 0.43900001 2
7.3280001 -7.4380002 0.45500001 2
7.355 -7.4920001 0.498 2
7.3309999 -7.4580002 0.49700001 2
7.408 -7.5510001 0.461 2
7.414 -7.559 0.461 2
7.3099999 -7.4239998 0.48300001 2
7.402 -7.546 0.46900001 2
7.3649998 -7.5100002 0.51200002 2
7.4089999 -7.5539999 0.46200001 2
7.289 -7.421 0.55199999 2
7.2859998 -7.428 0.58099997 2
7.3189998 -7.4549999 0.53100002 2
7.3340001 -7.4710002 0.51999998 2
7.3769999 -7.5159998 0.47999999 2
7.329 -7.441 0.458 2
7.302 -7.4499998 0.58200002 2
7.3590002 -7.5 0.50300002 2
7.368 -7.5089998 0.493 2
7.4109998 -7.5539999 0.45699999 2
7.2880001 -7.4289999 0.57700002 2
7.355 -7.487 0.486 2
7.3610001 -7.4990001 0.493 2
7.3260002 -7.4359999 0.45899999 2
7.3660002 -7.4850001 0.44 2
7.3470001 -7.487 0.51200002 2
7.3889999 -7.5180001 0.442 2
7.3000002 -7.4239998 0.51899999 2
7.3249998 -7.4629998 0.53100002 2
7.388 -7.5149999 0.43700001 2
7.3470001 -7.4889998 0.51700002 2
7.3660002 -7.5009999 0.479 2
7.3829999 -7.5149999 0.45699999 2
7.3280001 -7.4450002 0.47299999 2
7.303 -7.4510002 0.57999998 2
7.3449998 -7.4710002 0.479 2
7.4180002 -7.5630002 0.456 2
7.3520002 -7.4770002 0.46900001 2
7.3140001 -7.651 0.64300001 2
7.316 -7.651 0.63999999 2
7.3629999 -7.6849999 0.59100002 2
7.2779999 -7.6199999 0.667 2
7.3699999 -7.691 0.58700001 2
7.3559999 -7.6989999 0.64899999 2
7.3540001 -7.704 0.66799998 2
7.3559999 -7.6859999 0.61400002 2
7.336 -7.6729999 0.639 2
7.3270001 -7.6739998 0.66799998 2
7.3150001 -7.671 0.69300002 2
7.3460002 -7.704 0.69099998 2
7.3280001 -7.6589999 0.625 2
7.3709998 -7.7290001 0.68300003 2
7.3670001 -7.7379999 0.72000003 2
7.3720002 -7.6999998 0.60399997 2
7.3769999 -7.723 0.64899999 2
7.2930002 -7.6290002 0.648 2
7.362 -7.7249999 0.69999999 2
7.3449998 -7.677 0.62 2
7.3379998 -7.6659999 0.616 2
7.3099999 -7.6690001 0.70200002 2
7.3629999 -7.7030001 0.63800001 2
7.3590002 -7.6890001 0.611 2
7.3060002 -7.658 0.68599999 2
7.349 -7.73 0.74900001 2
7.3410001 -7.684 0.65200001 2
7.3540001 -7.6960001 0.64499998 2
7.3379998 -7.7119999 0.73400003 2
7.3309999 -7.6760001 0.662 2
7.3860002 -7.7490001 0.69300002 2
7.3699999 -7.737 0.70499998 2
7.3379998 -7.7119999 0.73400003 2
7.335 -7.697 0.704 2
7.3670001 -7.7249999 0.68599999 2
7.3340001 -7.6890001 0.685 2
7.3839998 -7.7529998 0.708 2
7.323 -7.6760001 0.685 2
7.3260002 -7.684 0.69499999 2
7.3590002 -7.7220001 0.69999999 2
7.3559999 -7.7290001 0.727 2
7.3579998 -7.6919999 0.62400001 2
7.2930002 -7.6399999 0.676 2
7.3449998 -7.6719999 0.61000001 2
7.3639998 -7.7210002 0.68099999 2
7.375 -7.697 0.58899999 2
7.3200002 -7.6560001 0.63999999 2
7.3649998 -7.6919999 0.60399997 2
7.3829999 -7.744 0.68900001 2
7.3670001 -7.6989999 0.61500001 2
7.3499999 -7.7199998 0.72100002 2
7.3109999 -7.6659999 0.69199997 2
7.3649998 -7.7199998 0.67799997 2
7.3790002 -7.7589998 0.73699999 2
7.3470001 -7.698 0.67000002 2
7.3579998 -7.711 0.67199999 2
7.3010001 -7.6440001 0.662 2
7.349 -7.717 0.71700001 2
7.3319998 -7.6719999 0.648 2
7.3779998 -7.7540002 0.72799999 2
7.3730001 -7.711 0.62800002 2
7.3790002 -7.7020001 0.58899999 2
7.3779998 -7.7270002 0.65899998 2
7.3559999 -7.6989999 0.648 2
7.355 -7.7010002 0.65499997 2
7.3709998 -7.7270002 0.67500001 2
7.3270001 -7.6669998 0.64999998 2
7.3740001 -7.7249999 0.662 2
7.368 -7.7360001 0.71100003 2
7.3569999 -7.6929998 0.63 2
7.3340001 -7.6739998 0.64700001 2
7.3239999 -7.6550002 0.62800002 2
7.3410001 -7.7140002 0.73000002 2
7.3049998 -7.6469998 0.66100001 2
7.349 -7.7030001 0.67799997 2
7.3299999 -7.6999998 0.72899997 2
7.3280001 -7.6890001 0.70300001 2
7.3499999 -7.697 0.66100001 2
7.323 -7.6589999 0.63999999 2
7.3829999 -7.7069998 0.59100002 2
7.2859998 -7.625 0.65700001 2
7.3800001 -7.7740002 0.77399999 2
7.302 -7.6360002 0.64300001 2
7.3239999 -7.6750002 0.67900002 2
7.349 -7.6989999 0.67000002 2
7.3610001 -7.7410002 0.74400002 2
7.355 -7.7020001 0.66000003 2
7.3330002 -7.664 0.62300003 2
7.316 -7.664 0.67199999 2
7.3520002 -7.7319999 0.745 2
7.3709998 -7.7119999 0.639 2
7.3709998 -7.756 0.755 2
7.3860002 -7.7179999 0.611 2
7.349 -7.7129998 0.704 2
7.3530002 -7.7350001 0.75099999 2
7.3740001 -7.6929998 0.57999998 2
7.3400002 -7.6919999 0.67400002 2
7.3509998 -7.723 0.72799999 2
7.3559999 -7.6960001 0.63999999 2
7.3239999 -7.6830001 0.70200002 2
7.3410001 -7.7030001 0.70300001 2
7.3299999 -7.665 0.63499999 2
7.329 -7.6919999 0.70899999 2
7.3860002 -7.7160001 0.60699999 2
7.362 -7.6900001 0.60699999 2
7.3249998 -7.6900001 0.71600002 2
7.3520002 -7.7329998 0.74800003 2
7.329 -7.665 0.63700002 2
7.3569999 -7.6900001 0.62 2
7.3730001 -7.7319999 0.685 2
7.3709998 -7.7459998 0.72799999 2
7.336 -7.6690001 0.62900001 2
7.3839998 -7.7059999 0.58499998 2
7.3670001 -7.7129998 0.653 2
7.3319998 -7.6589999 0.61500001 2
7.3280001 -7.6820002 0.68400002 2
7.3379998 -7.6890001 0.67400002 2
7.3530002 -7.7249999 0.72600001 2
7.2919998 -7.6430001 0.68800002 2
7.3540001 -7.723 0.71799999 2
7.3829999 -7.7280002 0.64499998 2
7.3769999 -7.7519999 0.72799999 2
7.3790002 -7.75 0.71399999 2
7.3769999 -7.7129998 0.62599999 2
7.3850002 -7.7519999 0.704 2
7.322 -7.6560001 0.634 2
7.3410001 -7.6849999 0.65600002 2
7.3200002 -7.6500001 0.62599999 2
7.3449998 -7.7049999 0.69599998 2
7.3740001 -7.704 0.60699999 2
7.2950001 -7.6300001 0.64399999 2
7.2969999 -7.6409998 0.66900003 2
7.3200002 -7.677 0.69499999 2
7.355 -7.7020001 0.65899998 2
7.2810001 -7.6230001 0.667 2
7.3390002 -7.697 0.69499999 2
7.3800001 -7.7319999 0.66399997 2
7.322 -7.6830001 0.70300001 2
7.3699999 -7.7509999 0.74400002 2
7.3759999 -7.7399998 0.69700003 2
7.3670001 -7.7410002 0.72600001 2
7.369 -7.7550001 0.75700003 2
7.329 -7.6669998 0.64300001 2
7.335 -7.6830001 0.66600001 2
7.2870002 -7.6329999 0.676 2
7.3520002 -7.6989999 0.66100001 2
7.3600001 -7.698 0.63499999 2
7.3210001 -7.6750002 0.68900001 2
7.368 -7.7020001 0.62099999 2
7.3610001 -7.711 0.66399997 2
7.382 -7.704 0.58700001 2
7.3379998 -7.6750002 0.63700002 2
7.349 -7.7189999 0.72100002 2
7.3730001 -7.7199998 0.65200001 2
7.3449998 -7.7220001 0.741 2
7.3800001 -7.7319999 0.66299999 2
7.3499999 -7.6950002 0.65499997 2
7.342 -7.6859999 0.65600002 2
7.316 -7.6599998 0.662 2
7.3429999 -7.6810002 0.639 2
7.368 -7.6989999 0.61299998 2
7.296 -7.6389999 0.66799998 2
7.3559999 -7.7049999 0.66399997 2
7.2940001 -7.6370001 0.66600001 2
7.2930002 -7.6329999 0.65899998 2
7.3530002 -7.6919999 0.639 2
7.388 -7.7069998 0.574 2
7.3439999 -7.6690001 0.60399997 2
7.3470001 -7.711 0.70599997 2
7.355 -7.7290001 0.73199999 2
7.3800001 -7.7579999 0.73299998 2
7.3520002 -7.7259998 0.72899997 2
7.3099999 -7.645 0.639 2
7.3400002 -7.6999998 0.699 2
7.388 -7.7119999 0.58700001 2
7.3060002 -7.652 0.67299998 2
7.3520002 -7.7049999 0.676 2
7.3759999 -7.7080002 0.61199999 2
7.349 -7.723 0.73299998 2
7.3299999 -7.6999998 0.72600001 2
7.369 -7.723 0.67299998 2
7.303 -7.6570001 0.69199997 2
7.3169999 -7.6589999 0.65799999 2
7.375 -7.698 0.58899999 2
7.3080001 -7.6620002 0.68900001 2
7.3109999 -7.6680002 0.69700003 2
7.348 -7.6929998 0.65600002 2
7.2909999 -7.6290002 0.65499997 2
7.3699999 -7.6900001 0.58399999 2
7.3509998 -7.7290001 0.74199998 2
7.368 -7.7020001 0.62 2
7.3330002 -7.7030001 0.72399998 2
7.3509998 -7.704 0.67500001 2
7.3779998 -7.7340002 0.676 2
7.3270001 -7.664 0.639 2
7.3249998 -7.6929998 0.72299999 2
7.348 -7.7179999 0.722 2
7.323 -7.6890001 0.71899998 2
7.3569999 -7.677 0.57800001 2
7.368 -7.6830001 0.55299997 2
7.3569999 -7.6760001 0.57200003 2
7.3860002 -7.6999998 0.55199999 2
7.3759999 -7.6919999 0.55599999 2
7.3390002 -7.6620002 0.58700001 2
7.3660002 -7.684 0.56900001 2
7.395 -7.704 0.52399999 2
7.4169998 -7.7210002 0.50400001 2
7.3899999 -7.7049999 0.56199998 2
7.2979999 -7.6300001 0.63200003 2
7.395 -7.7059999 0.54000002 2
7.3140001 -7.6440001 0.625 2
7.3210001 -7.6490002 0.61699998 2
7.3639998 -7.6810002 0.56699997 2
7.4299998 -7.73 0.48199999 2
7.3759999 -7.6929998 0.56999999 2
7.3239999 -7.6500001 0.60699999 2
7.395 -7.7049999 0.52700001 2
7.3889999 -7.704 0.56199998 2
7.3470001 -7.6680002 0.57999998 2
7.3839998 -7.6999998 0.56300002 2
7.3759999 -7.6900001 0.54699999 2
7.3959999 -7.7049999 0.52700001 2
7.401 -7.7119999 0.53799999 2
7.3249998 -7.651 0.60299999 2
7.3379998 -7.6630001 0.60699999 2
7.3649998 -7.6849999 0.58099997 2
7.3369999 -7.6609998 0.59600002 2
7.3899999 -7.704 0.55400002 2
7.3769999 -7.6900001 0.54299998 2
7.3930001 -7.704 0.53799999 2
7.336 -7.6589999 0.59500003 2
7.3829999 -7.6960001 0.546 2
7.3379998 -7.6630001 0.60600001 2
7.3920002 -7.7020001 0.53299999 2
7.3530002 -7.6719999 0.56900001 2
7.4070001 -7.7140002 0.51200002 2
7.4060001 -7.7150002 0.528 2
7.4250002 -7.7259998 0.48699999 2
7.4299998 -7.73 0.479 2
7.3629999 -7.6810002 0.57099998 2
7.3889999 -7.6999998 0.53100002 2
7.3179998 -7.6469998 0.62099999 2
7.395 -7.704 0.52999997 2
7.3340001 -7.6570001 0.58999997 2
7.3979998 -7.71 0.55000001 2
7.355 -7.6760001 0.58200002 2
7.388 -7.704 0.56800002 2
7.3610001 -7.573 0.35800001 2
7.3699999 -7.5679998 0.34200001 2
7.3249998 -7.52 0.347 2
7.3309999 -7.533 0.35299999 2
7.3369999 -7.5289998 0.34200001 2
7.369 -7.5770001 0.352 2
7.3429999 -7.5370002 0.34299999 2
7.3730001 -7.5890002 0.36000001 2
7.348 -7.5469999 0.347 2
7.3530002 -7.5570002 0.352 2
7.3720002 -7.5689998 0.34 2
7.3520002 -7.5469999 0.34299999 2
7.3699999 -7.5830002 0.35800001 2
7.3720002 -7.5840001 0.35600001 2
7.3499999 -7.5489998 0.34599999 2
7.3730001 -7.5630002 0.33199999 2
7.3699999 -7.579 0.35299999 2
7.349 -7.5560002 0.35499999 2
7.427 -7.6009998 0.52499998 2
7.3200002 -7.4759998 0.58399999 2
7.4070001 -7.5840001 0.54900002 2
7.4190001 -7.6069999 0.56800002 2
7.401 -7.5549998 0.495 2
7.3610001 -7.5250001 0.56300002 2
7.4439998 -7.6100001 0.48300001 2
7.4099998 -7.5970001 0.574 2
7.2750001 -7.4239998 0.61000001 2
7.3460002 -7.5009999 0.55500001 2
7.4099998 -7.573 0.509 2
7.3800001 -7.5320001 0.514 2
7.3169999 -7.4710002 0.583 2
7.3210001 -7.4840002 0.602 2
7.3590002 -7.513 0.53899997 2
7.381 -7.5479999 0.55000001 2
7.4289999 -7.612 0.54299998 2
7.4159999 -7.585 0.51899999 2
7.348 -7.5139999 0.58200002 2
7.414 -7.5739999 0.498 2
7.3460002 -7.4949999 0.54000002 2
7.3649998 -7.5380001 0.58200002 2
7.3449998 -7.5170002 0.59899998 2
7.3740001 -7.5250001 0.51499999 2
7.427 -7.6199999 0.57300001 2
7.348 -7.5120001 0.57800001 2
7.3839998 -7.5479999 0.53799999 2
7.3070002 -7.461 0.59200001 2
7.4000001 -7.553 0.495 2
7.4029999 -7.5780001 0.551 2
7.322 -7.4819999 0.59100002 2
7.3940001 -7.5819998 0.59100002 2
7.4180002 -7.5739999 0.48300001 2
7.3979998 -7.5489998 0.493 2
7.4359999 -7.6209998 0.54000002 2
7.3920002 -7.5700002 0.56599998 2
7.3850002 -7.559 0.56400001 2
7.4099998 -7.5879998 0.55000001 2
7.3660002 -7.5419998 0.588 2
7.3979998 -7.5580001 0.51599997 2
7.4299998 -7.5999999 0.50700003 2
7.415 -7.5879998 0.53100002 2
7.375 -7.533 0.53399998 2
7.4039998 -7.559 0.495 2
7.4359999 -7.6020002 0.49000001 2
7.3959999 -7.5669999 0.54799998 2
7.368 -7.5450001 0.58999997 2
7.4000001 -7.5570002 0.505 2
7.4400001 -7.5910001 0.44999999 2
7.4330001 -7.592 0.47499999 2
7.4089999 -7.5819998 0.53600001 2
7.3670001 -7.533 0.56199998 2
7.3449998 -7.4949999 0.542 2
7.4310002 -7.5929999 0.486 2
7.3959999 -7.5479999 0.49700001 2
7.4260001 -7.599 0.52100003 2
7.408 -7.5619998 0.486 2
7.4330001 -7.5809999 0.44999999 2
7.4250002 -7.619 0.574 2
7.3670001 -7.5289998 0.55299997 2
7.3109999 -7.4640002 0.58499998 2
7.381 -7.5359998 0.51899999 2
7.3439999 -7.5100002 0.588 2
7.4169998 -7.5970001 0.54699999 2
7.4310002 -7.5999999 0.505 2
7.4089999 -7.566 0.49599999 2
7.3720002 -7.5469999 0.579 2
7.3860002 -7.572 0.59399998 2
7.3309999 -7.4809999 0.55800003 2
7.408 -7.5749998 0.523 2
7.4359999 -7.6279998 0.55900002 2
7.4159999 -7.5929999 0.54299998 2
7.3709998 -7.552 0.59500003 2
7.3509998 -7.5 0.53299999 2
7.388 -7.5710001 0.58600003 2
7.4229999 -7.5819998 0.48800001 2
7.408 -7.5840001 0.546 2
7.402 -7.5510001 0.48300001 2
7.4060001 -7.592 0.57599998 2
7.4359999 -7.585 0.447 2
7.3850002 -7.5539999 0.55000001 2
7.4190001 -7.5799999 0.498 2
7.3319998 -7.487 0.56800002 2
7.3499999 -7.5219998 0.59500003 2
7.3270001 -7.4770002 0.56099999 2
7.4120002 -7.5929999 0.55800003 2
7.4229999 -7.605 0.54799998 2
7.3460002 -7.4970002 0.54400003 2
7.3499999 -7.5100002 0.56300002 2
7.4060001 -7.5910001 0.57200003 2
7.414 -7.5879998 0.53399998 2
7.369 -7.5409999 0.57700002 2
7.3429999 -7.4910002 0.54100001 2
7.362 -7.5139999 0.53100002 2
7.323 -7.4790001 0.57800001 2
7.4060001 -7.5929999 0.57800001 2
7.2820001 -7.4330001 0.60900003 2
7.4330001 -7.5869999 0.46399999 2
7.4050002 -7.5710001 0.52499998 2
7.4060001 -7.586 0.55900002 2
7.3239999 -7.4829998 0.58399999 2
7.3169999 -7.467 0.57200003 2
7.3150001 -7.4759998 0.60100001 2
7.408 -7.566 0.49900001 2
7.4219999 -7.586 0.50199997 2
7.434 -7.6240001 0.55900002 2
7.2930002 -7.4419999 0.59200001 2
7.4460001 -7.6110001 0.47999999 2
7.3969998 -7.5749998 0.56300002 2
7.3850002 -7.5640001 0.579 2
7.3280001 -7.4879999 0.58499998 2
7.3670001 -7.5339999 0.56300002 2
7.4260001 -7.5949998 0.50700003 2
7.3600001 -7.5320001 0.58600003 2
7.395 -7.559 0.53100002 2
7.3200002 -7.4819999 0.59799999 2
7.4239998 -7.5799999 0.47999999 2
7.3449998 -7.513 0.58899999 2
7.4109998 -7.598 0.57200003 2
7.4169998 -7.5939999 0.54100001 2
7.3639998 -7.513 0.51999998 2
7.4039998 -7.559 0.49599999 2
7.3670001 -7.5180001 0.52100003 2
7.3790002 -7.5489998 0.56099999 2
7.4089999 -7.5609999 0.48199999 2
7.3990002 -7.5679998 0.53600001 2
7.3429999 -7.5079999 0.583 2
7.3400002 -7.4959998 0.56199998 2
7.4359999 -7.6139998 0.52200001 2
7.3909998 -7.5710001 0.57599998 2
7.355 -7.5219998 0.57800001 2
7.4239998 -7.6160002 0.574 2
7.4369998 -7.5939999 0.46700001 2
7.434 -7.6079998 0.51599997 2
7.29 -7.441 0.60100001 2
7.4320002 -7.5809999 0.45199999 2
7.4070001 -7.5679998 0.50700003 2
7.3709998 -7.5240002 0.523 2
7.2849998 -7.4369998 0.60799998 2
7.3959999 -7.5840001 0.59200001 2
7.322 -7.4829998 0.59600002 2
7.3569999 -7.5250001 0.579 2
7.3309999 -7.4899998 0.57800001 2
7.3769999 -7.5450001 0.55800003 2
7.3930001 -7.5669999 0.55500001 2
7.4190001 -7.6100001 0.57499999 2
7.402 -7.5549998 0.49399999 2
7.3649998 -7.5430002 0.59500003 2
7.3860002 -7.5409999 0.51499999 2
7.2979999 -7.448 0.58999997 2
7.3940001 -7.5710001 0.565 2
7.3639998 -7.5170002 0.53299999 2
7.4200001 -7.6110001 0.57499999 2
7.348 -7.5159998 0.58700001 2
7.3590002 -7.526 0.57300001 2
7.3670001 -7.5190001 0.52700001 2
7.4120002 -7.6059999 0.588 2
7.4219999 -7.6040001 0.55000001 2
7.4250002 -7.612 0.55900002 2
7.3249998 -7.4780002 0.57300001 2
7.3060002 -7.4580002 0.58499998 2
7.3319998 -7.4910002 0.579 2
7.3530002 -7.5079999 0.546 2
7.3379998 -7.506 0.59399998 2
7.4229999 -7.5819998 0.486 2
7.3400002 -7.4959998 0.56400001 2
7.3390002 -7.4920001 0.55800003 2
7.3930001 -7.5419998 0.49000001 2
7.355 -7.5050001 0.53100002 2
7.4000001 -7.5689998 0.53399998 2
7.3239999 -7.4780002 0.57200003 2
7.428 -7.5780001 0.45699999 2
7.3730001 -7.5479999 0.58099997 2
7.3979998 -7.5469999 0.486 2
7.414 -7.5890002 0.54000002 2
7.4320002 -7.6240001 0.56400001 2
7.349 -7.5209999 0.59299999 2
7.4169998 -7.5939999 0.54000002 2
7.4349999 -7.6209998 0.54699999 2
7.3400002 -7.5029998 0.58099997 2
7.388 -7.5440001 0.51599997 2
7.303 -7.4619999 0.60699999 2
7.4390001 -7.6139998 0.51200002 2
7.4229999 -7.5890002 0.505 2
7.3369999 -7.5040002 0.59500003 2
7.4310002 -7.6269999 0.57499999 2
7.415 -7.5869999 0.53100002 2
7.3790002 -7.5339999 0.52200001 2
7.4439998 -7.598 0.454 2
7.3920002 -7.5710001 0.56900001 2
7.362 -7.5359998 0.58700001 2
7.3790002 -7.5450001 0.551 2
7.335 -7.4980001 0.58600003 2
7.3569999 -7.5170002 0.55500001 2
7.3579998 -7.5180001 0.55400002 2
7.3210001 -7.4829998 0.60000002 2
7.4169998 -7.5739999 0.48699999 2
7.4310002 -7.6290002 0.57999998 2
7.408 -7.5679998 0.50400001 2
7.434 -7.5869999 0.46000001 2
7.3520002 -7.5079999 0.55000001 2
7.3909998 -7.5560002 0.53600001 2
7.3909998 -7.5650001 0.55900002 2
7.3499999 -7.5240002 0.59899998 2
7.441 -7.5890002 0.442 2
7.3649998 -7.526 0.54900002 2
7.4180002 -7.585 0.51499999 2
7.4219999 -7.585 0.49900001 2
7.4000001 -7.5669999 0.53100002 2
7.3600001 -7.5100002 0.52899998 2
7.4190001 -7.5799999 0.498 2
7.3909998 -7.5679998 0.565 2
7.3699999 -7.539 0.56699997 2
7.4299998 -7.625 0.57300001 2
7.3839998 -7.5450001 0.53200001 2
7.3850002 -7.5689998 0.58999997 2
7.4239998 -7.6090002 0.55299997 2
7.381 -7.5619998 0.58899999 2
7.4400001 -7.5910001 0.45100001 2
7.4320002 -7.5840001 0.461 2
7.4219999 -7.5869999 0.50199997 2
7.3800001 -7.5370002 0.52399999 2
7.395 -7.5689998 0.55299997 2
7.3889999 -7.2589998 0.44299999 2
7.4099998 -7.323 0.43900001 2
7.3590002 -7.263 0.44100001 2
7.3509998 -7.3270001 0.43599999 2
7.303 -7.336 0.43200001 2
7.4879999 -7.217 0.45100001 2
7.52 -7.211 0.45300001 2
7.3829999 -7.368 0.435 2
7.4130001 -7.296 0.44100001 2
7.4089999 -7.2750001 0.44299999 2
7.3189998 -7.3530002 0.43200001 2
7.4089999 -7.29 0.442 2
7.4549999 -7.2579999 0.44600001 2
7.2969999 -7.3340001 0.43200001 2
7.349 -7.3649998 0.433 2
7.428 -7.3239999 0.44 2
7.3660002 -7.2750001 0.44 2
7.3239999 -7.302 0.43599999 2
7.4099998 -7.2950001 0.44100001 2
7.4710002 -7.276 0.44600001 2
7.3850002 -7.3270001 0.43799999 2
7.3569999 -7.2909999 0.43900001 2
7.4400001 -7.2420001 0.447 2
7.4679999 -7.244 0.44800001 2
7.355 -7.3400002 0.435 2
7.3610001 -7.3299999 0.43599999 2
7.507 -7.237 0.45100001 2
7.414 -7.3049998 0.44100001 2
7.4429998 -7.29 0.44299999 2
7.2989998 -7.2849998 0.43599999 2
7.4829998 -7.2280002 0.44999999 2
7.3790002 -7.3439999 0.43599999 2
7.329 -7.323 0.435 2
7.4510002 -7.2410002 0.447 2
7.4200001 -7.3010001 0.44100001 2
7.3610001 -7.2800002 0.44 2
7.4359999 -7.2880001 0.44299999 2
7.414 -7.3169999 0.44 2
7.3369999 -7.3579998 0.433 2
7.2849998 -7.3119998 0.433 2
7.3889999 -7.243 0.44400001 2
7.4660001 -7.2579999 0.447 2
7.4640002 -7.2620001 0.447 2
7.3779998 -7.2989998 0.43900001 2
7.2789998 -7.3000002 0.43399999 2
7.3720002 -7.336 0.43599999 2
7.5240002 -7.2020001 0.454 2
7.348 -7.3410001 0.435 2
7.309 -7.3429999 0.43200001 2
7.3200002 -7.3509998 0.43200001 2
7.2919998 -7.309 0.43399999 2
7.4790001 -7.2420001 0.449 2
7.3150001 -7.3189998 0.43399999 2
7.5219998 -7.2080002 0.454 2
7.3369999 -7.3340001 0.43399999 2
7.3150001 -7.3499999 0.43200001 2
7.2729998 -7.2950001 0.43399999 2
7.5159998 -7.1919999 0.454 2
7.3429999 -7.362 0.433 2
7.467 -7.277 0.44600001 2
7.4829998 -7.237 0.449 2
7.4190001 -7.2969999 0.442 2
7.4590001 -7.2800002 0.44499999 2
7.4489999 -7.2199998 0.449 2
7.3039999 -7.3200002 0.43399999 2
7.302 -7.2789998 0.43599999 2
7.3509998 -7.3730001 0.43200001 2
7.4299998 -7.2529998 0.44499999 2
7.5159998 -7.2129998 0.45300001 2
7.402 -7.3270001 0.43900001 2
7.2620001 -7.2950001 0.433 2
7.4780002 -7.223 0.44999999 2
7.4320002 -7.2989998 0.442 2
7.46 -7.2579999 0.447 2
7.349 -7.3730001 0.43200001 2
7.526 -7.2129998 0.454 2
7.401 -7.244 0.44400001 2
7.5139999 -7.217 0.45300001 2
7.48 -7.2249999 0.44999999 2
7.4650002 -7.2459998 0.44800001 2
7.3990002 -7.3280001 0.43799999 2
7.4039998 -7.2550001 0.44400001 2
7.4980001 -7.2399998 0.44999999 2
7.4580002 -7.224 0.449 2
7.3889999 -7.2610002 0.44299999 2
7.4429998 -7.2389998 0.447 2
7.4250002 -7.3060002 0.44100001 2
7.4990001 -7.2189999 0.45199999 2
7.3579998 -7.369 0.433 2
7.4790001 -7.2189999 0.44999999 2
7.3379998 -7.3559999 0.433 2
7.3610001 -7.2529998 0.442 2
7.3610001 -7.2789998 0.44 2
7.316 -7.309 0.435 2
7.3520002 -7.2750001 0.43900001 2
7.5570002 -7.1729999 0.458 2
7.48 -7.2189999 0.45100001 2
7.3260002 -7.2719998 0.43799999 2
7.3169999 -7.2789998 0.43700001 2
7.3779998 -7.3369999 0.43599999 2
7.2750001 -7.2880001 0.43399999 2
7.3340001 -7.323 0.435 2
7.3239999 -7.3060002 0.43599999 2
7.3889999 -7.2670002 0.442 2
7.3000002 -7.3179998 0.43399999 2
7.5050001 -7.2210002 0.45199999 2
7.3889999 -7.3410001 0.43700001 2
7.3590002 -7.2909999 0.43900001 2
7.4060001 -7.2779999 0.442 2
7.3530002 -7.3759999 0.43200001 2
7.2849998 -7.2950001 0.43399999 2
7.3540001 -7.3509998 0.43399999 2
7.5050001 -7.1989999 0.45300001 2
7.5209999 -7.1950002 0.454 2
7.402 -7.2690001 0.44299999 2
7.5 -7.2150002 0.45199999 2
7.3509998 -7.3670001 0.433 2
7.3400002 -7.3010001 0.43700001 2
7.4640002 -7.2680001 0.44600001 2
7.2859998 -7.3179998 0.433 2
7.3829999 -7.3460002 0.43599999 2
7.4229999 -7.3000002 0.442 2
7.3730001 -7.277 0.44 2
7.329 -7.2719998 0.43799999 2
7.3559999 -7.2659998 0.44 2
7.4200001 -7.289 0.442 2
7.3839998 -7.2729998 0.44100001 2
7.5170002 -7.2080002 0.45300001 2
7.3260002 -7.2849998 0.43700001 2
7.5040002 -7.2220001 0.45199999 2
7.5029998 -7.23 0.45100001 2
7.5229998 -7.2059999 0.454 2
7.2849998 -7.2930002 0.43399999 2
7.2870002 -7.3130002 0.433 2
7.3060002 -7.323 0.43399999 2
7.4169998 -7.257 0.44400001 2
7.4219999 -7.2789998 0.44299999 2
7.4879999 -7.2459998 0.449 2
7.4260001 -7.2340002 0.44600001 2
7.4190001 -7.289 0.442 2
7.3400002 -7.3260002 0.435 2
7.3509998 -7.2940001 0.43799999 2
7.4759998 -7.244 0.44800001 2
7.5289998 -7.1859999 0.456 2
7.4770002 -7.2249999 0.44999999 2
7.4499998 -7.2319999 0.44800001 2
7.4660001 -7.211 0.44999999 2
7.3990002 -7.25 0.44400001 2
7.323 -7.3439999 0.433 2
7.448 -7.2589998 0.44600001 2
7.4840002 -7.2160001 0.45100001 2
7.2870002 -7.2919998 0.435 2
7.4770002 -7.2119999 0.45100001 2
7.401 -7.2940001 0.44100001 2
7.382 -7.3119998 0.43799999 2
7.3639998 -7.2589998 0.44100001 2
7.3449998 -7.2719998 0.43900001 2
7.3600001 -7.3319998 0.43599999 2
7.441 -7.2930002 0.44299999 2
7.348 -7.2859998 0.43799999 2
7.4099998 -7.3119998 0.44 2
7.4640002 -7.2459998 0.44800001 2
7.3330002 -7.2740002 0.43799999 2
7.348 -7.2940001 0.43799999 2
7.2969999 -7.3080001 0.43399999 2
7.402 -7.2859998 0.44100001 2
7.3540001 -7.283 0.43900001 2
7.48 -7.2379999 0.449 2
7.4369998 -7.2319999 0.447 2
7.3520002 -7.2839999 0.43900001 2
7.4289999 -7.244 0.44600001 2
7.4180002 -7.3280001 0.43900001 2
7.421 -7.2940001 0.442 2
7.3649998 -7.3319998 0.43599999 2
7.2550001 -7.2950001 0.433 2
7.329 -7.2810001 0.43799999 2
7.3759999 -7.3790002 0.433 2
7.3330002 -7.263 0.43900001 2
