# .PCD v0.7 - Point Cloud Data file format
VERSION 0.7
FIELDS x y z label
SIZE 4 4 4 4
TYPE F F F U
COUNT 1 1 1 1
WIDTH 1534
HEIGHT 1
VIEWPOINT 0 0 0 1 0 0 0
POINTS 1534
DATA ascii
8.5869999 -7.2290001 0.42199999 2
8.6379995 -7.243 0.45500001 2
8.5710001 -7.2470002 0.43900001 2
8.5749998 -7.2329998 0.42399999 2
8.6280003 -7.2379999 0.44600001 2
8.5930004 -7.2210002 0.41499999 2
8.599 -7.2360001 0.435 2
8.5979996 -7.2379999 0.43700001 2
8.585 -7.2220001 0.412 2
8.2810001 -7.533 0.417 2
8.2729998 -7.566 0.40000001 2
8.2810001 -7.5890002 0.40099999 2
8.2729998 -7.5539999 0.403 2
8.3059998 -7.573 0.43099999 2
8.2720003 -7.553 0.403 2
8.2989998 -7.5479999 0.43099999 2
8.2910004 -7.559 0.41999999 2
8.3030005 -7.5640001 0.43099999 2
8.2869997 -7.5500002 0.419 2
8.2840004 -7.5570002 0.414 2
8.2709999 -7.5580001 0.40000001 2
8.2650003 -7.5300002 0.40200001 2
8.3190002 -7.5630002 0.447 2
8.2770004 -7.5370002 0.412 2
8.2840004 -7.5869999 0.405 2
8.2659998 -7.5250001 0.405 2
8.2790003 -7.5489998 0.41 2
8.3149996 -7.5650001 0.44299999 2
8.2910004 -7.5840001 0.41299999 2
8.2910004 -7.5640001 0.41800001 2
8.3000002 -7.5580001 0.43000001 2
8.2919998 -7.5440001 0.42500001 2
8.29 -7.5510001 0.421 2
8.3109999 -7.572 0.43599999 2
8.3079996 -7.5679998 0.43399999 2
8.2969999 -7.5469999 0.43000001 2
8.2919998 -7.5489998 0.42300001 2
8.3219995 -7.572 0.447 2
8.3009996 -7.559 0.43000001 2
8.2919998 -7.585 0.41299999 2
8.3070002 -7.579 0.43000001 2
8.2819996 -7.5500002 0.414 2
8.2930002 -7.5770001 0.417 2
8.2950001 -7.5110002 0.45100001 2
8.2670002 -7.487 0.43200001 2
8.2550001 -7.5079999 0.40000001 2
8.2589998 -7.4980001 0.414 2
8.2950001 -7.5100002 0.45199999 2
8.2749996 -7.4889998 0.44100001 2
8.2620001 -7.4619999 0.44400001 2
8.276 -7.507 0.43000001 2
8.2639999 -7.4959998 0.421 2
8.2939997 -7.5300002 0.43599999 2
8.2819996 -7.5219998 0.42500001 2
8.302 -7.5180001 0.456 2
8.2849998 -7.52 0.43200001 2
8.2790003 -7.5120001 0.42899999 2
8.2980003 -7.5110002 0.456 2
8.2589998 -7.4429998 0.454 2
8.2720003 -7.5180001 0.41499999 2
8.3140001 -7.5430002 0.454 2
8.2600002 -7.4809999 0.42699999 2
8.2849998 -7.4970002 0.44800001 2
8.309 -7.5489998 0.442 2
8.2919998 -7.5229998 0.43900001 2
8.2659998 -7.4920001 0.42699999 2
8.2670002 -7.5100002 0.41499999 2
8.2609997 -7.513 0.40400001 2
8.29 -7.5250001 0.43399999 2
8.2919998 -7.527 0.43599999 2
8.2810001 -7.4860001 0.45100001 2
8.3039999 -7.5209999 0.456 2
8.2779999 -7.493 0.442 2
8.3120003 -7.5430002 0.45100001 2
8.3179998 -7.5479999 0.45500001 2
8.2989998 -7.5419998 0.43399999 2
8.2720003 -7.4990001 0.43000001 2
8.2950001 -7.5050001 0.456 2
8.2530003 -7.46 0.433 2
8.2519999 -7.4879999 0.41100001 2
8.2849998 -7.5009999 0.44600001 2
8.2880001 -7.5209999 0.43399999 2
8.2950001 -7.5229998 0.44299999 2
8.3009996 -7.5219998 0.45199999 2
8.2749996 -7.4899998 0.44 2
8.3039999 -7.5250001 0.454 2
8.2950001 -7.5139999 0.44999999 2
8.2779999 -7.4829998 0.449 2
8.2650003 -7.473 0.44 2
8.2550001 -7.4949999 0.41 2
8.2600002 -7.4829998 0.426 2
8.3079996 -7.5349998 0.45100001 2
8.276 -7.5219998 0.417 2
8.2869997 -7.527 0.428 2
8.3100004 -7.5380001 0.45199999 2
8.2600002 -7.448 0.45199999 2
8.2679996 -7.4590001 0.45500001 2
8.2639999 -7.5040002 0.41499999 2
8.3109999 -7.5489998 0.44499999 2
8.2729998 -7.4879999 0.43799999 2
8.2639999 -7.4530001 0.454 2
8.3070002 -7.5489998 0.43900001 2
8.2969999 -7.513 0.45300001 2
8.2770004 -7.5159998 0.42300001 2
8.3000002 -7.6230001 0.40799999 2
8.3439999 -7.6989999 0.42300001 2
8.3660002 -7.7350001 0.43099999 2
8.3529997 -7.71 0.426 2
8.3389997 -7.6789999 0.42199999 2
8.3310003 -7.7030001 0.41499999 2
8.3260002 -7.678 0.41499999 2
8.3140001 -7.677 0.40900001 2
8.3059998 -7.6430001 0.40900001 2
8.3210001 -7.6700001 0.414 2
8.316 -7.665 0.412 2
8.316 -7.7020001 0.40799999 2
8.382 -7.7350001 0.43900001 2
8.3310003 -7.7049999 0.41499999 2
8.3219995 -7.658 0.41600001 2
8.3330002 -7.6700001 0.41999999 2
8.3699999 -7.737 0.43200001 2
8.316 -7.698 0.40799999 2
8.3170004 -7.6420002 0.414 2
8.3129997 -7.6459999 0.412 2
8.3940001 -7.75 0.44400001 2
8.2919998 -7.6199999 0.40400001 2
8.3100004 -7.6859999 0.40599999 2
8.349 -7.7119999 0.42399999 2
8.3520002 -7.6989999 0.42699999 2
8.3500004 -7.697 0.426 2
8.3590002 -7.7270002 0.428 2
8.302 -7.6550002 0.40599999 2
8.3240004 -7.6630001 0.41600001 2
8.3369999 -7.7069998 0.419 2
8.3699999 -7.7379999 0.433 2
8.3339996 -7.71 0.41600001 2
8.349 -7.7020001 0.42500001 2
8.3409996 -7.691 0.42199999 2
8.3039999 -7.6729999 0.40400001 2
8.302 -7.6550002 0.40599999 2
8.323 -7.6539998 0.41600001 2
8.3459997 -7.6890001 0.42500001 2
8.3009996 -7.6399999 0.40700001 2
8.3059998 -7.658 0.40700001 2
8.3839998 -7.737 0.44 2
8.3199997 -7.6760001 0.41299999 2
8.2950001 -7.625 0.405 2
8.2869997 -7.6110001 0.40200001 2
8.2980003 -7.6170001 0.40700001 2
8.3529997 -7.7270002 0.42500001 2
8.3809996 -7.7249999 0.442 2
8.316 -7.6220002 0.42199999 2
8.3540001 -7.678 0.435 2
8.3190002 -7.6040001 0.43200001 2
8.3369999 -7.5929999 0.45300001 2
8.3290005 -7.6300001 0.43099999 2
8.3369999 -7.6030002 0.449 2
8.3409996 -7.5999999 0.45300001 2
8.3199997 -7.6399999 0.419 2
8.3529997 -7.6890001 0.42899999 2
8.3400002 -7.6220002 0.44400001 2
8.3739996 -7.6849999 0.45100001 2
8.3000002 -7.5939999 0.41800001 2
8.3909998 -7.7280002 0.44999999 2
8.3249998 -7.6350002 0.42500001 2
8.3210001 -7.638 0.41999999 2
8.3179998 -7.6079998 0.42899999 2
8.3520002 -7.6290002 0.45199999 2
8.3839998 -7.71 0.44999999 2
8.3310003 -7.6570001 0.42199999 2
8.3570004 -7.6370001 0.454 2
8.3260002 -7.5819998 0.447 2
8.3129997 -7.5879998 0.433 2
8.3470001 -7.6599998 0.435 2
8.3500004 -7.638 0.447 2
8.3629999 -7.6849999 0.44100001 2
8.382 -7.7069998 0.449 2
8.3079996 -7.6020002 0.42199999 2
8.3170004 -7.631 0.419 2
8.3660002 -7.664 0.45199999 2
8.3459997 -7.6149998 0.45300001 2
8.3450003 -7.6199999 0.44999999 2
8.3219995 -7.586 0.44100001 2
8.3710003 -7.711 0.43700001 2
8.3520002 -7.6659999 0.43799999 2
8.3470001 -7.6719999 0.43000001 2
8.3430004 -7.651 0.43599999 2
8.3269997 -7.5879998 0.44600001 2
8.3780003 -7.7259998 0.43799999 2
8.3459997 -7.6220002 0.44999999 2
8.3879995 -7.7340002 0.44400001 2
8.3269997 -7.5760002 0.44999999 2
8.3579998 -7.6929998 0.433 2
8.283 -7.592 0.403 2
8.3280001 -7.6170001 0.435 2
8.3280001 -7.598 0.44299999 2
8.368 -7.7059999 0.43700001 2
8.3520002 -7.6230001 0.45500001 2
8.3579998 -7.6430001 0.45199999 2
8.3479996 -7.684 0.42699999 2
8.3540001 -7.6500001 0.44600001 2
8.3210001 -7.6100001 0.43099999 2
8.3100004 -7.6259999 0.414 2
8.3280001 -7.631 0.42899999 2
8.3369999 -7.6690001 0.42300001 2
8.3079996 -7.5910001 0.42699999 2
8.3170004 -7.5960002 0.433 2
8.3990002 -7.75 0.44800001 2
8.335 -7.6589999 0.42500001 2
8.401 -7.756 0.44800001 2
8.2959995 -7.5879998 0.417 2
8.3579998 -7.6799998 0.43799999 2
8.3610001 -7.6659999 0.447 2
8.3459997 -7.6599998 0.435 2
8.3210001 -7.6389999 0.41999999 2
8.3559999 -7.6950002 0.43000001 2
8.3649998 -7.6719999 0.447 2
8.335 -7.5949998 0.45100001 2
8.3400002 -7.6440001 0.435 2
8.3149996 -7.5929999 0.43200001 2
8.3109999 -7.6230001 0.417 2
8.3269997 -7.586 0.447 2
8.3190002 -7.6170001 0.42699999 2
8.3719997 -7.6859999 0.44800001 2
8.2980003 -7.5929999 0.41600001 2
8.3479996 -7.6399999 0.44499999 2
8.3590002 -7.6869998 0.43599999 2
8.3290005 -7.6430001 0.42500001 2
8.335 -7.6440001 0.43099999 2
8.3330002 -7.6620002 0.42199999 2
8.3450003 -7.6350002 0.44400001 2
8.3299999 -7.5739999 0.454 2
8.316 -7.3579998 0.44 2
8.3109999 -7.3709998 0.44400001 2
8.2919998 -7.3940001 0.45100001 2
8.2609997 -7.3800001 0.44 2
8.3400002 -7.3649998 0.447 2
8.2639999 -7.388 0.44400001 2
8.3000002 -7.3540001 0.435 2
8.2749996 -7.3790002 0.442 2
8.3739996 -7.3559999 0.449 2
8.3319998 -7.368 0.447 2
8.3500004 -7.3530002 0.44400001 2
8.283 -7.3920002 0.449 2
8.4069996 -7.3390002 0.44800001 2
8.2729998 -7.3610001 0.43399999 2
8.3070002 -7.3629999 0.44 2
8.323 -7.382 0.45100001 2
8.3030005 -7.375 0.44499999 2
8.309 -7.3730001 0.44499999 2
8.2670002 -7.3569999 0.43099999 2
8.3909998 -7.3470001 0.449 2
8.3640003 -7.349 0.44499999 2
8.2700005 -7.3899999 0.44499999 2
8.3140001 -7.3759999 0.447 2
8.3400002 -7.3610001 0.44499999 2
8.2539997 -7.3920002 0.44400001 2
8.349 -7.3509998 0.44299999 2
8.3290005 -7.3639998 0.44499999 2
8.2869997 -7.3839998 0.44600001 2
8.2930002 -7.3940001 0.45100001 2
8.2609997 -7.3629999 0.433 2
8.2779999 -7.3610001 0.435 2
8.3620005 -7.3660002 0.45100001 2
8.3079996 -7.3610001 0.44 2
8.3070002 -7.3790002 0.447 2
8.349 -7.3730001 0.45199999 2
8.2609997 -7.4089999 0.45199999 2
8.3800001 -7.3569999 0.45100001 2
8.2790003 -7.368 0.43799999 2
8.2849998 -7.3569999 0.43399999 2
8.3360004 -7.3590002 0.44400001 2
8.3629999 -7.3660002 0.45100001 2
8.368 -7.3460002 0.44400001 2
8.342 -7.3569999 0.44400001 2
8.2679996 -7.402 0.44999999 2
8.2810001 -7.3569999 0.43399999 2
8.2790003 -7.3779998 0.442 2
8.302 -7.3790002 0.44600001 2
8.3140001 -7.3540001 0.43799999 2
8.3299999 -7.369 0.447 2
8.3000002 -7.3940001 0.45199999 2
8.2679996 -7.3639998 0.435 2
8.2679996 -7.4060001 0.45199999 2
8.2670002 -7.3800001 0.44100001 2
8.3100004 -7.3610001 0.44 2
8.3479996 -7.3590002 0.44600001 2
8.3120003 -7.3629999 0.442 2
8.2819996 -7.3850002 0.44499999 2
8.3459997 -7.3649998 0.44800001 2
8.3199997 -7.3839998 0.45100001 2
8.2510004 -7.3889999 0.442 2
8.2539997 -7.3779998 0.43700001 2
8.3590002 -7.3540001 0.44600001 2
8.3520002 -7.3569999 0.44600001 2
8.3120003 -7.3610001 0.44100001 2
8.2539997 -7.4159999 0.454 2
8.3739996 -7.4499998 0.45300001 2
8.323 -7.4460001 0.45500001 2
8.4099998 -7.3639998 0.44999999 2
8.342 -7.4530001 0.454 2
8.3459997 -7.4860001 0.45500001 2
8.323 -7.4949999 0.456 2
8.3179998 -7.4359999 0.45500001 2
8.4069996 -7.3649998 0.45100001 2
8.2930002 -7.474 0.456 2
8.2869997 -7.4239998 0.45500001 2
8.2930002 -7.493 0.45699999 2
8.302 -7.434 0.45500001 2
8.3249998 -7.5419998 0.45699999 2
8.3549995 -7.4770002 0.45500001 2
8.309 -7.4219999 0.45500001 2
8.2889996 -7.408 0.45500001 2
8.3339996 -7.5250001 0.456 2
8.3299999 -7.4879999 0.456 2
8.323 -7.4130001 0.454 2
8.2919998 -7.4229999 0.45500001 2
8.3319998 -7.3899999 0.45300001 2
8.3199997 -7.415 0.454 2
8.3439999 -7.4590001 0.45500001 2
8.368 -7.4250002 0.45300001 2
8.3079996 -7.4510002 0.45500001 2
8.2880001 -7.454 0.456 2
8.3170004 -7.4679999 0.45500001 2
8.3100004 -7.4819999 0.456 2
8.3369999 -7.4450002 0.454 2
8.2860003 -7.454 0.456 2
8.3979998 -7.3899999 0.45100001 2
8.3280001 -7.526 0.45699999 2
8.3199997 -7.5279999 0.45699999 2
8.2910004 -7.4320002 0.45500001 2
8.3629999 -7.4439998 0.454 2
8.3400002 -7.5 0.456 2
8.3380003 -7.5310001 0.456 2
8.3400002 -7.5300002 0.456 2
8.3400002 -7.4190001 0.454 2
8.3079996 -7.4689999 0.456 2
8.3509998 -7.5079999 0.45500001 2
8.3339996 -7.4920001 0.456 2
8.3249998 -7.5219998 0.45699999 2
8.2530003 -7.4250002 0.456 2
8.3050003 -7.4549999 0.45500001 2
8.323 -7.4029999 0.454 2
8.3640003 -7.3730001 0.45199999 2
8.3649998 -7.3699999 0.45199999 2
8.3210001 -7.427 0.454 2
8.3079996 -7.5219998 0.45699999 2
8.3730001 -7.4549999 0.454 2
8.3240004 -7.5409999 0.45699999 2
8.3929996 -7.3870001 0.45100001 2
8.323 -7.5469999 0.45699999 2
8.3079996 -7.5120001 0.45699999 2
8.3079996 -7.447 0.45500001 2
8.3730001 -7.427 0.45300001 2
8.3109999 -7.4990001 0.456 2
8.3039999 -7.441 0.45500001 2
8.3450003 -7.5110002 0.456 2
8.342 -7.507 0.456 2
8.3959999 -7.3829999 0.45100001 2
8.3599997 -7.4039998 0.45300001 2
8.3140001 -7.4650002 0.45500001 2
8.2959995 -7.4349999 0.45500001 2
8.3030005 -7.4349999 0.45500001 2
8.3290005 -7.4450002 0.45500001 2
8.2749996 -7.46 0.456 2
8.3540001 -7.4679999 0.454 2
8.3509998 -7.4949999 0.45500001 2
8.2779999 -7.4590001 0.456 2
8.2840004 -7.4320002 0.45500001 2
8.335 -7.506 0.456 2
8.3389997 -7.4159999 0.454 2
8.3369999 -7.4629998 0.45500001 2
8.3929996 -7.4070001 0.45199999 2
8.3369999 -7.506 0.456 2
8.3310003 -7.5500002 0.45699999 2
8.4049997 -7.3540001 0.44999999 2
8.3549995 -7.5 0.45500001 2
8.309 -7.4039998 0.454 2
8.2939997 -7.4699998 0.456 2
8.3520002 -7.4099998 0.45300001 2
8.3529997 -7.4569998 0.454 2
8.3620005 -7.4809999 0.45500001 2
8.3339996 -7.4050002 0.45300001 2
8.4020004 -7.355 0.44999999 2
8.3149996 -7.5209999 0.45699999 2
8.3710003 -7.447 0.454 2
8.3109999 -7.4099998 0.454 2
8.3459997 -7.3990002 0.45300001 2
8.29 -7.4710002 0.456 2
8.3610001 -7.3870001 0.45199999 2
8.3470001 -7.467 0.45500001 2
8.3339996 -7.3889999 0.45300001 2
8.2959995 -7.5029998 0.45699999 2
8.283 -7.4390001 0.456 2
8.3290005 -7.3959999 0.45300001 2
8.3439999 -7.3829999 0.45300001 2
8.3030005 -7.507 0.45699999 2
8.2959995 -7.434 0.45500001 2
8.3079996 -7.4200001 0.45500001 2
8.3079996 -7.4530001 0.45500001 2
8.3039999 -7.4229999 0.45500001 2
8.3830004 -7.3930001 0.45199999 2
8.3699999 -7.4130001 0.45300001 2
8.4020004 -7.3860002 0.45100001 2
8.2729998 -7.454 0.456 2
8.3970003 -7.3499999 0.44999999 2
8.3859997 -7.3850002 0.45199999 2
8.3439999 -7.4260001 0.454 2
8.3260002 -7.5440001 0.45699999 2
8.2729998 -7.4439998 0.456 2
8.3369999 -7.5079999 0.456 2
8.3509998 -7.4000001 0.45300001 2
8.3369999 -7.3990002 0.45300001 2
8.3439999 -7.4400001 0.454 2
8.3590002 -7.427 0.45300001 2
8.2840004 -7.4320002 0.45500001 2
8.3129997 -7.402 0.454 2
8.3210001 -7.4099998 0.454 2
8.3529997 -7.4089999 0.45300001 2
8.2629995 -7.4320002 0.456 2
8.3540001 -7.4580002 0.454 2
8.4029999 -7.3520002 0.44999999 2
8.3520002 -7.3790002 0.45199999 2
8.3850002 -7.3930001 0.45199999 2
8.3240004 -7.5430002 0.45699999 2
8.3339996 -7.5300002 0.456 2
8.368 -7.46 0.454 2
8.3760004 -7.4060001 0.45199999 2
8.3190002 -7.3940001 0.454 2
8.3409996 -7.5139999 0.456 2
8.3739996 -7.421 0.45300001 2
8.3430004 -7.4710002 0.45500001 2
8.335 -7.5180001 0.456 2
8.2779999 -7.4439998 0.456 2
8.3330002 -7.3969998 0.45300001 2
8.3570004 -7.4320002 0.454 2
8.3290005 -7.5209999 0.456 2
8.335 -7.5180001 0.456 2
8.3590002 -7.4889998 0.45500001 2
8.2980003 -7.4899998 0.456 2
8.3509998 -7.375 0.45199999 2
8.3170004 -7.4590001 0.45500001 2
8.3339996 -7.4959998 0.456 2
8.3380003 -7.4759998 0.45500001 2
8.3319998 -7.3920002 0.45300001 2
8.3079996 -7.526 0.45699999 2
8.3389997 -7.434 0.454 2
8.3809996 -7.3610001 0.45100001 2
8.3149996 -7.4310002 0.45500001 2
8.3430004 -7.395 0.45300001 2
8.3149996 -7.5339999 0.45699999 2
8.3210001 -7.4320002 0.454 2
8.3249998 -7.5250001 0.45699999 2
8.3719997 -7.4660001 0.454 2
8.3859997 -7.3660002 0.45100001 2
8.3459997 -7.4569998 0.454 2
8.2770004 -7.4650002 0.456 2
8.3839998 -7.7519999 0.43799999 2
8.3769999 -7.7989998 0.42399999 2
8.3339996 -7.7270002 0.41299999 2
8.3620005 -7.7719998 0.421 2
8.3599997 -7.7379999 0.42699999 2
8.3929996 -7.816 0.43000001 2
8.368 -7.7670002 0.42500001 2
8.3439999 -7.7329998 0.41800001 2
8.3920002 -7.7639999 0.44100001 2
8.3950005 -7.8010001 0.43399999 2
8.3789997 -7.7529998 0.435 2
8.3590002 -7.743 0.42500001 2
8.3409996 -7.7329998 0.417 2
8.3400002 -7.73 0.41600001 2
8.3590002 -7.7470002 0.42399999 2
8.3719997 -7.7909999 0.42199999 2
8.3199997 -7.7129998 0.40799999 2
8.3909998 -7.816 0.428 2
8.3520002 -7.744 0.41999999 2
8.3789997 -7.7839999 0.428 2
8.3900003 -7.7729998 0.43700001 2
8.3699999 -7.776 0.42399999 2
8.3929996 -7.7969999 0.433 2
8.3940001 -7.776 0.43900001 2
8.3269997 -7.7189999 0.41100001 2
8.3660002 -7.7690001 0.42399999 2
8.3850002 -7.7810001 0.43200001 2
8.3699999 -7.7519999 0.43000001 2
8.3439999 -7.7379999 0.417 2
8.3959999 -7.777 0.44 2
8.3719997 -7.7779999 0.42500001 2
8.3459997 -7.7540002 0.414 2
8.3730001 -7.7779999 0.426 2
8.3760004 -7.7880001 0.42500001 2
8.3570004 -7.7579999 0.421 2
8.3780003 -7.7480001 0.43599999 2
8.3979998 -7.7969999 0.43700001 2
8.3529997 -7.7529998 0.419 2
8.3660002 -7.744 0.42899999 2
8.3909998 -7.8150001 0.42899999 2
8.3730001 -7.7509999 0.43200001 2
8.3439999 -7.7379999 0.417 2
8.3979998 -7.6370001 0.44999999 2
8.3809996 -7.493 0.45300001 2
8.3959999 -7.6960001 0.449 2
8.401 -7.6810002 0.449 2
8.3889999 -7.645 0.45100001 2
8.3859997 -7.6490002 0.45100001 2
8.3780003 -7.4530001 0.45300001 2
8.3500004 -7.553 0.456 2
8.3620005 -7.5 0.45500001 2
8.3649998 -7.5910001 0.454 2
8.4029999 -7.572 0.44999999 2
8.3509998 -7.585 0.45500001 2
8.3900003 -7.5900002 0.45100001 2
8.3889999 -7.5450001 0.45100001 2
8.4049997 -7.6199999 0.449 2
8.3859997 -7.4840002 0.45199999 2
8.3920002 -7.5339999 0.45100001 2
8.4020004 -7.4980001 0.44999999 2
8.4110003 -7.5339999 0.449 2
8.3970003 -7.5700002 0.44999999 2
8.4029999 -7.6700001 0.449 2
8.3979998 -7.4099998 0.45199999 2
8.3769999 -7.6599998 0.45199999 2
8.3540001 -7.5999999 0.45500001 2
8.3830004 -7.5500002 0.45199999 2
8.4060001 -7.6570001 0.449 2
8.3610001 -7.6300001 0.454 2
8.3839998 -7.5929999 0.45199999 2
8.4139996 -7.4000001 0.44999999 2
8.4040003 -7.7589998 0.44800001 2
8.3900003 -7.507 0.45199999 2
8.3479996 -7.5679998 0.456 2
8.3950005 -7.7319999 0.449 2
8.3769999 -7.5209999 0.45300001 2
8.3929996 -7.5749998 0.45100001 2
8.3570004 -7.6279998 0.454 2
8.408 -7.618 0.449 2
8.3979998 -7.5679998 0.44999999 2
8.3950005 -7.4369998 0.45199999 2
8.3500004 -7.5380001 0.456 2
8.3699999 -7.619 0.45300001 2
8.3990002 -7.7350001 0.449 2
8.4029999 -7.7550001 0.44800001 2
8.3439999 -7.598 0.456 2
8.3690004 -7.6090002 0.45300001 2
8.3929996 -7.6919999 0.44999999 2
8.3970003 -7.5960002 0.44999999 2
8.4169998 -7.3759999 0.44999999 2
8.4020004 -7.71 0.449 2
8.3940001 -7.5170002 0.45100001 2
8.3870001 -7.5840001 0.45100001 2
8.3660002 -7.605 0.45300001 2
8.4169998 -7.4450002 0.449 2
8.408 -7.506 0.44999999 2
8.3739996 -7.6409998 0.45199999 2
8.415 -7.3940001 0.44999999 2
8.3940001 -7.5770001 0.45100001 2
8.4200001 -7.3709998 0.449 2
8.3970003 -7.5939999 0.44999999 2
8.4049997 -7.5370002 0.44999999 2
8.3950005 -7.6599998 0.44999999 2
8.3979998 -7.5929999 0.44999999 2
8.3979998 -7.4260001 0.45100001 2
8.3889999 -7.7049999 0.44999999 2
8.3950005 -7.5419998 0.45100001 2
8.4040003 -7.7090001 0.44800001 2
8.3800001 -7.5840001 0.45199999 2
8.3879995 -7.619 0.45100001 2
8.3599997 -7.5079999 0.45500001 2
8.4130001 -7.494 0.449 2
8.3780003 -7.6739998 0.45199999 2
8.3959999 -7.4959998 0.45100001 2
8.3909998 -7.6810002 0.44999999 2
8.4169998 -7.3889999 0.44999999 2
8.4049997 -7.553 0.44999999 2
8.4090004 -7.5580001 0.449 2
8.3809996 -7.6960001 0.45100001 2
8.3839998 -7.4889998 0.45199999 2
8.3479996 -7.5380001 0.456 2
8.4069996 -7.6079998 0.449 2
8.3970003 -7.4640002 0.45100001 2
8.4130001 -7.507 0.449 2
8.368 -7.4840002 0.454 2
8.401 -7.5089998 0.44999999 2
8.3830004 -7.487 0.45300001 2
8.3610001 -7.579 0.454 2
8.3479996 -7.6040001 0.45500001 2
8.4139996 -7.4499998 0.44999999 2
8.3850002 -7.605 0.45100001 2
8.3739996 -7.5890002 0.45300001 2
8.3760004 -7.5669999 0.45300001 2
8.3909998 -7.4229999 0.45199999 2
8.4119997 -7.4000001 0.44999999 2
8.3470001 -7.6069999 0.45500001 2
8.3979998 -7.4060001 0.45199999 2
8.3769999 -7.6500001 0.45199999 2
8.4119997 -7.4679999 0.44999999 2
8.408 -7.4229999 0.44999999 2
8.4139996 -7.4489999 0.44999999 2
8.4099998 -7.4990001 0.44999999 2
8.401 -7.5029998 0.44999999 2
8.4099998 -7.4400001 0.44999999 2
8.3520002 -7.5599999 0.45500001 2
8.3570004 -7.5710001 0.45500001 2
8.3929996 -7.415 0.45199999 2
8.3640003 -7.5960002 0.454 2
8.3900003 -7.678 0.44999999 2
8.368 -7.5159998 0.454 2
8.3690004 -7.6279998 0.45300001 2
8.3979998 -7.7329998 0.449 2
8.3660002 -7.4879999 0.454 2
8.3929996 -7.5999999 0.45100001 2
8.4029999 -7.5320001 0.44999999 2
8.3850002 -7.513 0.45199999 2
8.4060001 -7.7220001 0.44800001 2
8.4040003 -7.6659999 0.449 2
8.3870001 -7.5229998 0.45199999 2
8.3789997 -7.6560001 0.45199999 2
8.3710003 -7.553 0.45300001 2
8.3970003 -7.6240001 0.44999999 2
8.4040003 -7.539 0.44999999 2
8.3789997 -7.691 0.45100001 2
8.4029999 -7.4000001 0.45100001 2
8.3730001 -7.5869999 0.45300001 2
8.4180002 -7.4330001 0.449 2
8.3369999 -7.5570002 0.45699999 2
8.3760004 -7.6459999 0.45199999 2
8.3859997 -7.6350002 0.45100001 2
8.3850002 -7.4720001 0.45300001 2
8.3730001 -7.6079998 0.45300001 2
8.4040003 -7.4590001 0.45100001 2
8.3900003 -7.7069998 0.44999999 2
8.3889999 -7.5549998 0.45100001 2
8.3920002 -7.5939999 0.45100001 2
8.4130001 -7.3850002 0.44999999 2
8.3690004 -7.4879999 0.454 2
8.3959999 -7.4419999 0.45199999 2
8.4069996 -7.4689999 0.44999999 2
8.3620005 -7.6129999 0.454 2
8.3549995 -7.625 0.454 2
8.368 -7.4959998 0.454 2
8.3470001 -7.54 0.456 2
8.3610001 -7.6139998 0.454 2
8.4139996 -7.4380002 0.44999999 2
8.3950005 -7.4169998 0.45199999 2
8.3900003 -7.526 0.45100001 2
8.3800001 -7.4879999 0.45300001 2
8.349 -7.5949998 0.45500001 2
8.3839998 -7.553 0.45199999 2
8.3889999 -7.638 0.45100001 2
8.4169998 -7.4130001 0.44999999 2
8.3900003 -7.6139998 0.45100001 2
8.3559999 -7.6079998 0.45500001 2
8.3479996 -7.5450001 0.456 2
8.3900003 -7.6399999 0.45100001 2
8.4099998 -7.5110002 0.449 2
8.4069996 -7.4159999 0.45100001 2
8.3830004 -7.6570001 0.45100001 2
8.401 -7.631 0.449 2
8.3450003 -7.5939999 0.456 2
8.3500004 -7.6040001 0.45500001 2
8.3979998 -7.6279998 0.44999999 2
8.3629999 -7.5689998 0.454 2
8.382 -7.6939998 0.45100001 2
8.4060001 -7.6950002 0.44800001 2
8.4049997 -7.5900002 0.449 2
8.3850002 -7.572 0.45199999 2
8.3690004 -7.5359998 0.454 2
8.4029999 -7.4159999 0.45100001 2
8.3870001 -7.6160002 0.45100001 2
8.4040003 -7.6659999 0.449 2
8.3870001 -7.6110001 0.45100001 2
8.4099998 -7.4000001 0.44999999 2
8.3999996 -7.71 0.449 2
8.3780003 -7.6300001 0.45199999 2
8.4020004 -7.665 0.449 2
8.4840002 -7.704 0.43700001 2
8.4499998 -7.665 0.442 2
8.448 -7.5300002 0.44400001 2
8.4139996 -7.6100001 0.44800001 2
8.4519997 -7.487 0.44400001 2
8.4449997 -7.645 0.44299999 2
8.4090004 -7.665 0.44800001 2
8.4350004 -7.7059999 0.44400001 2
8.4659996 -7.7309999 0.43900001 2
8.4420004 -7.5370002 0.44499999 2
8.4449997 -7.5240002 0.44499999 2
8.4630003 -7.7480001 0.44 2
8.4219999 -7.4590001 0.44800001 2
8.4540005 -7.6900001 0.442 2
8.4949999 -7.6869998 0.43599999 2
8.4139996 -7.7420001 0.447 2
8.4689999 -7.6869998 0.43900001 2
8.4350004 -7.4260001 0.447 2
8.4460001 -7.4530001 0.44499999 2
8.4239998 -7.382 0.449 2
8.4949999 -7.73 0.435 2
8.4619999 -7.6370001 0.44100001 2
8.4200001 -7.5599999 0.44800001 2
8.4530001 -7.723 0.44100001 2
8.427 -7.6440001 0.44600001 2
8.4300003 -7.6059999 0.44600001 2
8.4849997 -7.6750002 0.43700001 2
8.4300003 -7.3940001 0.44800001 2
8.4449997 -7.533 0.44400001 2
8.4219999 -7.6069999 0.447 2
8.4350004 -7.5229998 0.44600001 2
8.4329996 -7.579 0.44600001 2
8.4879999 -7.704 0.43599999 2
8.4519997 -7.5190001 0.44400001 2
8.4429998 -7.46 0.44499999 2
8.4370003 -7.605 0.44499999 2
8.4350004 -7.4910002 0.44600001 2
8.4239998 -7.5830002 0.447 2
8.4510002 -7.539 0.44299999 2
8.4429998 -7.6009998 0.44400001 2
8.4169998 -7.6539998 0.447 2
8.4300003 -7.5 0.447 2
8.4709997 -7.6539998 0.43900001 2
8.4300003 -7.3769999 0.44800001 2
8.4390001 -7.7270002 0.44299999 2
8.4659996 -7.724 0.43900001 2
8.46 -7.7059999 0.44 2
8.4589996 -7.717 0.44100001 2
8.4659996 -7.6589999 0.44 2
8.4460001 -7.454 0.44499999 2
8.4560003 -7.6009998 0.442 2
8.4429998 -7.6209998 0.44400001 2
8.4849997 -7.658 0.43700001 2
8.4589996 -7.579 0.442 2
8.4510002 -7.5409999 0.44299999 2
8.4169998 -7.4720001 0.449 2
8.4219999 -7.6849999 0.44600001 2
8.4759998 -7.6079998 0.43900001 2
8.427 -7.467 0.44800001 2
8.4200001 -7.5050001 0.44800001 2
8.4689999 -7.5640001 0.44100001 2
8.434 -7.4549999 0.447 2
8.4180002 -7.6589999 0.447 2
8.474 -7.7210002 0.43799999 2
8.467 -7.7420001 0.43900001 2
8.4219999 -7.4809999 0.44800001 2
8.448 -7.506 0.44400001 2
8.4300003 -7.4970002 0.447 2
8.4849997 -7.6719999 0.43700001 2
8.4300003 -7.5999999 0.44600001 2
8.427 -7.3569999 0.449 2
8.4469995 -7.4850001 0.44499999 2
8.4610004 -7.6960001 0.44100001 2
8.4289999 -7.4489999 0.447 2
8.4320002 -7.724 0.44400001 2
8.4829998 -7.7249999 0.43700001 2
8.4230003 -7.3730001 0.449 2
8.4519997 -7.638 0.442 2
8.4230003 -7.6370001 0.447 2
8.4350004 -7.6279998 0.44499999 2
8.434 -7.6560001 0.44499999 2
8.4639997 -7.6550002 0.44 2
8.434 -7.7319999 0.44400001 2
8.4359999 -7.5009999 0.44600001 2
8.4770002 -7.6170001 0.43900001 2
8.434 -7.4070001 0.447 2
8.4469995 -7.474 0.44499999 2
8.4350004 -7.4850001 0.44600001 2
8.4309998 -7.5419998 0.44600001 2
8.434 -7.723 0.44400001 2
8.4809999 -7.6469998 0.43799999 2
8.4569998 -7.5609999 0.442 2
8.4510002 -7.6020002 0.44299999 2
8.4790001 -7.6300001 0.43900001 2
8.4829998 -7.632 0.43799999 2
8.4309998 -7.7090001 0.44499999 2
8.4069996 -7.7480001 0.44800001 2
8.4289999 -7.5289998 0.447 2
8.4420004 -7.559 0.44499999 2
8.4329996 -7.7119999 0.44400001 2
8.4650002 -7.7280002 0.44 2
8.4709997 -7.6830001 0.43900001 2
8.4350004 -7.5370002 0.44600001 2
8.4440002 -7.4619999 0.44499999 2
8.4420004 -7.6989999 0.44299999 2
8.4119997 -7.7519999 0.447 2
8.4200001 -7.6149998 0.447 2
8.4370003 -7.7220001 0.44400001 2
8.4230003 -7.4060001 0.449 2
8.4200001 -7.717 0.44600001 2
8.448 -7.7020001 0.442 2
8.4510002 -7.6139998 0.44299999 2
8.448 -7.5949998 0.44299999 2
8.4209995 -7.6090002 0.447 2
8.4300003 -7.5609999 0.44600001 2
8.4230003 -7.4099998 0.449 2
8.4289999 -7.553 0.44600001 2
8.4180002 -7.6680002 0.447 2
8.4259996 -7.6900001 0.44600001 2
8.4209995 -7.4489999 0.449 2
8.4219999 -7.618 0.447 2
8.4169998 -7.6009998 0.44800001 2
8.4619999 -7.5770001 0.442 2
8.4379997 -7.7509999 0.44299999 2
8.4460001 -7.5739999 0.44400001 2
8.467 -7.678 0.44 2
8.4320002 -7.5100002 0.447 2
8.4700003 -7.5609999 0.44100001 2
8.4499998 -7.6329999 0.44299999 2
8.4499998 -7.6020002 0.44299999 2
8.4449997 -7.5900002 0.44400001 2
8.448 -7.6199999 0.44299999 2
8.4940004 -7.6799998 0.43599999 2
8.427 -7.4679999 0.44800001 2
8.4359999 -7.4159999 0.447 2
8.434 -7.6890001 0.44400001 2
8.4099998 -7.7010002 0.44800001 2
8.4549999 -7.6760001 0.442 2
8.427 -7.5479999 0.447 2
8.4960003 -7.7360001 0.435 2
8.4449997 -7.4920001 0.44499999 2
8.4230003 -7.4770002 0.44800001 2
8.4429998 -7.6129999 0.44400001 2
8.4119997 -7.6700001 0.44800001 2
8.4180002 -7.605 0.44800001 2
8.4490004 -7.46 0.44499999 2
8.415 -7.7020001 0.447 2
8.4449997 -7.4569998 0.44499999 2
8.4259996 -7.599 0.447 2
8.4209995 -7.3940001 0.449 2
8.4650002 -7.7160001 0.44 2
8.4689999 -7.7080002 0.43900001 2
8.4370003 -7.4650002 0.44600001 2
8.427 -7.5289998 0.447 2
8.4899998 -7.7189999 0.43599999 2
8.4639997 -7.605 0.44100001 2
8.434 -7.552 0.44600001 2
8.4540005 -7.651 0.442 2
8.4469995 -7.6550002 0.44299999 2
8.4289999 -7.6999998 0.44499999 2
8.4110003 -7.6170001 0.44800001 2
8.4350004 -7.618 0.44499999 2
8.4060001 -7.7459998 0.44800001 2
8.4169998 -7.6929998 0.447 2
8.4899998 -7.6799998 0.43700001 2
8.4090004 -7.7399998 0.44800001 2
8.4320002 -7.5929999 0.44600001 2
8.4320002 -7.7470002 0.44400001 2
8.448 -7.5349998 0.44400001 2
8.4499998 -7.573 0.44299999 2
8.4809999 -7.6989999 0.43799999 2
8.4549999 -7.5739999 0.44299999 2
8.4490004 -7.6620002 0.44299999 2
8.4700003 -7.5760002 0.44 2
8.408 -7.7340002 0.44800001 2
8.5030003 -7.7280002 0.43399999 2
8.4390001 -7.5190001 0.44499999 2
8.4449997 -7.5999999 0.44400001 2
8.4770002 -7.723 0.43799999 2
8.4200001 -7.4949999 0.44800001 2
8.4230003 -7.5440001 0.447 2
8.4720001 -7.652 0.43900001 2
8.4230003 -7.4650002 0.44800001 2
8.4499998 -7.6919999 0.442 2
8.4840002 -7.7160001 0.43700001 2
8.448 -7.4809999 0.44499999 2
8.4219999 -7.4159999 0.449 2
8.4280005 -7.4369998 0.44800001 2
8.4569998 -7.6170001 0.442 2
8.4239998 -7.7309999 0.44600001 2
8.4809999 -7.6570001 0.43799999 2
8.4230003 -7.5970001 0.447 2
8.4320002 -7.73 0.44400001 2
8.4610004 -7.6859999 0.44100001 2
8.4209995 -7.4580002 0.449 2
8.4530001 -7.4819999 0.44400001 2
8.4359999 -7.5700002 0.44499999 2
8.4200001 -7.6960001 0.44600001 2
8.4840002 -7.6529999 0.43799999 2
8.4350004 -7.5100002 0.44600001 2
8.4949999 -7.6919999 0.43599999 2
8.4519997 -7.6529999 0.442 2
8.4659996 -7.5679998 0.44100001 2
8.4969997 -7.7199998 0.435 2
8.4289999 -7.7179999 0.44499999 2
8.4320002 -7.6960001 0.44499999 2
8.4680004 -7.7389998 0.43900001 2
8.4200001 -7.5209999 0.44800001 2
8.4300003 -7.6030002 0.44600001 2
8.4720001 -7.7220001 0.43900001 2
8.4759998 -7.6849999 0.43799999 2
8.4510002 -7.6069999 0.44299999 2
8.4379997 -7.7360001 0.44299999 2
8.4259996 -7.6659999 0.44600001 2
8.4639997 -7.5619998 0.44100001 2
8.4169998 -7.5029998 0.449 2
8.427 -7.5640001 0.447 2
8.4630003 -7.7410002 0.44 2
8.5349998 -7.7150002 0.43099999 2
8.4829998 -7.5580001 0.43900001 2
8.4469995 -7.4039998 0.44600001 2
8.4949999 -7.5149999 0.43799999 2
8.4940004 -7.5 0.43900001 2
8.4989996 -7.6609998 0.43599999 2
8.5430002 -7.6490002 0.43099999 2
8.4630003 -7.5240002 0.442 2
8.4610004 -7.5079999 0.442 2
8.4980001 -7.5710001 0.43700001 2
8.5089998 -7.625 0.435 2
8.4969997 -7.6859999 0.435 2
8.5270004 -7.7080002 0.43200001 2
8.5179996 -7.598 0.43399999 2
8.4399996 -7.4099998 0.44600001 2
8.5319996 -7.579 0.433 2
8.4729996 -7.473 0.442 2
8.5550003 -7.6589999 0.42899999 2
8.5050001 -7.6760001 0.435 2
8.5019999 -7.5349998 0.43700001 2
8.5080004 -7.5560002 0.43599999 2
8.4589996 -7.441 0.44400001 2
8.5150003 -7.579 0.435 2
8.54 -7.7189999 0.43000001 2
8.5719995 -7.6890001 0.42699999 2
8.4960003 -7.5970001 0.43700001 2
8.4860001 -7.6059999 0.43799999 2
8.5109997 -7.6669998 0.43399999 2
8.5139999 -7.6259999 0.43399999 2
8.5240002 -7.5760002 0.43399999 2
8.5450001 -7.6279998 0.43099999 2
8.5419998 -7.723 0.43000001 2
8.5100002 -7.6199999 0.435 2
8.507 -7.691 0.43399999 2
8.5220003 -7.5770001 0.43399999 2
8.5100002 -7.6500001 0.435 2
8.4680004 -7.4450002 0.44299999 2
8.4490004 -7.4520001 0.44499999 2
8.4809999 -7.5479999 0.44 2
8.4899998 -7.6339998 0.43700001 2
8.5249996 -7.5669999 0.43399999 2
8.4980001 -7.6240001 0.43599999 2
8.5290003 -7.5960002 0.433 2
8.5609999 -7.7049999 0.428 2
8.5150003 -7.7259998 0.433 2
8.5 -7.5599999 0.43700001 2
8.5860004 -7.691 0.42500001 2
8.4759998 -7.5700002 0.44 2
8.5150003 -7.598 0.435 2
8.4960003 -7.585 0.43700001 2
8.4770002 -7.5110002 0.44100001 2
8.5 -7.6609998 0.43599999 2
8.4420004 -7.3790002 0.447 2
8.4549999 -7.4419999 0.44400001 2
8.4759998 -7.552 0.44 2
8.4969997 -7.6589999 0.43599999 2
8.5690002 -7.6669998 0.42699999 2
8.5200005 -7.671 0.433 2
8.4919996 -7.5349998 0.43799999 2
8.566 -7.6849999 0.42699999 2
8.4510002 -7.4460001 0.44499999 2
8.5170002 -7.6440001 0.43399999 2
8.5159998 -7.6409998 0.43399999 2
8.4379997 -7.3850002 0.447 2
8.5209999 -7.7199998 0.43200001 2
8.4980001 -7.5760002 0.43700001 2
8.5059996 -7.6609998 0.435 2
8.5550003 -7.6820002 0.42899999 2
8.5220003 -7.6279998 0.433 2
8.5240002 -7.658 0.433 2
8.5609999 -7.6469998 0.42899999 2
8.5279999 -7.638 0.433 2
8.5310001 -7.6869998 0.43099999 2
8.5170002 -7.6960001 0.433 2
8.5059996 -7.6160002 0.43599999 2
8.4659996 -7.4809999 0.442 2
8.4980001 -7.6139998 0.43599999 2
8.5120001 -7.5339999 0.43599999 2
8.5310001 -7.724 0.43099999 2
8.5150003 -7.7280002 0.433 2
8.4610004 -7.4530001 0.44299999 2
8.5229998 -7.645 0.433 2
8.5059996 -7.605 0.43599999 2
8.5439997 -7.7199998 0.43000001 2
8.4469995 -7.4250002 0.44499999 2
8.5249996 -7.6199999 0.433 2
8.5050001 -7.7020001 0.43399999 2
8.4870005 -7.619 0.43799999 2
8.5749998 -7.7129998 0.426 2
8.46 -7.4720001 0.44299999 2
8.5159998 -7.6100001 0.43399999 2
8.5839996 -7.6989999 0.42500001 2
8.5170002 -7.7049999 0.433 2
8.533 -7.7010002 0.43099999 2
8.5299997 -7.6170001 0.433 2
8.5030003 -7.5100002 0.43700001 2
8.5240002 -7.6490002 0.433 2
8.5640001 -7.6609998 0.428 2
8.5159998 -7.6539998 0.43399999 2
8.4940004 -7.6500001 0.43599999 2
8.4949999 -7.494 0.43900001 2
8.552 -7.6960001 0.42899999 2
8.4779997 -7.527 0.44 2
8.4650002 -7.4569998 0.44299999 2
8.566 -7.6880002 0.428 2
8.5109997 -7.5650001 0.43599999 2
8.4540005 -7.4310002 0.44400001 2
8.4729996 -7.5739999 0.44 2
8.4960003 -7.5380001 0.43799999 2
8.4540005 -7.4749999 0.44400001 2
8.474 -7.5139999 0.44100001 2
8.493 -7.526 0.43799999 2
8.4899998 -7.5380001 0.43900001 2
8.4540005 -7.4759998 0.44400001 2
8.5129995 -7.691 0.433 2
8.4610004 -7.487 0.44299999 2
8.4870005 -7.6360002 0.43700001 2
8.5340004 -7.6729999 0.43099999 2
8.5179996 -7.6220002 0.43399999 2
8.5019999 -7.585 0.43599999 2
8.4490004 -7.3979998 0.44499999 2
8.566 -7.7020001 0.42699999 2
8.4899998 -7.5120001 0.43900001 2
8.4540005 -7.4689999 0.44400001 2
8.5190001 -7.678 0.433 2
8.4910002 -7.5219998 0.43900001 2
8.4650002 -7.4980001 0.442 2
8.5439997 -7.6300001 0.43099999 2
8.5190001 -7.6500001 0.433 2
8.4879999 -7.5300002 0.43900001 2
8.5310001 -7.6479998 0.43200001 2
8.467 -7.5310001 0.44100001 2
8.5489998 -7.6149998 0.43099999 2
8.4870005 -7.5089998 0.43900001 2
8.441 -7.4060001 0.44600001 2
8.5410004 -7.6810002 0.43099999 2
8.5469999 -7.6690001 0.43000001 2
8.5369997 -7.6729999 0.43099999 2
8.5139999 -7.7309999 0.433 2
8.5270004 -7.6440001 0.433 2
8.46 -7.4970002 0.44299999 2
8.5380001 -7.632 0.43200001 2
8.4759998 -7.507 0.44100001 2
8.5229998 -7.7309999 0.43200001 2
8.4469995 -7.4419999 0.44499999 2
8.5430002 -7.6789999 0.43000001 2
8.4779997 -7.5359998 0.44 2
8.4589996 -7.4580002 0.44299999 2
8.5290003 -7.7119999 0.43099999 2
8.4989996 -7.645 0.43599999 2
8.4320002 -7.3569999 0.44800001 2
8.4700003 -7.4770002 0.442 2
8.5279999 -7.6329999 0.433 2
8.4919996 -7.5 0.43900001 2
8.559 -7.6339998 0.42899999 2
8.5500002 -7.704 0.42899999 2
8.4289999 -7.3569999 0.44800001 2
8.474 -7.5 0.44100001 2
8.5649996 -7.6599998 0.428 2
8.5139999 -7.5689998 0.435 2
8.5159998 -7.6199999 0.43399999 2
8.5 -7.6599998 0.43599999 2
8.5299997 -7.5900002 0.433 2
8.5150003 -7.5500002 0.43599999 2
8.5030003 -7.6430001 0.435 2
8.5389996 -7.6290002 0.43200001 2
8.5600004 -7.6370001 0.42899999 2
8.4530001 -7.4289999 0.44499999 2
8.5270004 -7.658 0.43200001 2
8.552 -7.6440001 0.43000001 2
8.493 -7.579 0.43799999 2
8.552 -7.658 0.43000001 2
8.4689999 -7.5479999 0.44100001 2
8.5159998 -7.7179999 0.433 2
8.5419998 -7.6750002 0.43000001 2
8.5220003 -7.6810002 0.433 2
8.4610004 -7.4590001 0.44299999 2
8.507 -7.5450001 0.43700001 2
8.4820004 -7.566 0.43900001 2
8.4560003 -7.4400001 0.44400001 2
8.4980001 -7.5549998 0.43700001 2
8.5190001 -7.6669998 0.433 2
8.5310001 -7.572 0.433 2
8.448 -7.4180002 0.44499999 2
8.5270004 -7.6290002 0.433 2
8.5340004 -7.6760001 0.43099999 2
8.4790001 -7.507 0.44 2
8.493 -7.585 0.43700001 2
8.6920004 -7.4400001 0.45899999 2
8.6590004 -7.4120002 0.46000001 2
8.4890003 -7.3909998 0.449 2
8.6149998 -7.3829999 0.45899999 2
8.6059999 -7.3930001 0.45699999 2
8.5200005 -7.4310002 0.447 2
8.573 -7.3720002 0.45699999 2
8.6499996 -7.5430002 0.44499999 2
8.5819998 -7.6659999 0.42699999 2
8.5349998 -7.4510002 0.44600001 2
8.5810003 -7.4770002 0.447 2
8.5109997 -7.4640002 0.44299999 2
8.5150003 -7.5159998 0.43799999 2
8.493 -7.4650002 0.44100001 2
8.5349998 -7.4039998 0.45100001 2
8.4799995 -7.388 0.44800001 2
8.6389999 -7.539 0.44499999 2
8.5419998 -7.4089999 0.45100001 2
8.573 -7.5910001 0.435 2
8.5819998 -7.3920002 0.456 2
8.5889997 -7.6269999 0.43200001 2
8.5760002 -7.6690001 0.42699999 2
8.5950003 -7.5019999 0.44499999 2
8.6199999 -7.625 0.435 2
8.5480003 -7.5250001 0.43900001 2
8.6420002 -7.6040001 0.43799999 2
8.618 -7.4089999 0.45699999 2
8.5839996 -7.5760002 0.43700001 2
8.5500002 -7.5510001 0.43700001 2
8.5310001 -7.5050001 0.44 2
8.5900002 -7.4050002 0.45500001 2
8.6420002 -7.461 0.45300001 2
8.5249996 -7.5349998 0.43700001 2
8.6499996 -7.4990001 0.44999999 2
8.5010004 -7.4640002 0.442 2
8.5279999 -7.5209999 0.43799999 2
8.6190004 -7.402 0.45699999 2
8.5150003 -7.3699999 0.45300001 2
8.6610003 -7.48 0.45300001 2
8.5410004 -7.3920002 0.45300001 2
8.5640001 -7.447 0.449 2
8.7089996 -7.4190001 0.463 2
8.5469999 -7.487 0.44299999 2
8.6669998 -7.4380002 0.45699999 2
8.6330004 -7.4530001 0.45300001 2
8.6110001 -7.6490002 0.43099999 2
8.6660004 -7.5229998 0.449 2
8.5719995 -7.5380001 0.44 2
8.5620003 -7.592 0.43399999 2
8.6260004 -7.605 0.43700001 2
8.5170002 -7.4239998 0.447 2
8.4659996 -7.3930001 0.447 2
8.5139999 -7.5320001 0.43599999 2
8.5480003 -7.4949999 0.44299999 2
8.5220003 -7.3740001 0.45300001 2
8.4759998 -7.4489999 0.442 2
8.625 -7.5689998 0.44100001 2
8.6940002 -7.4829998 0.45500001 2
8.7180004 -7.408 0.46399999 2
8.625 -7.421 0.456 2
8.6789999 -7.5139999 0.45100001 2
8.5979996 -7.4359999 0.45199999 2
8.6520004 -7.5120001 0.449 2
8.6440001 -7.5710001 0.442 2
8.6190004 -7.5500002 0.442 2
8.7139997 -7.4299998 0.46200001 2
8.7229996 -7.4380002 0.46200001 2
8.5649996 -7.5349998 0.44 2
8.4659996 -7.3990002 0.44600001 2
8.5450001 -7.5780001 0.43399999 2
8.6280003 -7.4349999 0.45500001 2
8.6090002 -7.4510002 0.45199999 2
8.5670004 -7.441 0.449 2
8.6809998 -7.4050002 0.46200001 2
8.533 -7.5289998 0.43799999 2
8.5389996 -7.5139999 0.44 2
8.6820002 -7.4439998 0.458 2
8.6350002 -7.4629998 0.45199999 2
8.4540005 -7.3940001 0.44600001 2
8.6059999 -7.5180001 0.44499999 2
8.4309998 -7.349 0.449 2
8.4659996 -7.375 0.44800001 2
8.5159998 -7.381 0.45199999 2
8.5249996 -7.4229999 0.44800001 2
8.592 -7.6059999 0.43399999 2
8.6020002 -7.6849999 0.42699999 2
8.5640001 -7.5900002 0.43399999 2
8.4589996 -7.3860002 0.447 2
8.4580002 -7.3709998 0.44800001 2
8.6409998 -7.5710001 0.442 2
8.7119999 -7.46 0.45899999 2
8.5 -7.4460001 0.44400001 2
8.5419998 -7.4159999 0.44999999 2
8.5389996 -7.388 0.45300001 2
8.5229998 -7.473 0.44299999 2
8.632 -7.4660001 0.45199999 2
8.552 -7.5869999 0.433 2
8.6389999 -7.4860001 0.44999999 2
8.5950003 -7.6030002 0.435 2
8.6409998 -7.4520001 0.454 2
8.5950003 -7.6620002 0.42899999 2
8.5780001 -7.5970001 0.43399999 2
8.6219997 -7.5549998 0.442 2
8.6560001 -7.447 0.456 2
8.5799999 -7.6469998 0.42899999 2
8.6169996 -7.5619998 0.44100001 2
8.6090002 -7.5349998 0.44299999 2
8.5690002 -7.4580002 0.44800001 2
8.6359997 -7.5310001 0.44499999 2
8.5970001 -7.5669999 0.43900001 2
8.6680002 -7.4970002 0.45100001 2
8.5819998 -7.4829998 0.44600001 2
8.5500002 -7.5029998 0.442 2
8.6079998 -7.5289998 0.44400001 2
8.6560001 -7.4429998 0.456 2
8.5530005 -7.5029998 0.442 2
8.5299997 -7.533 0.43700001 2
8.4759998 -7.3629999 0.45100001 2
8.552 -7.4000001 0.45300001 2
8.6820002 -7.4349999 0.45899999 2
8.6520004 -7.4369998 0.456 2
8.6040001 -7.5110002 0.44499999 2
8.6009998 -7.3839998 0.458 2
8.5039997 -7.4320002 0.44600001 2
8.4919996 -7.4650002 0.44100001 2
8.5509996 -7.559 0.43599999 2
8.6120005 -7.4200001 0.45500001 2
8.6120005 -7.4169998 0.45500001 2
8.4960003 -7.3769999 0.45100001 2
8.4659996 -7.3829999 0.44800001 2
8.5559998 -7.6230001 0.43000001 2
8.6070004 -7.5799999 0.43799999 2
8.559 -7.4679999 0.44600001 2
8.6870003 -7.4250002 0.46000001 2
8.618 -7.5300002 0.44400001 2
8.5349998 -7.4450002 0.447 2
8.6929998 -7.4050002 0.463 2
8.5139999 -7.382 0.45100001 2
8.599 -7.6529999 0.43000001 2
8.5570002 -7.368 0.456 2
8.6079998 -7.5089998 0.44600001 2
8.5450001 -7.4070001 0.45100001 2
8.6420002 -7.3909998 0.46000001 2
8.6140003 -7.5939999 0.43700001 2
8.6140003 -7.4130001 0.456 2
8.5810003 -7.6090002 0.433 2
8.6079998 -7.5840001 0.43799999 2
8.54 -7.5450001 0.43700001 2
8.6029997 -7.553 0.44100001 2
8.6330004 -7.4120002 0.45699999 2
8.6669998 -7.395 0.46200001 2
8.717 -7.4359999 0.461 2
8.4700003 -7.349 0.45199999 2
8.592 -7.4000001 0.456 2
8.5100002 -7.487 0.44 2
8.6190004 -7.6300001 0.43399999 2
8.566 -7.3959999 0.454 2
8.6680002 -7.4889998 0.45199999 2
8.6309996 -7.5960002 0.43900001 2
8.5369997 -7.3850002 0.45300001 2
8.4759998 -7.4460001 0.442 2
8.533 -7.369 0.454 2
8.5629997 -7.494 0.44400001 2
8.5500002 -7.4549999 0.447 2
8.5769997 -7.5359998 0.44 2
8.5279999 -7.533 0.43700001 2
8.5380001 -7.5749998 0.43399999 2
8.6689997 -7.5430002 0.447 2
8.566 -7.4759998 0.44600001 2
8.6280003 -7.4990001 0.44800001 2
8.6689997 -7.3969998 0.46200001 2
8.6459999 -7.415 0.458 2
8.5530005 -7.5619998 0.43599999 2
8.6739998 -7.3979998 0.46200001 2
8.6370001 -7.4419999 0.45500001 2
8.6920004 -7.4039998 0.463 2
8.5410004 -7.421 0.44999999 2
8.6300001 -7.4840002 0.44999999 2
8.6780005 -7.4299998 0.45899999 2
8.5970001 -7.5609999 0.43900001 2
8.5819998 -7.4640002 0.44800001 2
8.4989996 -7.4120002 0.447 2
8.6049995 -7.527 0.44400001 2
8.4860001 -7.3779998 0.44999999 2
8.5249996 -7.3839998 0.45199999 2
8.4460001 -7.3569999 0.449 2
8.5459995 -7.4159999 0.44999999 2
8.5 -7.4619999 0.442 2
8.5579996 -7.5910001 0.433 2
8.5760002 -7.3769999 0.45699999 2
8.6110001 -7.5019999 0.447 2
8.4860001 -7.355 0.45199999 2
8.559 -7.5780001 0.435 2
8.5469999 -7.5910001 0.433 2
8.573 -7.4369998 0.44999999 2
8.6800003 -7.4860001 0.454 2
8.5839996 -7.6170001 0.433 2
8.5889997 -7.6739998 0.42699999 2
8.4329996 -7.348 0.449 2
8.6879997 -7.4239998 0.46000001 2
8.6140003 -7.5380001 0.44299999 2
8.5530005 -7.4790001 0.44400001 2
8.6149998 -7.592 0.43799999 2
8.5139999 -7.5009999 0.43900001 2
8.5019999 -7.4250002 0.44600001 2
8.618 -7.5929999 0.43799999 2
8.5480003 -7.5739999 0.43399999 2
8.4890003 -7.447 0.44299999 2
8.6969995 -7.46 0.458 2
8.6560001 -7.506 0.44999999 2
8.6070004 -7.4089999 0.456 2
8.5760002 -7.4840002 0.44600001 2
8.573 -7.4359999 0.44999999 2
8.4860001 -7.3730001 0.44999999 2
8.6389999 -7.5359998 0.44499999 2
8.5170002 -7.5 0.44 2
8.5769997 -7.4239998 0.45199999 2
8.5740004 -7.552 0.43900001 2
8.4860001 -7.388 0.449 2
8.5430002 -7.4050002 0.45100001 2
8.6689997 -7.4980001 0.45100001 2
8.4729996 -7.3730001 0.449 2
8.7049999 -7.4429998 0.46000001 2
8.6990004 -7.4109998 0.463 2
8.592 -7.4219999 0.45300001 2
8.6820002 -7.494 0.45300001 2
8.4890003 -7.4499998 0.44299999 2
8.5290003 -7.4120002 0.44999999 2
8.6949997 -7.4260001 0.461 2
8.592 -7.6939998 0.42500001 2
8.467 -7.415 0.44499999 2
8.5559998 -7.4619999 0.447 2
8.5480003 -7.4559999 0.447 2
8.6040001 -7.579 0.43799999 2
8.6140003 -7.4219999 0.45500001 2
8.5839996 -7.4460001 0.44999999 2
8.5190001 -7.3800001 0.45199999 2
8.6929998 -7.402 0.463 2
8.4870005 -7.395 0.44800001 2
8.6809998 -7.4559999 0.45699999 2
8.7189999 -7.4169998 0.46399999 2
8.5380001 -7.5229998 0.43900001 2
8.6199999 -7.4229999 0.45500001 2
8.6059999 -7.6659999 0.42899999 2
8.5369997 -7.4400001 0.447 2
8.6440001 -7.4629998 0.45300001 2
8.599 -7.665 0.42899999 2
8.533 -7.4910002 0.442 2
8.6049995 -7.4320002 0.45300001 2
8.6190004 -7.5949998 0.43799999 2
8.677 -7.4889998 0.45300001 2
8.7290001 -7.421 0.46399999 2
8.493 -7.415 0.447 2
8.4630003 -7.349 0.45100001 2
8.7220001 -7.428 0.463 2
8.5930004 -7.4369998 0.45199999 2
8.5570002 -7.5819998 0.43399999 2
8.5319996 -7.4200001 0.449 2
8.5979996 -7.6859999 0.42699999 2
8.5959997 -7.533 0.442 2
8.6730003 -7.4640002 0.45500001 2
8.5159998 -7.421 0.44800001 2
8.5900002 -7.408 0.45500001 2
8.5410004 -7.5380001 0.43799999 2
8.6479998 -7.4840002 0.45100001 2
8.6540003 -7.5300002 0.447 2
8.6070004 -7.6490002 0.43099999 2
8.5950003 -7.4489999 0.45100001 2
8.6289997 -7.4650002 0.45199999 2
8.6549997 -7.5110002 0.449 2
8.507 -7.4990001 0.43900001 2
8.5349998 -7.493 0.442 2
8.6450005 -7.473 0.45199999 2
8.5129995 -7.4289999 0.447 2
8.7220001 -7.4400001 0.461 2
8.5550003 -7.5009999 0.442 2
8.5959997 -7.664 0.42899999 2
8.625 -7.5139999 0.44600001 2
8.6709995 -7.5079999 0.45100001 2
8.4619999 -7.395 0.44600001 2
8.6899996 -7.4109998 0.46200001 2
8.6680002 -7.4320002 0.458 2
8.5869999 -7.5079999 0.44400001 2
8.6070004 -7.3829999 0.45899999 2
8.5909996 -7.585 0.43700001 2
8.618 -7.441 0.45300001 2
8.6169996 -7.5830002 0.43900001 2
8.6669998 -7.52 0.449 2
8.6829996 -7.5089998 0.45100001 2
8.5749998 -7.4860001 0.44499999 2
8.5200005 -7.546 0.435 2
8.5389996 -7.4450002 0.447 2
8.566 -7.4569998 0.44800001 2
8.5299997 -7.5229998 0.43799999 2
8.71 -7.4060001 0.46399999 2
8.5600004 -7.4400001 0.449 2
8.5950003 -7.5890002 0.43599999 2
8.5249996 -7.4219999 0.44800001 2
8.5539999 -7.4770002 0.44499999 2
8.4750004 -7.3709998 0.44999999 2
8.6759996 -7.3990002 0.46200001 2
8.6160002 -7.4879999 0.44800001 2
8.5690002 -7.638 0.42899999 2
8.6929998 -7.4710002 0.456 2
8.6059999 -7.5359998 0.44299999 2
8.5120001 -7.4039998 0.449 2
8.5959997 -7.48 0.44800001 2
8.6370001 -7.473 0.45199999 2
8.4940004 -7.369 0.45100001 2
8.5380001 -7.4450002 0.447 2
8.5640001 -7.388 0.45500001 2
8.5979996 -7.4120002 0.45500001 2
8.5769997 -7.6700001 0.42699999 2
8.665 -7.5539999 0.44499999 2
8.6219997 -7.4520001 0.45199999 2
8.6630001 -7.4130001 0.46000001 2
8.6059999 -7.4759998 0.449 2
8.6190004 -7.4970002 0.44800001 2
8.7040005 -7.4070001 0.463 2
8.4960003 -7.415 0.447 2
8.6370001 -7.4200001 0.45699999 2
8.5819998 -7.494 0.44499999 2
8.5939999 -7.6090002 0.43399999 2
8.684 -7.4689999 0.456 2
8.5640001 -7.6220002 0.43099999 2
8.5950003 -7.4990001 0.44600001 2
8.5209999 -7.5009999 0.44 2
8.5039997 -7.3959999 0.449 2
8.6590004 -7.3959999 0.461 2
8.5270004 -7.3930001 0.45100001 2
8.6540003 -7.4580002 0.454 2
8.6269999 -7.5669999 0.44100001 2
8.6309996 -7.6040001 0.43799999 2
8.4729996 -7.3699999 0.44999999 2
8.4700003 -7.4130001 0.44499999 2
8.5559998 -7.4619999 0.44600001 2
8.6820002 -7.4120002 0.461 2
8.6549997 -7.4809999 0.45199999 2
8.5600004 -7.6199999 0.43099999 2
8.6470003 -7.5380001 0.44600001 2
8.6049995 -7.5830002 0.43799999 2
8.5860004 -7.3860002 0.45699999 2
8.6479998 -7.4250002 0.45699999 2
8.625 -7.5630002 0.44100001 2
8.7089996 -7.4559999 0.45899999 2
8.6389999 -7.388 0.46000001 2
8.474 -7.4229999 0.44400001 2
8.5539999 -7.4029999 0.45199999 2
8.6160002 -7.441 0.45300001 2
8.4960003 -7.4180002 0.44600001 2
8.5959997 -7.6599998 0.42899999 2
8.6280003 -7.4359999 0.45500001 2
8.4790001 -7.428 0.44400001 2
8.6560001 -7.579 0.442 2
8.6009998 -7.691 0.426 2
8.5459995 -7.388 0.45300001 2
8.533 -7.427 0.44800001 2
8.5419998 -7.4879999 0.44299999 2
8.6920004 -7.4330001 0.46000001 2
8.6210003 -7.3979998 0.458 2
8.6079998 -7.473 0.449 2
8.6700001 -7.5149999 0.44999999 2
8.5959997 -7.4250002 0.45300001 2
8.6289997 -7.448 0.45300001 2
8.651 -7.4310002 0.45699999 2
8.6459999 -7.3959999 0.46000001 2
8.5670004 -7.3740001 0.456 2
8.6300001 -7.4039998 0.458 2
8.5690002 -7.4629998 0.447 2
8.5369997 -7.5469999 0.43599999 2
8.6210003 -7.6110001 0.43599999 2
8.6289997 -7.454 0.45300001 2
8.5959997 -7.5149999 0.44400001 2
8.4949999 -7.4190001 0.44600001 2
8.5159998 -7.4289999 0.447 2
8.5159998 -7.52 0.43799999 2
8.5080004 -7.395 0.44999999 2
8.4469995 -7.3600001 0.449 2
8.5939999 -7.3769999 0.458 2
8.7080002 -7.467 0.458 2
8.6759996 -7.5320001 0.44800001 2
8.6549997 -7.4749999 0.45300001 2
8.592 -7.6269999 0.43200001 2
8.5179996 -7.427 0.447 2
8.6049995 -7.6659999 0.42899999 2
8.6879997 -7.401 0.463 2
8.6820002 -7.4460001 0.458 2
8.6040001 -7.6669998 0.42899999 2
8.5810003 -7.461 0.449 2
8.5740004 -7.408 0.45300001 2
8.5439997 -7.4530001 0.44600001 2
8.5480003 -7.4549999 0.447 2
8.5489998 -7.4260001 0.44999999 2
8.6079998 -7.6719999 0.42899999 2
8.5939999 -7.5370002 0.442 2
8.585 -7.6040001 0.43399999 2
8.5209999 -7.4590001 0.44400001 2
8.6479998 -7.513 0.44800001 2
8.5340004 -7.4460001 0.44600001 2
8.5290003 -7.5190001 0.43900001 2
8.4879999 -7.4439998 0.44299999 2
8.5419998 -7.4330001 0.44800001 2
8.5609999 -7.3699999 0.456 2
8.5799999 -7.6290002 0.43099999 2
8.6529999 -7.5409999 0.44600001 2
8.6059999 -7.5960002 0.43700001 2
8.6409998 -7.4619999 0.45300001 2
8.5279999 -7.533 0.43700001 2
8.6280003 -7.3889999 0.45899999 2
8.5419998 -7.5339999 0.43799999 2
8.4650002 -7.3990002 0.44600001 2
8.592 -7.4959998 0.44600001 2
8.5939999 -7.658 0.42899999 2
8.6689997 -7.5110002 0.44999999 2
8.5100002 -7.4099998 0.44800001 2
8.6730003 -7.4959998 0.45199999 2
8.5369997 -7.5440001 0.43700001 2
8.6829996 -7.4369998 0.45899999 2
8.5360003 -7.4619999 0.44499999 2
8.6129999 -7.4190001 0.45500001 2
8.5760002 -7.4369998 0.45100001 2
8.4829998 -7.4390001 0.44299999 2
8.6709995 -7.4000001 0.46200001 2
8.566 -7.6209998 0.43099999 2
8.5740004 -7.6149998 0.43200001 2
8.5790005 -7.5219998 0.442 2
8.6230001 -7.599 0.43700001 2
8.5810003 -7.645 0.43000001 2
8.6059999 -7.4569998 0.45100001 2
8.526 -7.5 0.44 2
8.474 -7.3860002 0.44800001 2
8.5970001 -7.5380001 0.442 2
8.6239996 -7.4099998 0.45699999 2
8.684 -7.4679999 0.456 2
8.5950003 -7.6500001 0.43000001 2
8.6120005 -7.6609998 0.43000001 2
8.5209999 -7.4879999 0.44100001 2
8.5790005 -7.5739999 0.43700001 2
8.4770002 -7.4369998 0.44299999 2
8.6379995 -7.4260001 0.456 2
8.5279999 -7.3790002 0.45300001 2
8.4779997 -7.4060001 0.44600001 2
8.4589996 -7.3670001 0.449 2
8.5670004 -7.513 0.442 2
8.6420002 -7.4310002 0.456 2
8.4829998 -7.4089999 0.44600001 2
8.6359997 -7.4569998 0.45300001 2
8.6350002 -7.4229999 0.45699999 2
8.5459995 -7.487 0.44299999 2
8.6079998 -7.3990002 0.45699999 2
8.5909996 -7.5409999 0.44100001 2
8.6000004 -7.6370001 0.43200001 2
8.5620003 -7.4499998 0.44800001 2
