# .PCD v0.7 - Point Cloud Data file format
VERSION 0.7
FIELDS x y z label
SIZE 4 4 4 4
TYPE F F F U
COUNT 1 1 1 1
WIDTH 1575
HEIGHT 1
VIEWPOINT 0 0 0 1 0 0 0
POINTS 1575
DATA ascii
7.816 -6.3460002 0.44499999 2
7.8610001 -6.3520002 0.44999999 2
7.842 -6.3660002 0.45100001 2
7.8099999 -6.3730001 0.449 2
7.6630001 -6.4720001 0.45300001 2
7.6989999 -6.3530002 0.43599999 2
7.7509999 -6.3740001 0.44400001 2
7.6659999 -6.5009999 0.458 2
7.6370001 -6.5 0.456 2
7.7129998 -6.4720001 0.45699999 2
7.7639999 -6.4400001 0.456 2
7.651 -6.4640002 0.45100001 2
7.7199998 -6.3740001 0.442 2
7.7189999 -6.4689999 0.45699999 2
7.6999998 -6.3740001 0.44 2
7.7969999 -6.3610001 0.44600001 2
7.7969999 -6.3829999 0.44999999 2
7.737 -6.3829999 0.44400001 2
7.8169999 -6.4000001 0.454 2
7.6760001 -6.4029999 0.44299999 2
7.6999998 -6.381 0.44100001 2
7.7259998 -6.4569998 0.456 2
7.9310002 -6.3559999 0.456 2
7.7030001 -6.4060001 0.44600001 2
7.744 -6.3649998 0.442 2
7.8169999 -6.329 0.442 2
7.6750002 -6.4120002 0.44400001 2
7.777 -6.4289999 0.456 2
7.7449999 -6.3080001 0.433 2
7.7179999 -6.441 0.45300001 2
7.7220001 -6.3860002 0.44400001 2
7.8260002 -6.388 0.45300001 2
7.8369999 -6.4039998 0.45699999 2
7.8200002 -6.3649998 0.449 2
7.658 -6.428 0.44499999 2
7.7509999 -6.4190001 0.45199999 2
7.7589998 -6.3130002 0.435 2
7.7179999 -6.3179998 0.43200001 2
7.8889999 -6.3319998 0.449 2
7.7189999 -6.46 0.456 2
7.6420002 -6.4959998 0.45500001 2
7.8249998 -6.3839998 0.45199999 2
7.8790002 -6.3340001 0.44800001 2
7.9180002 -6.348 0.454 2
7.9400001 -6.3530002 0.45699999 2
7.737 -6.3920002 0.44600001 2
7.7880001 -6.428 0.456 2
7.7690001 -6.428 0.45500001 2
7.6620002 -6.4299998 0.44600001 2
7.6550002 -6.493 0.456 2
7.7639999 -6.4359999 0.456 2
7.7080002 -6.4650002 0.456 2
7.934 -6.3330002 0.45300001 2
7.7909999 -6.388 0.44999999 2
7.724 -6.4349999 0.45199999 2
7.8169999 -6.4089999 0.456 2
7.7160001 -6.4109998 0.447 2
7.8699999 -6.3850002 0.456 2
7.7259998 -6.3940001 0.44600001 2
7.8410001 -6.3720002 0.45199999 2
7.704 -6.4749999 0.45699999 2
7.8850002 -6.3400002 0.44999999 2
7.8460002 -6.3740001 0.45199999 2
7.8369999 -6.3330002 0.44499999 2
7.651 -6.4899998 0.45500001 2
7.7199998 -6.381 0.44299999 2
7.7220001 -6.4590001 0.456 2
7.7270002 -6.4039998 0.447 2
7.902 -6.3330002 0.44999999 2
7.724 -6.3889999 0.44400001 2
7.7670002 -6.3699999 0.44499999 2
7.7659998 -6.348 0.44100001 2
7.8179998 -6.3260002 0.442 2
7.8720002 -6.329 0.447 2
7.7909999 -6.4239998 0.456 2
7.678 -6.4549999 0.45199999 2
7.7449999 -6.3569999 0.44100001 2
7.8439999 -6.3790002 0.45300001 2
7.6810002 -6.4770002 0.456 2
7.8889999 -6.3429999 0.45100001 2
7.6589999 -6.4679999 0.45199999 2
7.8150001 -6.3319998 0.44299999 2
7.8000002 -6.4130001 0.45500001 2
7.7490001 -6.3150001 0.43399999 2
7.6999998 -6.368 0.43900001 2
7.868 -6.3540001 0.45100001 2
7.6620002 -6.4569998 0.45100001 2
7.796 -6.3260002 0.44 2
7.8099999 -6.3639998 0.447 2
7.809 -6.3660002 0.44800001 2
7.802 -6.4089999 0.454 2
7.7290001 -6.4159999 0.449 2
7.6960001 -6.3940001 0.44299999 2
7.8639998 -6.3870001 0.456 2
7.6560001 -6.4439998 0.44800001 2
7.7160001 -6.3439999 0.43599999 2
7.8109999 -6.329 0.442 2
7.7259998 -6.4000001 0.44600001 2
7.7519999 -6.3179998 0.435 2
7.9109998 -6.3309999 0.45100001 2
7.7290001 -6.4320002 0.45199999 2
7.6810002 -6.3930001 0.44100001 2
7.7509999 -6.414 0.45100001 2
7.6409998 -6.494 0.45500001 2
7.7579999 -6.3959999 0.44800001 2
7.651 -6.4910002 0.45500001 2
7.7750001 -6.3130002 0.43599999 2
7.869 -6.3860002 0.456 2
7.7090001 -6.3449998 0.43599999 2
7.7290001 -6.362 0.44 2
7.7659998 -6.3649998 0.44400001 2
7.7140002 -6.7210002 0.46399999 2
7.7389998 -6.5830002 0.45500001 2
7.6989999 -6.6020002 0.458 2
7.7270002 -6.7119999 0.463 2
7.869 -6.625 0.45100001 2
7.6430001 -6.6009998 0.461 2
7.6890001 -6.6030002 0.458 2
7.8010001 -6.7249999 0.46000001 2
7.8839998 -6.6929998 0.454 2
7.6719999 -6.6960001 0.465 2
7.6739998 -6.566 0.45699999 2
7.8540001 -6.6939998 0.456 2
7.8449998 -6.684 0.456 2
7.881 -6.6500001 0.45199999 2
7.7979999 -6.6469998 0.456 2
7.869 -6.6230001 0.45100001 2
7.723 -6.7639999 0.46700001 2
7.7199998 -6.6160002 0.458 2
7.704 -6.585 0.456 2
7.6799998 -6.6869998 0.46399999 2
7.8369999 -6.7140002 0.458 2
7.756 -6.7360001 0.463 2
7.7750001 -6.6680002 0.458 2
7.652 -6.6680002 0.46399999 2
7.6440001 -6.566 0.458 2
7.8740001 -6.6700001 0.45300001 2
7.79 -6.7399998 0.46200001 2
7.7969999 -6.6329999 0.45500001 2
7.8889999 -6.6420002 0.45100001 2
7.6440001 -6.6139998 0.461 2
7.8520002 -6.6430001 0.45300001 2
7.704 -6.5799999 0.456 2
7.7340002 -6.6129999 0.45699999 2
7.9299998 -6.6389999 0.449 2
7.9590001 -6.6430001 0.447 2
7.7509999 -6.6529999 0.458 2
7.6929998 -6.6550002 0.461 2
7.9299998 -6.6570001 0.44999999 2
7.7810001 -6.6370001 0.456 2
7.7670002 -6.652 0.45699999 2
7.7210002 -6.7639999 0.46700001 2
7.7360001 -6.757 0.46599999 2
7.816 -6.6890001 0.45699999 2
7.7519999 -6.757 0.465 2
7.7930002 -6.724 0.461 2
7.7280002 -6.7080002 0.463 2
7.7129998 -6.6849999 0.46200001 2
7.8499999 -6.6500001 0.45300001 2
7.7319999 -6.7010002 0.46200001 2
7.8049998 -6.6069999 0.45300001 2
7.7020001 -6.6659999 0.46200001 2
7.6459999 -6.5500002 0.45699999 2
7.842 -6.6290002 0.45199999 2
7.7979999 -6.6100001 0.45300001 2
7.9099998 -6.6240001 0.449 2
7.8049998 -6.599 0.45199999 2
7.9050002 -6.6589999 0.45100001 2
7.7709999 -6.73 0.46200001 2
7.7199998 -6.6539998 0.46000001 2
7.8509998 -6.645 0.45300001 2
7.8660002 -6.6789999 0.454 2
7.711 -6.665 0.461 2
7.7080002 -6.5819998 0.456 2
7.8270001 -6.6700001 0.456 2
7.7649999 -6.6760001 0.45899999 2
7.7470002 -6.724 0.463 2
7.8860002 -6.6680002 0.45300001 2
7.7989998 -6.717 0.46000001 2
7.6360002 -6.5570002 0.458 2
7.6539998 -6.6360002 0.46200001 2
7.678 -6.7309999 0.46700001 2
7.7290001 -6.6789999 0.461 2
7.849 -6.6220002 0.45199999 2
7.723 -6.7449999 0.465 2
7.7690001 -6.6300001 0.456 2
7.8369999 -6.632 0.45300001 2
7.7589998 -6.6079998 0.45500001 2
7.8610001 -6.6469998 0.45300001 2
7.9200001 -6.652 0.44999999 2
7.8579998 -6.6830001 0.45500001 2
7.9569998 -6.652 0.44800001 2
7.888 -6.6570001 0.45199999 2
7.8959999 -6.6300001 0.44999999 2
7.6999998 -6.7779999 0.46900001 2
7.9200001 -6.665 0.45100001 2
7.7129998 -6.7210002 0.46399999 2
7.757 -6.6669998 0.45899999 2
7.8899999 -6.6240001 0.44999999 2
7.7820001 -6.711 0.46000001 2
7.7249999 -6.6890001 0.46200001 2
7.8140001 -6.645 0.45500001 2
7.6469998 -6.6490002 0.463 2
7.6230001 -6.566 0.45899999 2
7.618 -6.5689998 0.46000001 2
7.6789999 -6.619 0.46000001 2
7.8390002 -6.6240001 0.45199999 2
7.7410002 -6.7459998 0.465 2
7.7360001 -6.6810002 0.461 2
7.8889999 -6.6739998 0.45300001 2
7.7519999 -6.6220002 0.456 2
7.8400002 -6.664 0.45500001 2
7.8249998 -6.7119999 0.458 2
7.7010002 -6.5910001 0.45699999 2
7.9089999 -6.6420002 0.44999999 2
7.6960001 -6.717 0.465 2
7.6820002 -6.7270002 0.46599999 2
7.8060002 -6.7059999 0.45899999 2
7.7309999 -6.6350002 0.458 2
7.8540001 -6.6789999 0.45500001 2
7.6830001 -6.6440001 0.461 2
7.7750001 -6.6869998 0.45899999 2
7.6789999 -6.7140002 0.46599999 2
7.6550002 -6.6469998 0.463 2
7.6890001 -6.7639999 0.46799999 2
7.6500001 -6.5949998 0.46000001 2
7.77 -6.6880002 0.46000001 2
7.8540001 -6.6960001 0.456 2
7.744 -6.6409998 0.458 2
7.8210001 -6.6700001 0.456 2
7.7049999 -6.671 0.46200001 2
7.8610001 -6.6789999 0.45500001 2
7.6820002 -6.7189999 0.46599999 2
7.8130002 -6.6160002 0.45300001 2
7.6160002 -6.572 0.46000001 2
7.704 -6.6490002 0.46000001 2
7.8559999 -6.6350002 0.45199999 2
7.678 -6.6170001 0.46000001 2
7.8010001 -6.6059999 0.45300001 2
7.6849999 -6.6059999 0.45899999 2
7.822 -6.7220001 0.45899999 2
7.7010002 -6.744 0.46599999 2
7.7470002 -6.7509999 0.465 2
7.7069998 -6.585 0.456 2
7.7459998 -6.6370001 0.458 2
7.79 -6.6620002 0.45699999 2
7.6890001 -6.6040001 0.458 2
7.7729998 -6.6409998 0.45699999 2
7.8449998 -6.6859999 0.456 2
7.71 -6.5749998 0.456 2
7.7389998 -6.6490002 0.45899999 2
7.7080002 -6.6669998 0.461 2
7.8179998 -6.638 0.454 2
7.75 -6.6900001 0.461 2
7.77 -6.6729999 0.45899999 2
7.8109999 -6.6220002 0.45300001 2
7.6849999 -6.7129998 0.465 2
7.71 -6.664 0.461 2
7.77 -6.7259998 0.46200001 2
7.6339998 -6.573 0.45899999 2
7.7519999 -6.6859999 0.46000001 2
7.8049998 -6.6269999 0.454 2
7.8509998 -6.691 0.456 2
7.8340001 -6.6370001 0.45300001 2
7.7119999 -6.7509999 0.46599999 2
7.6550002 -6.5999999 0.46000001 2
7.8119998 -6.618 0.45300001 2
7.7519999 -6.684 0.46000001 2
7.7410002 -6.7379999 0.46399999 2
7.8299999 -6.6199999 0.45199999 2
7.7930002 -6.6409998 0.456 2
7.7030001 -6.5700002 0.456 2
7.9489999 -6.6560001 0.449 2
7.7839999 -6.6430001 0.456 2
7.777 -6.704 0.46000001 2
7.7950001 -6.7030001 0.45899999 2
7.8600001 -6.645 0.45199999 2
7.7119999 -6.6989999 0.463 2
7.6230001 -6.572 0.46000001 2
7.7649999 -6.6360002 0.45699999 2
7.7259998 -6.7680001 0.46700001 2
7.7719998 -6.5910001 0.45300001 2
7.9250002 -6.6729999 0.45100001 2
7.6810002 -6.6479998 0.46200001 2
7.7360001 -6.6609998 0.46000001 2
7.6230001 -6.592 0.461 2
7.6329999 -6.605 0.461 2
7.6659999 -6.6900001 0.465 2
7.829 -6.6719999 0.456 2
7.744 -6.6919999 0.461 2
7.7140002 -6.73 0.465 2
7.8699999 -6.6900001 0.45500001 2
7.632 -6.5799999 0.46000001 2
7.8940001 -6.6900001 0.454 2
7.7069998 -6.7379999 0.46599999 2
7.6220002 -6.5879998 0.461 2
7.658 -6.559 0.45699999 2
7.7259998 -6.691 0.46200001 2
7.6589999 -6.6459999 0.463 2
7.6810002 -6.6609998 0.46200001 2
7.6360002 -6.552 0.458 2
7.6960001 -6.671 0.46200001 2
7.7069998 -6.638 0.46000001 2
7.6539998 -6.5949998 0.46000001 2
7.698 -6.6399999 0.46000001 2
7.7459998 -6.724 0.463 2
7.7309999 -6.6170001 0.45699999 2
7.7909999 -6.652 0.456 2
7.8130002 -6.6929998 0.458 2
7.7160001 -6.5770001 0.45500001 2
7.7519999 -6.717 0.46200001 2
7.7839999 -6.5910001 0.45300001 2
7.6420002 -6.6259999 0.46200001 2
7.7129998 -6.6220002 0.458 2
7.6339998 -6.5479999 0.458 2
7.7249999 -6.7129998 0.463 2
7.8709998 -6.6500001 0.45199999 2
7.7849998 -6.6659999 0.45699999 2
7.671 -6.6030002 0.45899999 2
7.7160001 -6.737 0.465 2
7.829 -6.6589999 0.45500001 2
7.723 -6.5780001 0.45500001 2
7.8390002 -6.6630001 0.45500001 2
7.8449998 -6.71 0.45699999 2
7.671 -6.664 0.463 2
7.7350001 -6.7290001 0.46399999 2
7.8730001 -6.6929998 0.45500001 2
7.704 -6.586 0.456 2
7.7150002 -6.652 0.46000001 2
7.7160001 -6.7579999 0.46700001 2
7.73 -6.7670002 0.46700001 2
7.9159999 -6.677 0.45199999 2
7.6360002 -6.5469999 0.458 2
7.6919999 -6.598 0.458 2
7.684 -6.5710001 0.45699999 2
7.743 -6.6030002 0.456 2
7.7319999 -6.7030001 0.46200001 2
7.7600002 -6.7540002 0.46399999 2
7.763 -6.5890002 0.454 2
7.836 -6.6560001 0.454 2
7.645 -6.6459999 0.463 2
7.7220001 -6.572 0.45500001 2
7.737 -6.6539998 0.45899999 2
7.7410002 -6.5960002 0.45500001 2
7.7080002 -6.6529999 0.46000001 2
7.6989999 -6.605 0.458 2
7.724 -6.7709999 0.46700001 2
7.6939998 -6.5879998 0.45699999 2
7.8709998 -6.6880002 0.45500001 2
7.7470002 -6.6420002 0.458 2
7.744 -6.6389999 0.458 2
7.802 -6.7179999 0.46000001 2
7.6739998 -6.5700002 0.45699999 2
7.8709998 -6.6259999 0.45100001 2
7.7360001 -6.579 0.454 2
7.7030001 -6.6849999 0.463 2
7.6620002 -6.5910001 0.45899999 2
7.7459998 -6.5910001 0.45500001 2
7.7719998 -6.6490002 0.45699999 2
7.8099999 -6.677 0.45699999 2
7.7020001 -6.71 0.46399999 2
7.7969999 -6.6950002 0.45899999 2
7.6880002 -6.7449999 0.46700001 2
7.763 -6.6630001 0.458 2
7.6810002 -6.5799999 0.45699999 2
7.6869998 -6.7199998 0.46599999 2
7.8520002 -6.7080002 0.45699999 2
7.7709999 -6.6950002 0.46000001 2
7.7979999 -6.6339998 0.45500001 2
7.6929998 -6.7420001 0.46700001 2
7.6859999 -6.7160001 0.46599999 2
7.7740002 -6.619 0.45500001 2
7.8000002 -6.6929998 0.458 2
7.7090001 -6.691 0.463 2
7.6570001 -6.5900002 0.45899999 2
7.8800001 -6.664 0.45300001 2
7.7589998 -6.7319999 0.463 2
7.7979999 -6.6789999 0.458 2
7.717 -6.7270002 0.465 2
7.7259998 -6.5939999 0.456 2
7.6869998 -6.6739998 0.463 2
7.6919999 -6.6139998 0.45899999 2
7.645 -6.6389999 0.463 2
7.7010002 -6.723 0.465 2
7.7950001 -6.6430001 0.456 2
7.9159999 -6.6370001 0.449 2
7.6290002 -6.5760002 0.46000001 2
7.7600002 -6.6209998 0.456 2
7.8460002 -6.6539998 0.454 2
7.7589998 -6.6240001 0.456 2
7.6929998 -6.6939998 0.46399999 2
7.803 -6.717 0.46000001 2
7.796 -6.7129998 0.46000001 2
7.71 -6.6960001 0.463 2
7.7800002 -6.6999998 0.46000001 2
7.7069998 -6.6669998 0.461 2
7.8119998 -6.684 0.45699999 2
7.7340002 -6.677 0.461 2
7.6659999 -6.5890002 0.45899999 2
7.652 -6.6690001 0.46399999 2
7.902 -6.678 0.45199999 2
7.6350002 -6.5739999 0.45899999 2
7.7800002 -6.6830001 0.45899999 2
7.7610002 -6.6079998 0.45500001 2
7.8060002 -6.6869998 0.458 2
7.77 -6.7150002 0.461 2
7.7129998 -6.7750001 0.46799999 2
7.6799998 -6.7090001 0.465 2
7.842 -6.7010002 0.45699999 2
7.8740001 -6.6479998 0.45199999 2
7.7859998 -6.5900002 0.45300001 2
7.8699999 -6.6139998 0.44999999 2
7.7150002 -6.7270002 0.465 2
7.744 -6.7589998 0.465 2
7.6300001 -6.5619998 0.45899999 2
7.6750002 -6.5929999 0.458 2
7.835 -6.6490002 0.454 2
7.6890001 -6.7389998 0.46700001 2
7.7670002 -6.665 0.458 2
7.8080001 -6.711 0.45899999 2
7.651 -6.5939999 0.46000001 2
7.8319998 -6.6760001 0.456 2
7.7849998 -6.6079998 0.454 2
7.7160001 -6.5900002 0.456 2
7.6030002 -6.5419998 0.45899999 2
7.7259998 -6.5890002 0.456 2
7.6820002 -6.5999999 0.458 2
7.816 -6.652 0.45500001 2
7.6989999 -6.6700001 0.46200001 2
7.6570001 -6.5689998 0.458 2
7.7389998 -6.6599998 0.45899999 2
7.8559999 -6.6950002 0.456 2
7.7529998 -6.5970001 0.45500001 2
7.7290001 -6.7540002 0.46599999 2
7.6529999 -6.678 0.465 2
7.665 -6.5939999 0.45899999 2
7.9169998 -6.6300001 0.449 2
7.7270002 -6.7519999 0.46599999 2
7.8629999 -6.6820002 0.45500001 2
7.6719999 -6.6350002 0.461 2
7.7729998 -6.7389998 0.463 2
7.8509998 -6.6560001 0.454 2
7.7550001 -6.7379999 0.463 2
7.7420001 -6.677 0.46000001 2
7.6350002 -6.6139998 0.46200001 2
7.6409998 -6.5929999 0.46000001 2
7.7470002 -6.6220002 0.45699999 2
7.7010002 -6.645 0.46000001 2
7.6230001 -6.5479999 0.458 2
7.6199999 -6.5900002 0.461 2
7.8439999 -6.7020001 0.45699999 2
7.7810001 -6.6690001 0.458 2
7.6539998 -6.5679998 0.458 2
7.921 -6.665 0.45100001 2
7.6630001 -6.5900002 0.45899999 2
7.7280002 -6.6869998 0.46200001 2
7.9029999 -6.6360002 0.44999999 2
7.71 -6.6999998 0.463 2
7.724 -6.6040001 0.45699999 2
7.6719999 -6.638 0.461 2
7.8330002 -6.6810002 0.456 2
7.6919999 -6.6630001 0.46200001 2
7.7309999 -6.6960001 0.46200001 2
7.6960001 -6.7579999 0.46799999 2
7.8060002 -6.665 0.456 2
7.7319999 -6.6290002 0.458 2
7.6279998 -6.5479999 0.458 2
7.9439998 -6.6350002 0.44800001 2
7.6729999 -6.6170001 0.46000001 2
7.737 -6.625 0.45699999 2
7.9000001 -6.671 0.45199999 2
7.777 -6.5890002 0.45300001 2
7.8790002 -6.6399999 0.45100001 2
7.737 -6.7319999 0.46399999 2
7.8109999 -6.6929998 0.458 2
7.677 -6.6020002 0.45899999 2
7.7839999 -6.6399999 0.456 2
7.6929998 -6.7360001 0.46599999 2
7.6919999 -6.7069998 0.465 2
7.7870002 -6.6300001 0.45500001 2
7.744 -6.7620001 0.46599999 2
7.8460002 -6.7119999 0.45699999 2
7.8249998 -6.7020001 0.458 2
7.6919999 -6.691 0.46399999 2
7.7490001 -6.6040001 0.45500001 2
7.829 -6.6279998 0.45300001 2
7.737 -6.6999998 0.46200001 2
7.776 -6.6110001 0.454 2
7.7030001 -6.631 0.45899999 2
7.7210002 -6.7670002 0.46700001 2
7.8740001 -6.665 0.45300001 2
7.744 -6.7360001 0.46399999 2
7.6799998 -6.6589999 0.46200001 2
7.6919999 -6.7069998 0.465 2
7.8000002 -6.691 0.458 2
7.8649998 -6.6789999 0.454 2
7.875 -6.677 0.454 2
7.6620002 -6.6669998 0.46399999 2
7.6599998 -6.671 0.46399999 2
7.7259998 -6.743 0.465 2
7.71 -6.6240001 0.45899999 2
7.7639999 -6.7249999 0.46200001 2
7.777 -6.7290001 0.46200001 2
7.8210001 -6.6339998 0.454 2
7.7010002 -6.7340002 0.46599999 2
7.8600001 -6.6389999 0.45199999 2
7.6389999 -6.6090002 0.461 2
7.6669998 -6.6680002 0.463 2
7.763 -6.7480001 0.46399999 2
7.835 -6.6599998 0.45500001 2
7.6350002 -6.6040001 0.461 2
7.8759999 -6.6789999 0.454 2
7.6680002 -6.579 0.458 2
7.7399998 -6.631 0.45699999 2
7.8189998 -6.631 0.454 2
7.7420001 -6.631 0.45699999 2
7.9439998 -6.664 0.44999999 2
7.9060001 -6.658 0.45100001 2
7.7309999 -6.7280002 0.46399999 2
7.7329998 -6.7680001 0.46599999 2
7.8270001 -6.6950002 0.45699999 2
7.665 -6.6890001 0.465 2
7.6230001 -6.5799999 0.46000001 2
7.638 -6.6339998 0.463 2
7.7059999 -6.5890002 0.45699999 2
7.6669998 -6.625 0.461 2
7.7379999 -6.7210002 0.463 2
7.7810001 -6.6680002 0.458 2
7.816 -6.6960001 0.458 2
7.6500001 -6.5960002 0.46000001 2
7.8870001 -6.6609998 0.45199999 2
7.7449999 -6.6139998 0.456 2
7.7719998 -6.697 0.46000001 2
7.8660002 -6.6939998 0.45500001 2
7.743 -6.6360002 0.458 2
7.6950002 -6.7399998 0.46700001 2
7.757 -6.619 0.456 2
7.7820001 -6.6230001 0.45500001 2
7.6399999 -6.6100001 0.461 2
7.7810001 -6.743 0.46200001 2
7.7909999 -6.6409998 0.456 2
7.7150002 -6.7199998 0.46399999 2
7.9159999 -6.652 0.44999999 2
7.9559999 -6.6459999 0.44800001 2
7.8959999 -6.6750002 0.45300001 2
7.8410001 -6.4400001 0.456 2
7.9809999 -6.5679998 0.449 2
7.7010002 -6.5029998 0.45699999 2
7.6719999 -6.5339999 0.45699999 2
7.8639998 -6.5250001 0.45300001 2
7.9190001 -6.4380002 0.45500001 2
7.6360002 -6.5229998 0.458 2
7.96 -6.4549999 0.45300001 2
7.8959999 -6.4180002 0.456 2
7.8299999 -6.4520001 0.456 2
7.8579998 -6.5640001 0.45199999 2
7.8850002 -6.4400001 0.45500001 2
7.9660001 -6.5159998 0.45100001 2
7.9450002 -6.381 0.456 2
7.9780002 -6.5139999 0.45100001 2
7.9629998 -6.6290002 0.447 2
7.914 -6.4390001 0.45500001 2
7.8839998 -6.527 0.45199999 2
7.915 -6.4219999 0.45500001 2
7.9790001 -6.612 0.447 2
7.7150002 -6.553 0.456 2
7.934 -6.5170002 0.45199999 2
7.6859999 -6.5580001 0.456 2
7.7870002 -6.4439998 0.45699999 2
7.9070001 -6.4959998 0.45300001 2
7.836 -6.454 0.456 2
7.796 -6.5320001 0.454 2
7.7940001 -6.461 0.45699999 2
7.9629998 -6.447 0.45300001 2
7.8579998 -6.4580002 0.45500001 2
7.9159999 -6.3940001 0.456 2
7.9580002 -6.5749998 0.449 2
7.8920002 -6.3829999 0.45699999 2
7.9180002 -6.5999999 0.449 2
7.8579998 -6.6059999 0.44999999 2
7.6609998 -6.5050001 0.458 2
7.921 -6.5710001 0.44999999 2
7.9029999 -6.487 0.45300001 2
7.9050002 -6.4759998 0.454 2
7.678 -6.5440001 0.45699999 2
7.8839998 -6.4980001 0.45300001 2
7.8990002 -6.506 0.45300001 2
7.822 -6.441 0.45699999 2
7.8060002 -6.4889998 0.45500001 2
7.711 -6.4920001 0.458 2
7.8769999 -6.402 0.45699999 2
7.816 -6.5570002 0.45300001 2
7.948 -6.381 0.456 2
7.855 -6.5890002 0.45100001 2
7.941 -6.4990001 0.45199999 2
7.9289999 -6.4320002 0.45500001 2
7.9710002 -6.4000001 0.45500001 2
7.9320002 -6.4159999 0.45500001 2
7.8400002 -6.4910002 0.45500001 2
7.8150001 -6.5650001 0.45300001 2
7.9159999 -6.5009999 0.45300001 2
7.9390001 -6.6290002 0.44800001 2
7.96 -6.5760002 0.449 2
7.9050002 -6.5469999 0.45100001 2
7.9559999 -6.6350002 0.447 2
7.9829998 -6.5760002 0.449 2
7.802 -6.4970002 0.45500001 2
7.9130001 -6.553 0.45100001 2
7.928 -6.4429998 0.454 2
7.8010001 -6.513 0.45500001 2
7.908 -6.5289998 0.45199999 2
7.881 -6.4229999 0.456 2
7.8740001 -6.4770002 0.454 2
7.9219999 -6.434 0.45500001 2
7.927 -6.3660002 0.45699999 2
7.9419999 -6.5999999 0.449 2
7.6890001 -6.4959998 0.458 2
7.6919999 -6.5560002 0.456 2
7.9190001 -6.4580002 0.454 2
7.816 -6.552 0.45300001 2
7.6820002 -6.546 0.45699999 2
7.789 -6.4829998 0.456 2
7.6890001 -6.5469999 0.456 2
7.9419999 -6.4330001 0.454 2
7.902 -6.5229998 0.45199999 2
7.802 -6.4320002 0.45699999 2
7.7319999 -6.5560002 0.45500001 2
7.8569999 -6.552 0.45199999 2
7.9749999 -6.5770001 0.449 2
7.8130002 -6.5619998 0.45300001 2
7.8379998 -6.5900002 0.45100001 2
7.9689999 -6.5440001 0.44999999 2
7.882 -6.546 0.45199999 2
7.651 -6.5190001 0.458 2
7.9029999 -6.5999999 0.44999999 2
7.8099999 -6.5679998 0.45300001 2
7.7779999 -6.4749999 0.45699999 2
7.9439998 -6.5300002 0.45100001 2
7.9710002 -6.4320002 0.454 2
7.7579999 -6.5050001 0.456 2
7.9770002 -6.5910001 0.44800001 2
7.9549999 -6.4180002 0.454 2
7.9400001 -6.3709998 0.456 2
7.6290002 -6.5250001 0.458 2
7.7919998 -6.4650002 0.45699999 2
7.868 -6.5580001 0.45199999 2
7.757 -6.473 0.45699999 2
7.9619999 -6.408 0.45500001 2
7.8499999 -6.4520001 0.456 2
7.901 -6.4489999 0.45500001 2
7.6719999 -6.5079999 0.458 2
7.9590001 -6.5630002 0.44999999 2
7.9590001 -6.4089999 0.45500001 2
7.947 -6.408 0.45500001 2
7.7779999 -6.5749998 0.45300001 2
7.8759999 -6.5679998 0.45100001 2
7.8400002 -6.4699998 0.45500001 2
7.7969999 -6.473 0.456 2
7.974 -6.6209998 0.447 2
7.7969999 -6.5370002 0.454 2
7.8179998 -6.5760002 0.45199999 2
7.9400001 -6.5380001 0.45100001 2
7.947 -6.3790002 0.456 2
7.9070001 -6.5 0.45300001 2
7.8600001 -6.552 0.45199999 2
7.7449999 -6.5749998 0.454 2
7.9000001 -6.388 0.45699999 2
7.8060002 -6.467 0.456 2
7.8769999 -6.4899998 0.454 2
7.9419999 -6.5949998 0.449 2
7.9650002 -6.4089999 0.454 2
7.9089999 -6.586 0.44999999 2
7.7909999 -6.5339999 0.454 2
7.8189998 -6.4200001 0.45699999 2
7.8280001 -6.4260001 0.45699999 2
7.9029999 -6.6020002 0.44999999 2
7.7870002 -6.4629998 0.45699999 2
7.7649999 -6.5489998 0.454 2
7.9749999 -6.3850002 0.45500001 2
7.789 -6.54 0.454 2
7.9819999 -6.6279998 0.447 2
7.855 -6.4050002 0.45699999 2
7.8189998 -6.52 0.454 2
7.7459998 -6.4689999 0.458 2
7.8340001 -6.5370002 0.45300001 2
7.6929998 -6.4910002 0.458 2
7.974 -6.5609999 0.449 2
7.776 -6.5640001 0.454 2
7.7859998 -6.4899998 0.456 2
7.796 -6.585 0.45300001 2
7.881 -6.4099998 0.456 2
7.802 -6.5250001 0.454 2
7.8569999 -6.4429998 0.456 2
7.7719998 -6.5079999 0.456 2
7.9759998 -6.447 0.45300001 2
7.651 -6.546 0.45699999 2
7.704 -6.5500002 0.456 2
7.928 -6.4200001 0.45500001 2
7.9359999 -6.4619999 0.45300001 2
7.9710002 -6.4039998 0.454 2
7.9569998 -6.6350002 0.447 2
7.6409998 -6.5180001 0.458 2
7.921 -6.507 0.45199999 2
7.8930001 -6.5640001 0.45100001 2
7.9330001 -6.5500002 0.45100001 2
7.8629999 -6.4959998 0.454 2
7.823 -6.4330001 0.45699999 2
7.8119998 -6.4380002 0.45699999 2
7.9359999 -6.4099998 0.45500001 2
7.9679999 -6.5900002 0.44800001 2
7.9320002 -6.5250001 0.45100001 2
7.77 -6.533 0.45500001 2
7.9510002 -6.4390001 0.454 2
7.7950001 -6.4650002 0.45699999 2
7.7199998 -6.4949999 0.45699999 2
7.954 -6.448 0.45300001 2
7.7909999 -6.5669999 0.45300001 2
7.8140001 -6.5630002 0.45300001 2
7.737 -6.559 0.45500001 2
7.915 -6.5479999 0.45100001 2
7.9060001 -6.4850001 0.45300001 2
7.6750002 -6.5040002 0.458 2
7.9250002 -6.3790002 0.456 2
7.8270001 -6.573 0.45199999 2
7.8010001 -6.5040002 0.45500001 2
7.9180002 -6.5279999 0.45199999 2
7.901 -6.3870001 0.45699999 2
7.9640002 -6.3499999 0.456 2
7.974 -6.6389999 0.447 2
7.9679999 -6.5359998 0.44999999 2
7.888 -6.441 0.45500001 2
7.8369999 -6.5419998 0.45300001 2
7.7480001 -6.5760002 0.454 2
7.9749999 -6.612 0.44800001 2
7.7789998 -6.4460001 0.458 2
7.79 -6.4910002 0.456 2
7.7709999 -6.4980001 0.456 2
7.7600002 -6.5510001 0.45500001 2
7.632 -6.5440001 0.458 2
7.9660001 -6.3769999 0.45500001 2
7.6939998 -6.5510001 0.456 2
7.9109998 -6.4450002 0.45500001 2
7.9580002 -6.4099998 0.45500001 2
7.7719998 -6.507 0.456 2
7.9619999 -6.454 0.45300001 2
7.7459998 -6.5110002 0.456 2
7.9439998 -6.4200001 0.45500001 2
7.652 -6.5219998 0.458 2
7.8899999 -6.599 0.44999999 2
7.8870001 -6.4460001 0.45500001 2
7.9400001 -6.4780002 0.45300001 2
7.8660002 -6.5419998 0.45199999 2
7.8280001 -6.5040002 0.45500001 2
7.7519999 -6.5580001 0.454 2
7.98 -6.619 0.447 2
7.79 -6.546 0.454 2
7.8169999 -6.421 0.45699999 2
7.8330002 -6.5809999 0.45199999 2
7.9510002 -6.572 0.449 2
7.7340002 -6.5100002 0.456 2
7.7740002 -6.448 0.458 2
7.9310002 -6.3730001 0.456 2
7.928 -6.4039998 0.45500001 2
7.7709999 -6.5 0.456 2
7.914 -6.4840002 0.45300001 2
7.9580002 -6.5110002 0.45100001 2
7.9619999 -6.4200001 0.454 2
7.7779999 -6.5100002 0.45500001 2
7.8720002 -6.461 0.45500001 2
7.9460001 -6.3520002 0.45699999 2
7.7610002 -6.5019999 0.456 2
7.7859998 -6.4780002 0.456 2
7.9549999 -6.3590002 0.456 2
7.9749999 -6.625 0.447 2
7.6810002 -6.5570002 0.456 2
7.888 -6.4180002 0.456 2
7.9159999 -6.6199999 0.449 2
7.9829998 -6.572 0.449 2
7.9130001 -6.5229998 0.45199999 2
7.8930001 -6.493 0.45300001 2
7.8990002 -6.447 0.45500001 2
7.7150002 -6.5359998 0.456 2
7.7399998 -6.5180001 0.456 2
7.9109998 -6.4109998 0.456 2
7.869 -6.6059999 0.44999999 2
7.9050002 -6.4809999 0.45300001 2
7.802 -6.527 0.454 2
7.8369999 -6.4970002 0.45500001 2
7.8179998 -6.513 0.454 2
7.7069998 -6.5009999 0.45699999 2
7.9749999 -6.6069999 0.44800001 2
7.8740001 -6.4910002 0.454 2
7.8439999 -6.5479999 0.45300001 2
7.9000001 -6.4720001 0.454 2
7.7020001 -6.546 0.456 2
7.7930002 -6.4860001 0.456 2
7.823 -6.573 0.45199999 2
7.7030001 -6.5570002 0.456 2
7.9169998 -6.6230001 0.449 2
7.836 -6.474 0.45500001 2
7.842 -6.4959998 0.454 2
7.8800001 -6.4860001 0.454 2
7.921 -6.5780001 0.44999999 2
7.8990002 -6.4720001 0.454 2
7.7350001 -6.4980001 0.45699999 2
7.9439998 -6.5700002 0.44999999 2
7.8559999 -6.6030002 0.45100001 2
7.7810001 -6.5149999 0.45500001 2
7.8049998 -6.4679999 0.456 2
7.96 -6.585 0.449 2
7.928 -6.4060001 0.45500001 2
7.8000002 -6.5900002 0.45199999 2
7.7140002 -6.5170002 0.45699999 2
7.8969998 -6.4949999 0.45300001 2
7.7389998 -6.539 0.45500001 2
7.8400002 -6.5960002 0.45100001 2
7.9530001 -6.474 0.45300001 2
7.9790001 -6.6220002 0.447 2
7.7420001 -6.5209999 0.456 2
7.7859998 -6.4710002 0.45699999 2
7.6739998 -6.5240002 0.45699999 2
7.7379999 -6.5430002 0.45500001 2
7.6490002 -6.5510001 0.45699999 2
7.7820001 -6.586 0.45300001 2
7.9770002 -6.552 0.44999999 2
7.9640002 -6.6100001 0.44800001 2
7.895 -6.421 0.456 2
7.7709999 -6.546 0.454 2
7.9299998 -6.5749998 0.44999999 2
7.7309999 -6.4959998 0.45699999 2
7.9629998 -6.5469999 0.44999999 2
7.698 -6.5079999 0.45699999 2
7.881 -6.4619999 0.45500001 2
7.7849998 -6.5869999 0.45300001 2
7.7490001 -6.5489998 0.45500001 2
7.8210001 -6.5419998 0.45300001 2
7.9679999 -6.4809999 0.45199999 2
7.7600002 -6.5770001 0.454 2
7.8940001 -6.5809999 0.44999999 2
7.9250002 -6.4099998 0.45500001 2
7.8470001 -6.5310001 0.45300001 2
7.8309999 -6.4619999 0.456 2
7.8410001 -6.5120001 0.454 2
7.9520001 -6.4250002 0.454 2
7.9640002 -6.6269999 0.447 2
7.8270001 -6.5549998 0.45300001 2
7.9439998 -6.54 0.45100001 2
7.9710002 -6.5450001 0.44999999 2
7.9629998 -6.473 0.45199999 2
7.8889999 -6.526 0.45199999 2
7.9569998 -6.5029998 0.45199999 2
7.8660002 -6.5419998 0.45199999 2
7.9770002 -6.5339999 0.44999999 2
7.9380002 -6.4650002 0.45300001 2
7.9460001 -6.415 0.45500001 2
7.7779999 -6.5149999 0.45500001 2
7.96 -6.4439998 0.45300001 2
7.921 -6.5450001 0.45100001 2
7.9569998 -6.3990002 0.45500001 2
7.9679999 -6.4650002 0.45300001 2
7.9130001 -6.4359999 0.45500001 2
7.8800001 -6.4190001 0.456 2
7.934 -6.5409999 0.45100001 2
7.8309999 -6.5469999 0.45300001 2
7.895 -6.5310001 0.45199999 2
7.7639999 -6.5580001 0.454 2
7.7709999 -6.5799999 0.45300001 2
7.7610002 -6.5710001 0.454 2
7.8800001 -6.6069999 0.44999999 2
7.8850002 -6.4130001 0.456 2
7.9099998 -6.4050002 0.456 2
7.8579998 -6.4829998 0.454 2
7.8410001 -6.441 0.456 2
7.8470001 -6.4429998 0.456 2
7.9530001 -6.4679999 0.45300001 2
7.9000001 -6.4419999 0.45500001 2
7.6939998 -6.5190001 0.45699999 2
7.7350001 -6.4809999 0.45699999 2
7.777 -6.4569998 0.45699999 2
7.9489999 -6.4099998 0.45500001 2
7.9180002 -6.4650002 0.454 2
7.8379998 -6.4219999 0.45699999 2
7.8990002 -6.4899998 0.45300001 2
7.9510002 -6.4239998 0.454 2
7.8779998 -6.5089998 0.45300001 2
7.7690001 -6.5079999 0.456 2
7.8280001 -6.5609999 0.45300001 2
7.882 -6.526 0.45300001 2
7.7950001 -6.4619999 0.45699999 2
7.928 -6.4039998 0.45500001 2
7.882 -6.421 0.456 2
7.9460001 -6.3959999 0.45500001 2
7.816 -6.46 0.456 2
7.915 -6.585 0.44999999 2
7.842 -6.5469999 0.45300001 2
7.8330002 -6.4759998 0.45500001 2
7.835 -6.4530001 0.456 2
7.954 -6.427 0.454 2
7.7969999 -6.4770002 0.456 2
7.9349999 -6.5510001 0.44999999 2
7.7620001 -6.4749999 0.45699999 2
7.8790002 -6.553 0.45199999 2
7.9580002 -6.4559999 0.45300001 2
7.9489999 -6.6040001 0.44800001 2
7.9239998 -6.5289998 0.45100001 2
7.8559999 -6.507 0.454 2
7.8740001 -6.4330001 0.456 2
7.835 -6.533 0.45300001 2
7.9050002 -6.5510001 0.45100001 2
7.8280001 -6.428 0.45699999 2
7.8189998 -6.4219999 0.45699999 2
7.8769999 -6.6040001 0.44999999 2
7.9569998 -6.3850002 0.45500001 2
7.7449999 -6.5749998 0.454 2
7.7940001 -6.553 0.454 2
7.79 -6.4899998 0.456 2
7.8930001 -6.5650001 0.45100001 2
7.9549999 -6.4889998 0.45199999 2
7.6760001 -6.552 0.456 2
7.8379998 -6.5450001 0.45300001 2
7.8930001 -6.4559999 0.45500001 2
7.9699998 -6.5599999 0.449 2
7.6820002 -6.506 0.458 2
7.9499998 -6.5819998 0.449 2
7.869 -6.5479999 0.45199999 2
7.829 -6.427 0.45699999 2
7.8109999 -6.5799999 0.45199999 2
7.895 -6.4310002 0.45500001 2
7.8499999 -6.5809999 0.45100001 2
7.868 -6.5549998 0.45199999 2
7.9060001 -6.5320001 0.45199999 2
7.7140002 -6.4920001 0.458 2
7.9580002 -6.6090002 0.44800001 2
7.7820001 -6.467 0.45699999 2
7.9650002 -6.3979998 0.45500001 2
7.8340001 -6.6009998 0.45100001 2
7.9369998 -6.5089998 0.45199999 2
7.9629998 -6.6290002 0.447 2
7.9759998 -6.5890002 0.44800001 2
7.7459998 -6.4860001 0.45699999 2
7.9349999 -6.487 0.45300001 2
7.9819999 -6.573 0.449 2
7.678 -6.5549998 0.456 2
7.7750001 -6.4679999 0.45699999 2
7.836 -6.46 0.456 2
7.8429999 -6.4580002 0.456 2
7.8579998 -6.4029999 0.45699999 2
7.9349999 -6.3740001 0.456 2
7.9250002 -6.3740001 0.456 2
7.7249999 -6.4850001 0.45699999 2
7.9050002 -6.4829998 0.45300001 2
7.7579999 -6.5440001 0.45500001 2
7.8309999 -6.5170002 0.454 2
7.8899999 -6.4380002 0.45500001 2
7.9039998 -6.6160002 0.449 2
7.9130001 -6.4889998 0.45300001 2
7.8889999 -6.4819999 0.454 2
7.9689999 -6.586 0.449 2
7.9710002 -6.4819999 0.45199999 2
7.9699998 -6.5560002 0.44999999 2
7.9840002 -6.6220002 0.447 2
7.8130002 -6.4549999 0.456 2
7.8850002 -6.4780002 0.454 2
7.9489999 -6.3559999 0.45699999 2
7.9660001 -6.6170001 0.44800001 2
7.914 -6.573 0.44999999 2
7.848 -6.5 0.454 2
7.6529999 -6.5219998 0.458 2
7.875 -6.4190001 0.456 2
7.7399998 -6.4850001 0.45699999 2
7.8909998 -6.4970002 0.45300001 2
7.973 -6.6079998 0.44800001 2
7.8670001 -6.5180001 0.45300001 2
7.7639999 -6.4660001 0.45699999 2
7.8080001 -6.4959998 0.45500001 2
7.7880001 -6.4369998 0.458 2
7.7550001 -6.5689998 0.454 2
7.6059999 -6.5370002 0.45899999 2
7.7989998 -6.461 0.45699999 2
7.7779999 -6.5380001 0.45500001 2
7.9710002 -6.4759998 0.45199999 2
7.921 -6.4580002 0.454 2
7.9510002 -6.4289999 0.454 2
7.9530001 -6.6199999 0.44800001 2
7.9699998 -6.4510002 0.45300001 2
7.9320002 -6.6030002 0.449 2
7.9640002 -6.4109998 0.454 2
7.8959999 -6.4089999 0.456 2
7.7470002 -6.5669999 0.454 2
7.7490001 -6.5599999 0.454 2
7.9819999 -6.6079998 0.44800001 2
7.697 -6.552 0.456 2
7.7989998 -6.5469999 0.454 2
7.7490001 -6.527 0.456 2
7.7719998 -6.585 0.45300001 2
7.7789998 -6.546 0.454 2
7.9629998 -6.3590002 0.456 2
7.9530001 -6.566 0.44999999 2
7.9759998 -6.5320001 0.44999999 2
7.9460001 -6.54 0.45100001 2
7.7519999 -6.52 0.456 2
7.7820001 -6.4619999 0.45699999 2
7.9439998 -6.4330001 0.454 2
7.9000001 -6.447 0.45500001 2
7.8369999 -6.4949999 0.45500001 2
7.7540002 -6.5700002 0.454 2
7.7820001 -6.46 0.45699999 2
7.8759999 -6.5120001 0.45300001 2
7.7859998 -6.48 0.456 2
7.855 -6.5539999 0.45199999 2
7.927 -6.448 0.454 2
7.868 -6.5539999 0.45199999 2
7.9499998 -6.632 0.447 2
7.8150001 -6.4310002 0.45699999 2
7.967 -6.3639998 0.456 2
7.8150001 -6.5970001 0.45199999 2
7.7919998 -6.5599999 0.454 2
7.8280001 -6.5970001 0.45100001 2
7.8439999 -6.6040001 0.45100001 2
7.8639998 -6.4549999 0.45500001 2
7.8959999 -6.5549998 0.45100001 2
7.6659999 -6.5219998 0.458 2
7.8660002 -6.6110001 0.44999999 2
7.8769999 -6.5939999 0.44999999 2
7.7509999 -6.5359998 0.45500001 2
7.6570001 -6.5190001 0.458 2
7.9380002 -6.428 0.454 2
7.947 -6.3559999 0.45699999 2
7.914 -6.494 0.45300001 2
7.6869998 -6.5089998 0.458 2
7.9450002 -6.6300001 0.44800001 2
7.9439998 -6.6139998 0.44800001 2
7.7950001 -6.5630002 0.45300001 2
7.901 -6.5279999 0.45199999 2
7.8649998 -6.4780002 0.454 2
7.7909999 -6.5190001 0.45500001 2
7.8920002 -6.4520001 0.45500001 2
7.9369998 -6.3699999 0.456 2
7.974 -6.4200001 0.454 2
7.8779998 -6.454 0.45500001 2
7.8800001 -6.4169998 0.456 2
7.947 -6.5929999 0.449 2
7.7909999 -6.5570002 0.454 2
7.6700001 -6.5310001 0.45699999 2
7.836 -6.5819998 0.45199999 2
7.7189999 -6.5349998 0.456 2
7.9190001 -6.5139999 0.45199999 2
7.8000002 -6.4790001 0.456 2
7.763 -6.5009999 0.456 2
7.848 -6.447 0.456 2
7.8270001 -6.5089998 0.454 2
7.921 -6.473 0.45300001 2
7.835 -6.4369998 0.45699999 2
7.9660001 -6.3449998 0.45699999 2
7.8909998 -6.6139998 0.449 2
7.869 -6.4439998 0.456 2
7.8899999 -6.533 0.45199999 2
7.684 -6.533 0.45699999 2
7.803 -6.4330001 0.45699999 2
7.9380002 -6.6059999 0.449 2
7.7670002 -6.5079999 0.456 2
7.928 -6.4180002 0.45500001 2
7.9759998 -6.4559999 0.45300001 2
7.8509998 -6.467 0.45500001 2
7.8639998 -6.5549998 0.45199999 2
7.763 -6.4949999 0.456 2
7.7680001 -6.4520001 0.458 2
7.8249998 -6.4439998 0.45699999 2
7.8000002 -6.4679999 0.456 2
7.9429998 -6.3590002 0.45699999 2
7.7859998 -6.4429998 0.45699999 2
7.7350001 -6.5289998 0.456 2
7.8429999 -6.5430002 0.45300001 2
7.6469998 -6.5240002 0.458 2
7.6599998 -6.507 0.458 2
7.7620001 -6.54 0.45500001 2
7.9099998 -6.5970001 0.44999999 2
7.9710002 -6.4289999 0.454 2
7.9499998 -6.5780001 0.449 2
7.7810001 -6.487 0.456 2
7.8330002 -6.572 0.45199999 2
7.8070002 -6.5159998 0.45500001 2
7.7639999 -6.4499998 0.458 2
7.7360001 -6.4699998 0.458 2
7.8769999 -6.4879999 0.454 2
7.809 -6.5479999 0.45300001 2
7.7779999 -6.5029998 0.456 2
7.8590002 -6.4330001 0.456 2
7.875 -6.447 0.45500001 2
7.717 -6.4809999 0.458 2
7.9400001 -6.4840002 0.45300001 2
7.8369999 -6.5359998 0.45300001 2
7.757 -6.5710001 0.454 2
7.8829999 -6.3930001 0.45699999 2
7.9159999 -6.415 0.45500001 2
7.9569998 -6.632 0.447 2
7.8629999 -6.4060001 0.45699999 2
7.6799998 -6.5419998 0.45699999 2
7.9229999 -6.4749999 0.45300001 2
7.618 -6.5310001 0.458 2
7.902 -6.4169998 0.456 2
7.8109999 -6.5219998 0.454 2
7.8790002 -6.4819999 0.454 2
7.6989999 -6.5 0.458 2
7.8839998 -6.4099998 0.456 2
7.9369998 -6.526 0.45100001 2
7.9060001 -6.553 0.45100001 2
7.8319998 -6.5900002 0.45199999 2
7.704 -6.4879999 0.458 2
7.9369998 -6.5760002 0.44999999 2
7.802 -6.5929999 0.45199999 2
7.8470001 -6.5310001 0.45300001 2
7.9320002 -6.3959999 0.456 2
7.9239998 -6.4850001 0.45300001 2
7.783 -6.447 0.45699999 2
7.9619999 -6.5300002 0.45100001 2
7.9439998 -6.3639998 0.456 2
7.7680001 -6.494 0.456 2
7.961 -6.4580002 0.45300001 2
7.7470002 -6.4980001 0.45699999 2
7.8460002 -6.4109998 0.45699999 2
7.7459998 -6.5100002 0.456 2
7.934 -6.5279999 0.45100001 2
7.8909998 -6.5700002 0.45100001 2
7.816 -6.428 0.45699999 2
7.7290001 -6.4720001 0.458 2
7.954 -6.559 0.44999999 2
7.8109999 -6.5929999 0.45199999 2
7.9169998 -6.5479999 0.45100001 2
7.757 -6.5089998 0.456 2
7.776 -6.5009999 0.456 2
7.8060002 -6.4559999 0.45699999 2
7.9699998 -6.4689999 0.45199999 2
7.711 -6.4829998 0.458 2
7.9559999 -6.4619999 0.45300001 2
7.7160001 -6.4920001 0.45699999 2
7.8099999 -6.473 0.456 2
7.8049998 -6.5869999 0.45199999 2
7.9590001 -6.5409999 0.44999999 2
7.9460001 -6.3239999 0.454 2
7.902 -6.3260002 0.449 2
7.948 -6.316 0.45500001 2
7.8119998 -6.2859998 0.442 2
7.908 -6.322 0.44999999 2
7.8790002 -6.243 0.45300001 2
7.8590002 -6.2490001 0.44999999 2
7.914 -6.2800002 0.454 2
7.836 -6.289 0.44400001 2
7.881 -6.2849998 0.44999999 2
7.8600001 -6.3169999 0.44499999 2
7.8379998 -6.2659998 0.44600001 2
7.9039998 -6.256 0.45500001 2
7.7340002 -6.3039999 0.43099999 2
7.947 -6.3080001 0.456 2
7.7420001 -6.3049998 0.43200001 2
7.868 -6.309 0.44600001 2
7.8119998 -6.2880001 0.442 2
7.7509999 -6.2950001 0.43399999 2
7.9489999 -6.3179998 0.45500001 2
7.829 -6.2870002 0.44400001 2
7.888 -6.2389998 0.454 2
7.8590002 -6.25 0.44999999 2
7.7309999 -6.303 0.43099999 2
7.869 -6.2659998 0.44999999 2
7.9239998 -6.3270001 0.45100001 2
7.8860002 -6.2480001 0.45300001 2
7.902 -6.2459998 0.45500001 2
7.8270001 -6.2810001 0.44400001 2
7.8709998 -6.303 0.447 2
7.8369999 -6.3119998 0.44299999 2
7.8860002 -6.2859998 0.44999999 2
7.888 -6.2979999 0.44999999 2
7.8330002 -6.283 0.44400001 2
7.9419999 -6.3260002 0.454 2
7.8600001 -6.2969999 0.44600001 2
7.8740001 -6.2399998 0.45300001 2
7.8920002 -6.2950001 0.44999999 2
7.8709998 -6.3099999 0.447 2
7.8579998 -6.2820001 0.447 2
7.789 -6.3099999 0.43700001 2
7.8959999 -6.2950001 0.45100001 2
7.8559999 -6.3039999 0.44499999 2
7.7589998 -6.3010001 0.43399999 2
7.927 -6.3109999 0.45300001 2
7.8660002 -6.25 0.45100001 2
7.9099998 -6.2680001 0.45500001 2
7.9419999 -6.322 0.454 2
7.9439998 -6.3260002 0.454 2
7.8979998 -6.3070002 0.44999999 2
7.8600001 -6.296 0.447 2
7.8130002 -6.3039999 0.44100001 2
7.9359999 -6.3189998 0.454 2
7.8720002 -6.2519999 0.45199999 2
7.7270002 -6.302 0.43099999 2
7.829 -6.2979999 0.44299999 2
7.9219999 -6.3270001 0.45100001 2
7.7420001 -6.2979999 0.433 2
7.8460002 -6.2859998 0.44600001 2
7.941 -6.3109999 0.45500001 2
7.882 -6.2360001 0.454 2
7.9299998 -6.2930002 0.45500001 2
7.7579999 -6.289 0.435 2
7.9219999 -6.322 0.45199999 2
7.8569999 -6.296 0.44600001 2
7.8940001 -6.3000002 0.44999999 2
7.954 -6.3119998 0.456 2
7.948 -6.316 0.45500001 2
7.8509998 -6.3109999 0.44400001 2
7.8959999 -6.3140001 0.449 2
7.9260001 -6.2930002 0.454 2
7.836 -6.2680001 0.44600001 2
7.835 -6.2789998 0.44499999 2
7.888 -6.2969999 0.44999999 2
7.9250002 -6.2789998 0.45500001 2
7.7779999 -6.3080001 0.43599999 2
7.882 -6.2579999 0.45199999 2
7.915 -6.3179998 0.45100001 2
7.8769999 -6.2709999 0.45100001 2
7.79 -6.2810001 0.44 2
7.8309999 -6.2620001 0.44600001 2
7.8200002 -6.2859998 0.44299999 2
7.8639998 -6.2810001 0.44800001 2
7.8959999 -6.283 0.45199999 2
7.8990002 -6.2459998 0.45500001 2
7.9369998 -6.2870002 0.456 2
7.8080001 -6.2690001 0.44299999 2
7.7350001 -6.303 0.43200001 2
7.8639998 -6.302 0.447 2
7.9229999 -6.3200002 0.45199999 2
7.9260001 -6.3189998 0.45199999 2
7.9369998 -6.2909999 0.456 2
7.8730001 -6.27 0.44999999 2
7.9489999 -6.3130002 0.45500001 2
7.8390002 -6.3109999 0.44299999 2
7.8189998 -6.2940001 0.442 2
7.7620001 -6.3010001 0.435 2
7.8850002 -6.256 0.45300001 2
7.862 -6.3200002 0.44499999 2
7.7849998 -6.3080001 0.43700001 2
7.7620001 -6.3049998 0.43399999 2
7.921 -6.322 0.45199999 2
7.8520002 -6.2740002 0.447 2
7.8200002 -6.2940001 0.442 2
7.8049998 -6.2820001 0.44100001 2
7.927 -6.2979999 0.454 2
7.7849998 -6.2979999 0.43799999 2
7.9159999 -6.2659998 0.45500001 2
7.8200002 -6.3140001 0.44100001 2
7.8540001 -6.2740002 0.44800001 2
7.914 -6.2800002 0.454 2
7.8769999 -6.2620001 0.45100001 2
7.875 -6.3070002 0.447 2
7.9699998 -6.3330002 0.456 2
7.9190001 -6.316 0.45199999 2
7.8979998 -6.263 0.454 2
7.921 -6.3140001 0.45199999 2
7.8429999 -6.3150001 0.44299999 2
7.8499999 -6.2800002 0.447 2
7.9109998 -6.2579999 0.456 2
7.8390002 -6.263 0.447 2
7.9699998 -6.191 0.43399999 2
7.9699998 -6.263 0.44600001 2
7.947 -6.2820001 0.45300001 2
7.9320002 -6.21 0.44499999 2
7.9710002 -6.2319999 0.44100001 2
7.9450002 -6.2459998 0.44800001 2
7.9109998 -6.237 0.45300001 2
7.9299998 -6.2350001 0.449 2
7.9219999 -6.2620001 0.45500001 2
7.9580002 -6.309 0.456 2
7.9159999 -6.2420001 0.45300001 2
7.96 -6.2779999 0.44999999 2
7.9569998 -6.2810001 0.45100001 2
7.9640002 -6.29 0.45100001 2
7.9060001 -6.243 0.45500001 2
7.954 -6.2690001 0.44999999 2
7.9569998 -6.2750001 0.44999999 2
7.9180002 -6.2589998 0.45500001 2
7.9380002 -6.2379999 0.44800001 2
7.934 -6.237 0.449 2
7.9299998 -6.2589998 0.45300001 2
7.9200001 -6.2210002 0.449 2
7.902 -6.2270002 0.45300001 2
7.9640002 -6.2509999 0.44499999 2
7.928 -6.2600002 0.45300001 2
7.9320002 -6.25 0.45100001 2
7.9510002 -6.3000002 0.456 2
7.9239998 -6.2410002 0.45100001 2
7.9419999 -6.263 0.45100001 2
7.9419999 -6.2930002 0.456 2
7.915 -6.2399998 0.45300001 2
7.9439998 -6.2950001 0.456 2
7.9039998 -6.2340002 0.454 2
7.9159999 -6.2379999 0.45199999 2
7.9169998 -6.2280002 0.44999999 2
7.9679999 -6.2519999 0.44499999 2
7.9320002 -6.2649999 0.454 2
7.9640002 -6.29 0.45100001 2
7.9380002 -6.244 0.449 2
7.954 -6.2420001 0.44600001 2
7.9660001 -6.191 0.435 2
7.9559999 -6.2490001 0.44600001 2
7.902 -6.237 0.45500001 2
7.9439998 -6.2189999 0.44400001 2
7.9580002 -6.2690001 0.449 2
7.928 -6.2639999 0.454 2
7.9559999 -6.2779999 0.45100001 2
7.9619999 -6.3010001 0.454 2
7.9070001 -6.23 0.45300001 2
7.9660001 -6.323 0.456 2
7.954 -6.1929998 0.43799999 2
7.9569998 -6.3119998 0.456 2
7.9380002 -6.2179999 0.44499999 2
7.9349999 -6.2680001 0.454 2
7.8990002 -6.2329998 0.45500001 2
7.9679999 -6.1900001 0.435 2
7.9660001 -6.2820001 0.44999999 2
7.9289999 -6.2620001 0.454 2
7.9720001 -6.257 0.44499999 2
7.967 -6.2870002 0.44999999 2
7.9650002 -6.2550001 0.44600001 2
7.9219999 -6.2659998 0.456 2
7.9990001 -6.4980001 0.454 2
8.04 -6.4689999 0.461 2
8.0039997 -6.3969998 0.45899999 2
8.0120001 -6.6199999 0.45100001 2
7.9910002 -6.4679999 0.454 2
8.0740004 -6.5780001 0.46200001 2
8.0080004 -6.4000001 0.45899999 2
8.0209999 -6.4629998 0.45899999 2
8.0129995 -6.4689999 0.45699999 2
8.0439997 -6.5599999 0.458 2
8.0740004 -6.5500002 0.463 2
8.0139999 -6.4429998 0.458 2
7.9749999 -6.3390002 0.45699999 2
8.0229998 -6.546 0.456 2
8.0150003 -6.5809999 0.45300001 2
7.9840002 -6.454 0.45300001 2
8.073 -6.5809999 0.46200001 2
8.0670004 -6.5019999 0.46399999 2
8.0010004 -6.5 0.454 2
8.04 -6.618 0.456 2
7.9879999 -6.5349998 0.45100001 2
8.0670004 -6.5760002 0.461 2
8.0170002 -6.4330001 0.45899999 2
8.0120001 -6.4109998 0.45899999 2
8.0620003 -6.5739999 0.461 2
8.1099997 -6.5749998 0.46799999 2
8.0150003 -6.4990001 0.456 2
8.0509996 -6.5749998 0.45899999 2
8.0959997 -6.5760002 0.46599999 2
8.007 -6.4419999 0.45699999 2
8.0229998 -6.5489998 0.45500001 2
8.085 -6.5780001 0.46399999 2
7.9920001 -6.598 0.449 2
8.0710001 -6.5650001 0.46200001 2
8.0790005 -6.592 0.46200001 2
8.033 -6.5749998 0.456 2
8.0819998 -6.5619998 0.46399999 2
8.0550003 -6.4899998 0.463 2
8.0760002 -6.5580001 0.463 2
8.0159998 -6.592 0.45300001 2
8.0190001 -6.546 0.45500001 2
8.0340004 -6.4840002 0.46000001 2
8.0909996 -6.5430002 0.46599999 2
8.0050001 -6.552 0.45300001 2
8.0249996 -6.552 0.456 2
8.099 -6.5619998 0.46700001 2
8.0670004 -6.5510001 0.46200001 2
7.9829998 -6.5229998 0.44999999 2
8.0860004 -6.592 0.46399999 2
8.0299997 -6.6100001 0.454 2
8.0209999 -6.441 0.45899999 2
8.0719995 -6.5 0.465 2
8.0930004 -6.5770001 0.465 2
8.0360003 -6.4899998 0.46000001 2
8.007 -6.5250001 0.454 2
8.0620003 -6.5209999 0.46200001 2
8 -6.4439998 0.456 2
7.9860001 -6.3909998 0.456 2
8.0889997 -6.5840001 0.46399999 2
8.0019999 -6.586 0.45100001 2
8.0679998 -6.579 0.461 2
7.9819999 -6.349 0.45699999 2
8.0819998 -6.5209999 0.46599999 2
7.9910002 -6.5609999 0.44999999 2
8.052 -6.5450001 0.46000001 2
7.9920001 -6.4970002 0.45300001 2
8.0150003 -6.473 0.45699999 2
7.9889998 -6.3839998 0.45699999 2
8.0179996 -6.546 0.45500001 2
8.0430002 -6.5279999 0.45899999 2
7.9970002 -6.5539999 0.45100001 2
8.0760002 -6.5469999 0.46399999 2
7.9879999 -6.4369998 0.45500001 2
8.0240002 -6.5349998 0.456 2
8.073 -6.5939999 0.461 2
7.9990001 -6.5380001 0.45199999 2
8.0459995 -6.5640001 0.45899999 2
8.0570002 -6.4770002 0.463 2
8.0109997 -6.5440001 0.454 2
8.0229998 -6.48 0.458 2
7.9970002 -6.5960002 0.44999999 2
8.0500002 -6.4759998 0.463 2
8.0059996 -6.4159999 0.458 2
8.0640001 -6.5929999 0.46000001 2
8.0039997 -6.4770002 0.45500001 2
8.0150003 -6.4169998 0.46000001 2
8.0489998 -6.467 0.463 2
8.0089998 -6.4180002 0.45899999 2
8.0109997 -6.3969998 0.46000001 2
8.0050001 -6.6149998 0.44999999 2
8.092 -6.5630002 0.46599999 2
7.9920001 -6.5289998 0.45100001 2
8.0249996 -6.4759998 0.45899999 2
7.9879999 -6.5510001 0.44999999 2
8.0649996 -6.5320001 0.46200001 2
8.0310001 -6.5609999 0.456 2
8.0030003 -6.4569998 0.456 2
7.9990001 -6.5549998 0.45199999 2
8.0159998 -6.6230001 0.45199999 2
8.0579996 -6.5739999 0.46000001 2
8.0469999 -6.5650001 0.45899999 2
8.0200005 -6.4879999 0.45699999 2
8.0690002 -6.5320001 0.463 2
8.1029997 -6.5640001 0.46700001 2
8.0089998 -6.6220002 0.45100001 2
8.0319996 -6.5320001 0.458 2
7.9959998 -6.5970001 0.44999999 2
8.0699997 -6.52 0.46399999 2
8.0579996 -6.5650001 0.46000001 2
8.0310001 -6.4710002 0.46000001 2
8.0579996 -6.5560002 0.461 2
8.0410004 -6.5310001 0.45899999 2
7.9879999 -6.6279998 0.447 2
8.0570002 -6.4850001 0.463 2
8.0690002 -6.5479999 0.46200001 2
8.073 -6.552 0.463 2
8.1090002 -6.5669999 0.46799999 2
7.993 -6.5949998 0.449 2
8.0489998 -6.6059999 0.45699999 2
8.033 -6.5609999 0.456 2
8.092 -6.5770001 0.465 2
8.0480003 -6.4790001 0.46200001 2
7.9990001 -6.4499998 0.456 2
7.9920001 -6.6230001 0.44800001 2
8.0530005 -6.5139999 0.461 2
8.0170002 -6.5469999 0.45500001 2
8.0159998 -6.4229999 0.45899999 2
8.0860004 -6.553 0.465 2
8.0480003 -6.5339999 0.46000001 2
8.0290003 -6.4289999 0.461 2
8.0439997 -6.4910002 0.461 2
8.0679998 -6.5409999 0.463 2
8.0319996 -6.6209998 0.454 2
8.0080004 -6.5279999 0.454 2
8.0299997 -6.5549998 0.456 2
8.0559998 -6.5089998 0.46200001 2
8.0369997 -6.6079998 0.45500001 2
8.0970001 -6.5510001 0.46700001 2
8.0190001 -6.4660001 0.458 2
8.0830002 -6.5669999 0.46399999 2
8 -6.513 0.45300001 2
8.0559998 -6.5279999 0.461 2
8.0129995 -6.598 0.45199999 2
8.0080004 -6.415 0.45899999 2
8.0749998 -6.5450001 0.46399999 2
8.04 -6.474 0.461 2
7.9780002 -6.4089999 0.454 2
8.026 -6.5580001 0.456 2
8.085 -6.5819998 0.46399999 2
8.1059999 -6.5640001 0.46799999 2
8.0340004 -6.4689999 0.46000001 2
8.0100002 -6.5289998 0.454 2
8.0310001 -6.4660001 0.46000001 2
8.0200005 -6.5609999 0.45500001 2
8.0450001 -6.4920001 0.461 2
8.0769997 -6.5910001 0.46200001 2
8.0129995 -6.5500002 0.454 2
8.0159998 -6.48 0.45699999 2
8.0710001 -6.5409999 0.463 2
8.0030003 -6.4860001 0.45500001 2
8.0159998 -6.4060001 0.46000001 2
7.9949999 -6.6079998 0.449 2
7.9910002 -6.6430001 0.447 2
7.9970002 -6.6220002 0.449 2
8.0349998 -6.5879998 0.456 2
8.0319996 -6.513 0.458 2
7.994 -6.5910001 0.449 2
8.0080004 -6.4099998 0.45899999 2
8.1059999 -6.5749998 0.46700001 2
7.987 -6.3709998 0.45699999 2
7.9850001 -6.4229999 0.45500001 2
7.994 -6.3720002 0.458 2
8.0059996 -6.5370002 0.45300001 2
8.0190001 -6.4619999 0.458 2
8.0200005 -6.441 0.45899999 2
8.0539999 -6.507 0.46200001 2
7.9829998 -6.4780002 0.45199999 2
8.0410004 -6.4640002 0.46200001 2
8 -6.493 0.454 2
8.0410004 -6.48 0.461 2
8.0600004 -6.5599999 0.461 2
8.0129995 -6.408 0.46000001 2
8.0970001 -6.5469999 0.46700001 2
8.0880003 -6.5780001 0.46399999 2
8.0019999 -6.54 0.45300001 2
7.9850001 -6.4219999 0.45500001 2
8.0360003 -6.6009998 0.456 2
7.9860001 -6.5019999 0.45199999 2
8.0209999 -6.585 0.454 2
8.0059996 -6.4419999 0.45699999 2
8.0050001 -6.5159998 0.454 2
8.0159998 -6.4549999 0.458 2
8.0220003 -6.4460001 0.45899999 2
8 -6.4299998 0.45699999 2
8.0439997 -6.4679999 0.46200001 2
8.0900002 -6.546 0.46599999 2
8.0419998 -6.5029998 0.46000001 2
8.0319996 -6.5710001 0.456 2
7.994 -6.3940001 0.45699999 2
8.0139999 -6.4349999 0.45899999 2
8.0299997 -6.579 0.456 2
8.0410004 -6.5050001 0.46000001 2
8.0279999 -6.6110001 0.454 2
8.1009998 -6.5710001 0.46700001 2
7.9959998 -6.6370001 0.44800001 2
7.9790001 -6.369 0.456 2
7.9949999 -6.5310001 0.45199999 2
8 -6.5929999 0.44999999 2
8.0609999 -6.5689998 0.461 2
8.0299997 -6.4840002 0.45899999 2
8.0179996 -6.4920001 0.45699999 2
8.0249996 -6.5339999 0.456 2
8.0380001 -6.586 0.456 2
7.9840002 -6.3080001 0.44600001 2
7.9850001 -6.316 0.447 2
7.9759998 -6.2659998 0.44400001 2
7.993 -6.2399998 0.428 2
7.9710002 -6.197 0.435 2
7.9879999 -6.3270001 0.447 2
8.0139999 -6.302 0.426 2
7.9829998 -6.2729998 0.44100001 2
7.9819999 -6.302 0.44600001 2
7.9749999 -6.3319998 0.456 2
8 -6.3080001 0.43599999 2
7.9829998 -6.2600002 0.43799999 2
8.0059996 -6.27 0.426 2
7.9980001 -6.2509999 0.42699999 2
7.973 -6.2319999 0.44 2
7.9879999 -6.2449999 0.433 2
7.9899998 -6.2870002 0.43799999 2
7.9899998 -6.2729998 0.43599999 2
7.9770002 -6.3070002 0.44999999 2
7.9809999 -6.244 0.43700001 2
8.0109997 -6.2789998 0.42399999 2
7.9759998 -6.217 0.435 2
7.9819999 -6.2360001 0.435 2
7.9749999 -6.3299999 0.456 2
7.9899998 -6.2880001 0.43900001 2
8.0209999 -6.3130002 0.42300001 2
7.9990001 -6.2849998 0.43200001 2
8.0010004 -6.2849998 0.43099999 2
7.9809999 -6.2459998 0.43700001 2
8.0089998 -6.2950001 0.428 2
7.9899998 -6.2529998 0.43200001 2
7.9770002 -6.2740002 0.44499999 2
7.9899998 -6.2979999 0.44 2
8.0050001 -6.29 0.42899999 2
7.9790001 -6.3280001 0.45300001 2
8.0010004 -6.3270001 0.43799999 2
7.9819999 -6.2519999 0.43799999 2
7.9860001 -6.244 0.43399999 2
8.0209999 -6.3140001 0.42300001 2
8 -6.2719998 0.42899999 2
