# .PCD v0.7 - Point Cloud Data file format
VERSION 0.7
FIELDS x y z label
SIZE 4 4 4 4
TYPE F F F U
COUNT 1 1 1 1
WIDTH 1634
HEIGHT 1
VIEWPOINT 0 0 0 1 0 0 0
POINTS 1634
DATA ascii
8.427 -2.1170001 0.44999999 2
8.4399996 -2.1389999 0.46700001 2
8.4329996 -2.0320001 0.43200001 2
8.4390001 -2.0309999 0.43700001 2
8.4580002 -2.0320001 0.454 2
8.4309998 -2.085 0.44499999 2
8.4280005 -2.1589999 0.463 2
8.4399996 -2.1470001 0.46900001 2
8.4589996 -2.056 0.46000001 2
8.4560003 -2.0999999 0.47 2
8.4630003 -2.059 0.465 2
8.4390001 -2.059 0.44400001 2
8.46 -2.072 0.46599999 2
8.4569998 -2.069 0.463 2
8.4610004 -2.069 0.46599999 2
8.4300003 -2.089 0.44499999 2
8.4300003 -2.0309999 0.43000001 2
8.4300003 -2.142 0.46000001 2
8.4280005 -2.184 0.46900001 2
8.4280005 -2.05 0.433 2
8.4549999 -2.0680001 0.461 2
8.4420004 -2.0910001 0.456 2
8.4799995 -2.007 0.465 2
8.4350004 -2.05 0.43900001 2
8.4280005 -2.0550001 0.435 2
8.4379997 -2.154 0.46900001 2
8.4370003 -2.174 0.47400001 2
8.4289999 -2.072 0.44 2
8.4320002 -2.0380001 0.433 2
8.4399996 -2.026 0.43700001 2
8.4630003 -2.0539999 0.463 2
8.4720001 -1.7130001 0.63200003 2
8.4580002 -1.7180001 0.63599998 2
8.4639997 -1.714 0.64200002 2
8.4619999 -1.71 0.66000003 2
8.4589996 -1.715 0.64499998 2
8.4650002 -1.717 0.62900001 2
8.4700003 -1.717 0.61900002 2
8.4510002 -1.74 0.56099999 2
8.4689999 -1.719 0.61199999 2
8.4729996 -1.716 0.61900002 2
8.4540005 -1.719 0.639 2
8.4709997 -1.719 0.60900003 2
8.4580002 -1.74 0.54900002 2
8.4560003 -1.704 0.69300002 2
8.4510002 -1.75 0.51999998 2
8.4829998 -1.715 0.60799998 2
8.4720001 -1.71 0.64399999 2
8.467 -1.725 0.59299999 2
8.4610004 -1.7359999 0.56099999 2
8.4750004 -1.721 0.59600002 2
8.4659996 -1.71 0.65600002 2
8.4650002 -1.707 0.66799998 2
8.4610004 -1.738 0.551 2
8.4659996 -1.712 0.64600003 2
8.4510002 -1.742 0.551 2
8.4639997 -1.717 0.62800002 2
8.4549999 -1.721 0.63 2
8.4530001 -1.7309999 0.59200001 2
8.4770002 -1.716 0.61199999 2
8.46 -1.739 0.551 2
8.4569998 -1.7079999 0.67799997 2
8.4700003 -1.712 0.63999999 2
8.474 -1.717 0.61400002 2
8.4619999 -1.709 0.66399997 2
8.4350004 -2.0020001 0.42899999 2
8.4420004 -1.989 0.43599999 2
8.4639997 -1.989 0.454 2
8.4510002 -1.984 0.44400001 2
8.4650002 -1.998 0.454 2
8.4519997 -2.0020001 0.44299999 2
8.4540005 -1.972 0.44800001 2
8.4659996 -1.997 0.45500001 2
8.434 -1.918 0.43599999 2
8.4619999 -1.992 0.45199999 2
8.4759998 -2.0020001 0.46200001 2
8.4370003 -1.937 0.43599999 2
8.4619999 -1.997 0.45199999 2
8.4549999 -1.952 0.44999999 2
8.4680004 -1.998 0.456 2
8.4350004 -1.919 0.43700001 2
8.4440002 -1.947 0.44100001 2
8.4320002 -1.9809999 0.428 2
8.4420004 -1.985 0.43599999 2
8.4320002 -1.929 0.43399999 2
8.4399996 -1.923 0.44100001 2
8.4510002 -1.947 0.44800001 2
8.4650002 -1.984 0.45500001 2
8.4320002 -2.01 0.426 2
8.4350004 -1.962 0.433 2
8.4370003 -1.936 0.43700001 2
8.4499998 -1.974 0.44400001 2
8.4390001 -1.9529999 0.43700001 2
8.4650002 -1.982 0.45500001 2
8.4490004 -1.95 0.44499999 2
8.4519997 -1.984 0.44400001 2
8.4440002 -1.962 0.44 2
8.4379997 -1.941 0.43700001 2
8.4449997 -1.948 0.442 2
8.4589996 -1.966 0.45199999 2
8.4759998 -2.0020001 0.46200001 2
8.4329996 -1.957 0.43099999 2
8.4350004 -1.941 0.435 2
8.4680004 -1.977 0.458 2
8.4420004 -1.899 0.44100001 2
8.4429998 -1.908 0.442 2
8.4420004 -1.913 0.442 2
8.474 -1.911 0.45699999 2
8.4499998 -1.904 0.44600001 2
8.4799995 -1.8380001 0.456 2
8.4630003 -1.8940001 0.45100001 2
8.4460001 -1.923 0.44400001 2
8.4610004 -1.8940001 0.44999999 2
8.4809999 -1.975 0.46399999 2
8.4510002 -1.896 0.44600001 2
8.4659996 -1.954 0.456 2
8.4689999 -1.943 0.45699999 2
8.4639997 -1.937 0.454 2
8.4779997 -1.973 0.463 2
8.4589996 -1.955 0.45300001 2
8.4510002 -1.872 0.44400001 2
8.4700003 -1.976 0.45899999 2
8.4680004 -1.923 0.45500001 2
8.4689999 -1.885 0.45300001 2
8.4569998 -1.946 0.45100001 2
8.4799995 -1.898 0.46000001 2
8.4680004 -1.964 0.458 2
8.4770002 -1.901 0.458 2
8.4580002 -1.952 0.45199999 2
8.4680004 -1.9299999 0.456 2
8.4549999 -1.883 0.447 2
8.474 -1.8710001 0.45500001 2
8.4729996 -1.936 0.458 2
8.4709997 -1.9579999 0.45899999 2
8.4759998 -1.841 0.454 2
8.4720001 -1.844 0.45300001 2
8.4659996 -1.895 0.45199999 2
8.4499998 -1.905 0.44600001 2
8.4809999 -1.947 0.463 2
8.4490004 -1.882 0.44400001 2
8.4639997 -1.896 0.45199999 2
8.4639997 -1.9349999 0.454 2
8.4759998 -1.848 0.45500001 2
8.448 -1.8789999 0.44299999 2
8.4420004 -1.902 0.44100001 2
8.4650002 -1.885 0.45100001 2
8.4720001 -1.914 0.45699999 2
8.4779997 -1.842 0.45500001 2
8.4420004 -1.916 0.442 2
8.4580002 -1.9400001 0.45100001 2
8.4799995 -1.936 0.46200001 2
8.4770002 -1.98 0.463 2
8.4639997 -1.955 0.45500001 2
8.5010004 -1.766 0.41299999 2
8.4580002 -1.756 0.49399999 2
8.4890003 -1.779 0.41100001 2
8.467 -1.777 0.44499999 2
8.4659996 -1.765 0.46799999 2
8.5080004 -1.751 0.42699999 2
8.4750004 -1.771 0.44499999 2
8.4840002 -1.761 0.447 2
8.4960003 -1.777 0.40400001 2
8.4840002 -1.775 0.42500001 2
8.4680004 -1.761 0.47 2
8.4700003 -1.765 0.461 2
8.4549999 -1.788 0.44600001 2
8.5100002 -1.75 0.42699999 2
8.4879999 -1.77 0.426 2
8.4650002 -1.768 0.463 2
8.4650002 -1.774 0.45300001 2
8.4630003 -1.763 0.47499999 2
8.4549999 -1.772 0.472 2
8.4580002 -1.756 0.49399999 2
8.5050001 -1.7539999 0.428 2
8.467 -1.775 0.449 2
8.493 -1.752 0.44800001 2
8.4759998 -1.768 0.44800001 2
8.4659996 -1.763 0.47 2
8.4989996 -1.751 0.442 2
8.4949999 -1.7539999 0.44100001 2
8.4549999 -1.7819999 0.456 2
8.4540005 -1.756 0.50099999 2
8.4709997 -1.7690001 0.45199999 2
8.4619999 -1.79 0.43200001 2
8.4680004 -1.78 0.43900001 2
8.5019999 -1.755 0.43000001 2
8.4560003 -1.755 0.49900001 2
8.4619999 -1.784 0.44299999 2
8.4689999 -1.765 0.46200001 2
8.4650002 -1.78 0.44499999 2
8.4580002 -1.807 0.41 2
8.4610004 -1.795 0.42500001 2
8.4680004 -1.7869999 0.428 2
8.5039997 -1.766 0.40799999 2
8.4729996 -1.795 0.40799999 2
8.4709997 -1.766 0.45699999 2
8.4969997 -1.768 0.417 2
8.4619999 -1.795 0.42399999 2
8.4540005 -1.779 0.46200001 2
8.4790001 -1.768 0.44299999 2
8.4840002 -1.781 0.414 2
8.4989996 -1.7539999 0.43599999 2
8.5229998 -1.752 0.40400001 2
8.4619999 -1.772 0.461 2
8.4899998 -1.755 0.44800001 2
8.4969997 -1.761 0.428 2
8.4860001 -1.781 0.41100001 2
8.5010004 -1.763 0.41800001 2
8.4580002 -2.1199999 0.47099999 2
8.4510002 -2.1719999 0.47299999 2
8.5019999 -2.079 0.46599999 2
8.4980001 -2.1400001 0.46700001 2
8.4689999 -2.1500001 0.47099999 2
8.4580002 -2.2160001 0.47299999 2
8.4829998 -2.0209999 0.46700001 2
8.4689999 -2.1010001 0.47 2
8.6149998 -2.2379999 0.45699999 2
8.4750004 -2.092 0.46900001 2
8.4399996 -2.191 0.47400001 2
8.5579996 -2.1860001 0.46200001 2
8.4650002 -2.092 0.47 2
8.4840002 -2.1010001 0.46799999 2
8.467 -2.1429999 0.47099999 2
8.5439997 -2.168 0.463 2
8.5609999 -2.174 0.46200001 2
8.4770002 -2.0769999 0.46900001 2
8.4860001 -2.0320001 0.46700001 2
8.4499998 -2.177 0.47299999 2
8.5109997 -2.1670001 0.46700001 2
8.5150003 -2.1070001 0.465 2
8.5979996 -2.227 0.45899999 2
8.5349998 -2.221 0.465 2
8.4879999 -2.198 0.46900001 2
8.5319996 -2.1359999 0.46399999 2
8.5389996 -2.135 0.463 2
8.5139999 -2.145 0.46599999 2
8.4589996 -2.2060001 0.472 2
8.4650002 -2.1530001 0.47099999 2
8.5220003 -2.152 0.465 2
8.4989996 -2.1659999 0.46799999 2
8.5559998 -2.132 0.461 2
8.5039997 -2.1570001 0.46700001 2
8.4720001 -2.076 0.46900001 2
8.5570002 -2.171 0.46200001 2
8.4619999 -2.1889999 0.472 2
8.5179996 -2.227 0.46700001 2
8.5299997 -2.1589999 0.46399999 2
8.5930004 -2.2160001 0.45899999 2
8.4630003 -2.1140001 0.47099999 2
8.5059996 -2.0869999 0.46599999 2
8.4790001 -2.194 0.47 2
8.4910002 -2.1099999 0.46799999 2
8.5740004 -2.1930001 0.461 2
8.5229998 -2.201 0.46599999 2
8.5159998 -2.138 0.46599999 2
8.5080004 -2.154 0.46700001 2
8.4779997 -2.118 0.46900001 2
8.526 -2.1989999 0.46599999 2
8.5299997 -2.211 0.465 2
8.467 -2.076 0.46900001 2
8.5319996 -2.165 0.46399999 2
8.5010004 -2.0599999 0.46599999 2
8.5270004 -2.148 0.465 2
8.4639997 -2.1389999 0.47099999 2
8.4949999 -2.177 0.46799999 2
8.4709997 -2.076 0.46900001 2
8.4639997 -2.0869999 0.47 2
8.585 -2.2219999 0.46000001 2
8.559 -2.148 0.461 2
8.4879999 -2.0580001 0.46700001 2
8.5550003 -2.1659999 0.46200001 2
8.5019999 -2.1960001 0.46799999 2
8.5570002 -2.2119999 0.463 2
8.4720001 -2.2119999 0.47099999 2
8.4499998 -2.2090001 0.47299999 2
8.5629997 -2.2260001 0.46200001 2
8.5190001 -2.1659999 0.46599999 2
8.5299997 -2.2160001 0.465 2
8.5129995 -2.1300001 0.46599999 2
8.4759998 -2.131 0.46900001 2
8.5550003 -2.21 0.463 2
8.5039997 -2.1930001 0.46799999 2
8.4820004 -2.0899999 0.46799999 2
8.4960003 -2.194 0.46900001 2
8.4899998 -2.138 0.46799999 2
8.5860004 -2.221 0.46000001 2
8.5129995 -2.217 0.46700001 2
8.4420004 -2.1989999 0.47400001 2
8.4870005 -2.033 0.46700001 2
8.4429998 -2.2179999 0.47400001 2
8.4580002 -2.1960001 0.472 2
8.5200005 -2.2030001 0.46599999 2
8.5450001 -2.1889999 0.463 2
8.5150003 -2.0940001 0.465 2
8.5290003 -2.2190001 0.46599999 2
8.4890003 -2.1900001 0.46900001 2
8.5159998 -2.152 0.46599999 2
8.4280005 -2.211 0.47600001 2
8.4799995 -2.22 0.47099999 2
8.5349998 -2.1600001 0.46399999 2
8.5089998 -2.155 0.46700001 2
8.448 -2.1619999 0.47299999 2
8.5500002 -2.1689999 0.463 2
8.4759998 -2.154 0.47 2
8.4639997 -2.201 0.472 2
8.4370003 -2.21 0.47499999 2
8.4700003 -2.2130001 0.472 2
8.5299997 -2.2190001 0.465 2
8.4540005 -2.1159999 0.472 2
8.5170002 -2.1600001 0.46599999 2
8.5480003 -2.1359999 0.46200001 2
8.5100002 -2.1210001 0.46599999 2
8.5200005 -2.197 0.46599999 2
8.5860004 -2.2320001 0.46000001 2
8.4759998 -2.1040001 0.46900001 2
8.4580002 -2.2030001 0.47299999 2
8.4729996 -2.1470001 0.47 2
8.5039997 -2.0899999 0.46599999 2
8.4779997 -2.0940001 0.46900001 2
8.4969997 -2.073 0.46599999 2
8.4899998 -2.223 0.47 2
8.4940004 -2.1070001 0.46700001 2
8.5089998 -2.21 0.46700001 2
8.5159998 -2.181 0.46599999 2
8.5830002 -2.217 0.46000001 2
8.6129999 -2.234 0.45699999 2
8.474 -2.154 0.47 2
8.6029997 -2.2160001 0.458 2
8.5190001 -2.211 0.46599999 2
8.5290003 -2.1270001 0.46399999 2
8.4729996 -2.1040001 0.46900001 2
8.4519997 -2.131 0.472 2
8.4919996 -2.1530001 0.46799999 2
8.4890003 -2.177 0.46900001 2
8.5819998 -2.1919999 0.46000001 2
8.5039997 -2.1619999 0.46700001 2
8.5439997 -2.178 0.463 2
8.5649996 -2.2160001 0.46200001 2
8.4809999 -2.085 0.46799999 2
8.5310001 -2.092 0.463 2
8.5059996 -2.2179999 0.46799999 2
8.5150003 -2.201 0.46700001 2
8.5749998 -2.2060001 0.461 2
8.4639997 -2.0829999 0.47 2
8.5270004 -2.1900001 0.465 2
8.5430002 -2.145 0.463 2
8.5340004 -2.184 0.46399999 2
8.4580002 -2.1270001 0.47099999 2
8.46 -2.154 0.472 2
8.552 -2.168 0.46200001 2
8.4759998 -2.1259999 0.46900001 2
8.5019999 -2.1199999 0.46700001 2
8.4759998 -2.039 0.46799999 2
8.46 -2.1930001 0.472 2
8.5220003 -2.0780001 0.46399999 2
8.4799995 -2.0450001 0.46799999 2
8.474 -2.1240001 0.47 2
8.5839996 -2.2030001 0.46000001 2
8.4709997 -2.1459999 0.47 2
8.4779997 -2.095 0.46900001 2
8.5810003 -2.2019999 0.46000001 2
8.4840002 -2.0929999 0.46799999 2
8.5790005 -2.224 0.461 2
8.4960003 -2.1099999 0.46700001 2
8.4709997 -2.184 0.47099999 2
8.5279999 -2.227 0.46599999 2
8.4980001 -2.102 0.46700001 2
8.4910002 -2.1400001 0.46799999 2
8.5340004 -2.2090001 0.465 2
8.5439997 -2.1589999 0.463 2
8.4700003 -2.1860001 0.47099999 2
8.5310001 -2.1849999 0.465 2
8.5930004 -2.2219999 0.45899999 2
8.5629997 -2.1800001 0.461 2
8.5310001 -2.1459999 0.46399999 2
8.4980001 -2.056 0.46599999 2
8.5050001 -2.1559999 0.46700001 2
8.5559998 -2.168 0.46200001 2
8.474 -2.1170001 0.46900001 2
8.5930004 -2.2360001 0.45899999 2
8.4829998 -2.1589999 0.46900001 2
8.5010004 -2.096 0.46599999 2
8.4870005 -2.2090001 0.47 2
8.5500002 -2.2130001 0.463 2
8.5740004 -2.1800001 0.46000001 2
8.5209999 -2.2219999 0.46599999 2
8.5270004 -2.1229999 0.46399999 2
8.4940004 -2.1229999 0.46799999 2
8.4770002 -2.1589999 0.47 2
8.493 -2.0539999 0.46700001 2
8.5 -2.161 0.46799999 2
8.474 -2.0650001 0.46900001 2
8.5039997 -2.187 0.46799999 2
8.5620003 -2.217 0.46200001 2
8.4799995 -2.1400001 0.46900001 2
8.4949999 -2.0840001 0.46700001 2
8.5970001 -2.2049999 0.458 2
8.5139999 -2.092 0.465 2
8.4519997 -2.1489999 0.472 2
8.5279999 -2.118 0.46399999 2
8.5749998 -2.198 0.461 2
8.4610004 -2.1029999 0.47099999 2
8.4589996 -2.1670001 0.472 2
8.5120001 -2.197 0.46700001 2
8.5679998 -2.158 0.461 2
8.5640001 -2.1789999 0.461 2
8.5810003 -2.2249999 0.46000001 2
8.5290003 -2.1700001 0.465 2
8.4460001 -2.1960001 0.47400001 2
8.507 -2.22 0.46799999 2
8.4630003 -2.2119999 0.472 2
8.5150003 -2.1659999 0.46599999 2
8.4750004 -2.05 0.46799999 2
8.5039997 -2.198 0.46799999 2
8.4729996 -2.0539999 0.46900001 2
8.4919996 -2.098 0.46700001 2
8.4849997 -2.1029999 0.46799999 2
8.4750004 -2.0869999 0.46900001 2
8.4870005 -2.2060001 0.47 2
8.474 -1.751 0.479 2
8.4940004 -1.744 0.465 2
8.5179996 -1.7410001 0.43599999 2
8.5010004 -1.737 0.472 2
8.5170002 -1.724 0.48100001 2
8.5100002 -1.748 0.43200001 2
8.5039997 -1.728 0.49000001 2
8.5109997 -1.732 0.47 2
8.5019999 -1.747 0.447 2
8.5229998 -1.716 0.49200001 2
8.5179996 -1.738 0.44400001 2
8.5039997 -1.745 0.449 2
8.4759998 -1.742 0.49900001 2
8.5270004 -1.726 0.46200001 2
8.5030003 -1.739 0.46599999 2
8.5270004 -1.721 0.47299999 2
8.5059996 -1.739 0.45899999 2
8.4870005 -1.75 0.46200001 2
8.5229998 -1.742 0.426 2
8.5159998 -1.725 0.47999999 2
8.5059996 -1.726 0.495 2
8.5249996 -1.726 0.46399999 2
8.5089998 -1.73 0.477 2
8.5139999 -1.725 0.48300001 2
8.4899998 -1.748 0.46200001 2
8.4940004 -1.7309999 0.498 2
8.5030003 -1.735 0.47600001 2
8.5220003 -1.744 0.42300001 2
8.5129995 -1.728 0.47799999 2
8.493 -1.735 0.491 2
8.5059996 -1.74 0.458 2
8.5279999 -1.744 0.41299999 2
8.5170002 -1.74 0.43900001 2
8.526 -1.72 0.479 2
8.5 -1.738 0.472 2
8.5249996 -1.744 0.419 2
8.5179996 -1.732 0.46000001 2
8.4829998 -1.742 0.48800001 2
8.5150003 -1.721 0.491 2
8.5179996 -1.72 0.49000001 2
8.5179996 -1.739 0.442 2
8.5159998 -1.732 0.46399999 2
8.5059996 -1.7359999 0.46900001 2
8.4960003 -1.745 0.45899999 2
8.5220003 -1.679 0.61299998 2
8.4949999 -1.727 0.50999999 2
8.5100002 -1.6950001 0.58499998 2
8.5200005 -1.714 0.50300002 2
8.4820004 -1.7359999 0.505 2
8.4809999 -1.728 0.53100002 2
8.4989996 -1.711 0.55400002 2
8.4980001 -1.71 0.55900002 2
8.4809999 -1.729 0.53100002 2
8.5010004 -1.712 0.54500002 2
8.5200005 -1.678 0.61900002 2
8.4949999 -1.726 0.51099998 2
8.5109997 -1.6900001 0.59600002 2
8.526 -1.697 0.54900002 2
8.5139999 -1.682 0.61799997 2
8.4770002 -1.723 0.55400002 2
8.5030003 -1.709 0.55299997 2
8.5089998 -1.721 0.50099999 2
8.4860001 -1.724 0.53399998 2
8.5129995 -1.719 0.49900001 2
8.5039997 -1.714 0.53200001 2
8.4759998 -1.723 0.55699998 2
8.5150003 -1.687 0.60000002 2
8.5129995 -1.696 0.57499999 2
8.5109997 -1.709 0.53600001 2
8.4860001 -1.712 0.57300001 2
8.4890003 -1.719 0.54699999 2
8.4650002 -1.74 0.52399999 2
8.5100002 -1.688 0.60500002 2
8.5209999 -1.7130001 0.50400001 2
8.5139999 -1.6849999 0.60699999 2
8.4890003 -1.7309999 0.50999999 2
8.5080004 -1.689 0.60699999 2
8.474 -1.733 0.528 2
8.4759998 -1.724 0.55500001 2
8.5089998 -1.6900001 0.60299999 2
8.5080004 -1.696 0.58399999 2
8.5209999 -1.707 0.52399999 2
8.5229998 -1.7079999 0.51899999 2
8.5249996 -1.702 0.52999997 2
8.5159998 -1.712 0.51599997 2
8.5220003 -1.674 0.62800002 2
8.5 -1.705 0.56900001 2
8.5139999 -1.719 0.5 2
8.5190001 -1.702 0.54400003 2
8.526 -1.712 0.49700001 2
8.5129995 -1.716 0.50999999 2
8.5139999 -1.6900001 0.59200001 2
8.5200005 -1.706 0.53100002 2
8.493 -1.73 0.50400001 2
8.5019999 -1.705 0.56699997 2
8.5240002 -1.701 0.53799999 2
8.5010004 -1.7 0.58600003 2
8.493 -1.729 0.50700003 2
8.493 -1.705 0.58399999 2
8.5170002 -1.71 0.523 2
8.4729996 -1.7359999 0.52399999 2
8.5209999 -1.687 0.58899999 2
8.4829998 -1.733 0.51099998 2
8.4860001 -1.724 0.53500003 2
8.5080004 -1.712 0.53399998 2
8.5190001 -1.692 0.57499999 2
8.4569998 -1.749 0.50999999 2
8.4580002 -1.747 0.51499999 2
8.5190001 -1.684 0.60100001 2
8.5159998 -1.687 0.59799999 2
8.5159998 -1.679 0.63 2
8.4870005 -1.711 0.57800001 2
8.4720001 -1.728 0.55900002 2
8.4689999 -1.7309999 0.54699999 2
8.4969997 -1.701 0.61199999 2
8.4840002 -1.715 0.59600002 2
8.493 -1.704 0.58600003 2
8.4820004 -1.717 0.58499998 2
8.4910002 -1.707 0.59500003 2
8.5019999 -1.694 0.61000001 2
8.5150003 -1.681 0.62400001 2
8.5010004 -1.696 0.61000001 2
8.5039997 -1.693 0.61299998 2
8.5039997 -1.692 0.60900003 2
8.5129995 -1.682 0.625 2
8.474 -1.726 0.57099998 2
8.4779997 -1.722 0.58600003 2
8.4969997 -1.701 0.60600001 2
8.4949999 -1.702 0.59799999 2
8.5129995 -1.683 0.62900001 2
8.4860001 -1.693 0.66100001 2
8.493 -1.7029999 0.62 2
8.4960003 -1.699 0.62599999 2
8.4919996 -1.7029999 0.62300003 2
8.4759998 -1.7 0.66399997 2
8.5019999 -1.693 0.62599999 2
8.4729996 -1.7079999 0.65100002 2
8.4980001 -1.686 0.65200001 2
8.493 -1.7 0.62900001 2
8.5 -1.682 0.65700001 2
8.4650002 -1.705 0.67400002 2
8.4960003 -1.692 0.63999999 2
8.4849997 -1.694 0.65799999 2
8.474 -1.694 0.68000001 2
8.474 -1.6950001 0.68000001 2
8.4720001 -1.707 0.65399998 2
8.5200005 -1.673 0.639 2
8.4589996 -1.7029999 0.69300002 2
8.5010004 -1.6950001 0.62300003 2
8.5089998 -1.679 0.64499998 2
8.4809999 -1.694 0.667 2
8.4860001 -1.709 0.61900002 2
8.5100002 -1.682 0.63800001 2
8.4659996 -1.704 0.676 2
8.4919996 -1.704 0.62 2
8.4779997 -1.693 0.67500001 2
8.5010004 -1.682 0.65399998 2
8.4639997 -1.705 0.72100002 2
8.4790001 -1.687 0.72500002 2
8.5089998 -1.675 0.77499998 2
8.5030003 -1.686 0.77999997 2
8.4829998 -1.7029999 0.759 2
8.5039997 -1.683 0.77499998 2
8.5 -1.682 0.76499999 2
8.4860001 -1.705 0.76899999 2
8.4779997 -1.71 0.76099998 2
8.493 -1.683 0.75199997 2
8.4829998 -1.6900001 0.73900002 2
8.4890003 -1.683 0.74199998 2
8.493 -1.678 0.74299997 2
8.4799995 -1.717 0.77600002 2
8.5159998 -1.66 0.76599997 2
8.4899998 -1.694 0.76200002 2
8.4650002 -1.697 0.70999998 2
8.507 -1.661 0.74900001 2
8.5109997 -1.663 0.75999999 2
8.5 -1.675 0.75400001 2
8.4799995 -1.715 0.773 2
8.4890003 -1.7029999 0.77399999 2
8.4870005 -1.693 0.75400001 2
8.4899998 -1.689 0.75400001 2
8.4949999 -1.694 0.773 2
8.5030003 -1.6900001 0.78399998 2
8.4820004 -1.711 0.77100003 2
8.4860001 -1.7079999 0.77499998 2
8.4899998 -1.694 0.76200002 2
8.5050001 -1.682 0.778 2
8.4980001 -1.699 0.787 2
8.4779997 -1.7130001 0.76499999 2
8.4689999 -1.697 0.71700001 2
8.5109997 -1.669 0.76999998 2
8.4989996 -1.696 0.78500003 2
8.4659996 -1.698 0.71399999 2
8.4750004 -1.709 0.75099999 2
8.4619999 -1.698 0.70499998 2
8.4799995 -1.719 0.77899998 2
8.5100002 -1.6720001 0.77100003 2
8.4899998 -1.71 0.78799999 2
8.4980001 -1.682 0.75999999 2
8.5129995 -1.66 0.75999999 2
8.4829998 -1.6950001 0.74699998 2
8.5050001 -1.671 0.75999999 2
8.4849997 -1.9 0.46000001 2
8.6450005 -1.8789999 0.44400001 2
8.6420002 -1.8380001 0.44100001 2
8.5480003 -1.924 0.456 2
8.5959997 -1.903 0.44999999 2
8.5780001 -1.938 0.454 2
8.6099997 -1.854 0.44499999 2
8.5839996 -1.8789999 0.449 2
8.5229998 -1.847 0.45300001 2
8.4919996 -1.97 0.46399999 2
8.54 -1.919 0.456 2
8.5229998 -1.915 0.45699999 2
8.6059999 -1.887 0.44800001 2
8.5649996 -1.901 0.45300001 2
8.4890003 -1.823 0.45500001 2
8.5100002 -1.985 0.463 2
8.4960003 -1.9529999 0.46200001 2
8.5369997 -1.961 0.45899999 2
8.5319996 -1.893 0.45500001 2
8.7010002 -1.851 0.43700001 2
8.5579996 -1.949 0.456 2
8.5200005 -1.96 0.46000001 2
8.5299997 -1.973 0.46000001 2
8.4840002 -1.952 0.463 2
8.5200005 -1.955 0.46000001 2
8.5019999 -1.8430001 0.45500001 2
8.5360003 -1.864 0.45300001 2
8.5439997 -1.901 0.45500001 2
8.6709995 -1.854 0.44 2
8.6129999 -1.914 0.449 2
8.5179996 -1.837 0.45300001 2
8.526 -1.836 0.45199999 2
8.4820004 -1.897 0.46000001 2
8.5500002 -1.876 0.45199999 2
8.5319996 -1.896 0.45500001 2
8.5019999 -1.943 0.461 2
8.6230001 -1.872 0.44499999 2
8.5500002 -1.85 0.45100001 2
8.4910002 -1.961 0.463 2
8.5170002 -1.84 0.45300001 2
8.5609999 -1.905 0.45300001 2
8.4910002 -1.959 0.463 2
8.651 -1.87 0.44299999 2
8.5509996 -1.931 0.456 2
8.5089998 -1.898 0.458 2
8.5769997 -1.831 0.447 2
8.5369997 -1.957 0.45899999 2
8.5719995 -1.896 0.45199999 2
8.6359997 -1.842 0.442 2
8.5220003 -1.941 0.45899999 2
8.6520004 -1.847 0.44100001 2
8.5380001 -1.8559999 0.45199999 2
8.5109997 -1.8609999 0.45500001 2
8.5550003 -1.877 0.45199999 2
8.5620003 -1.883 0.45199999 2
8.5279999 -1.892 0.45500001 2
8.5570002 -1.887 0.45199999 2
8.6099997 -1.865 0.44600001 2
8.5880003 -1.852 0.447 2
8.5450001 -1.831 0.44999999 2
8.6389999 -1.839 0.442 2
8.5310001 -1.829 0.45100001 2
8.5139999 -1.946 0.46000001 2
8.5050001 -1.928 0.46000001 2
8.4910002 -1.966 0.46399999 2
8.5170002 -1.9299999 0.45899999 2
8.6040001 -1.891 0.44800001 2
8.5179996 -1.849 0.454 2
8.4960003 -1.885 0.458 2
8.5799999 -1.848 0.44800001 2
8.4960003 -1.932 0.461 2
8.6070004 -1.873 0.447 2
8.4919996 -1.944 0.46200001 2
8.6879997 -1.862 0.43900001 2
8.4899998 -1.829 0.45500001 2
8.6339998 -1.87 0.44400001 2
8.5690002 -1.91 0.45300001 2
8.5270004 -1.932 0.458 2
8.4989996 -1.983 0.46399999 2
8.6929998 -1.854 0.43799999 2
8.5699997 -1.899 0.45199999 2
8.5559998 -1.883 0.45199999 2
8.717 -1.845 0.435 2
8.6689997 -1.862 0.44100001 2
8.4879999 -1.901 0.46000001 2
8.5900002 -1.883 0.449 2
8.5150003 -1.96 0.461 2
8.5819998 -1.832 0.447 2
8.5340004 -1.946 0.458 2
8.5439997 -1.957 0.458 2
8.6639996 -1.87 0.442 2
8.5290003 -1.942 0.45899999 2
8.5240002 -1.891 0.456 2
8.6660004 -1.868 0.44100001 2
8.5869999 -1.8710001 0.449 2
8.5059996 -1.8430001 0.454 2
8.6450005 -1.853 0.442 2
8.5150003 -1.8329999 0.45300001 2
8.4870005 -1.8789999 0.458 2
8.5559998 -1.946 0.456 2
8.6219997 -1.864 0.44499999 2
8.5860004 -1.902 0.45100001 2
8.5129995 -1.832 0.45300001 2
8.4809999 -1.8660001 0.458 2
8.5909996 -1.8380001 0.44600001 2
8.6850004 -1.8660001 0.43900001 2
8.6660004 -1.881 0.442 2
8.4879999 -1.936 0.46200001 2
8.526 -1.949 0.45899999 2
8.5439997 -1.926 0.456 2
8.5299997 -1.9069999 0.456 2
8.4949999 -1.825 0.454 2
8.5050001 -1.8609999 0.456 2
8.4980001 -1.87 0.45699999 2
8.4840002 -1.936 0.46200001 2
8.5039997 -1.837 0.454 2
8.5059996 -1.888 0.45699999 2
8.5439997 -1.8609999 0.45199999 2
8.6490002 -1.87 0.44299999 2
8.5170002 -1.863 0.45500001 2
8.5139999 -1.916 0.458 2
8.5640001 -1.936 0.45500001 2
8.5880003 -1.8380001 0.447 2
8.6379995 -1.848 0.442 2
8.6990004 -1.852 0.43700001 2
8.5570002 -1.864 0.45100001 2
8.6339998 -1.836 0.442 2
8.6020002 -1.857 0.44600001 2
8.5159998 -1.954 0.46000001 2
8.5229998 -1.877 0.45500001 2
8.4809999 -1.8839999 0.45899999 2
8.5790005 -1.928 0.45300001 2
8.6260004 -1.839 0.44299999 2
8.4899998 -1.9170001 0.461 2
8.6520004 -1.841 0.44100001 2
8.5839996 -1.905 0.45100001 2
8.5129995 -1.86 0.45500001 2
8.5190001 -1.913 0.458 2
8.5340004 -1.839 0.45199999 2
8.5550003 -1.9450001 0.456 2
8.5670004 -1.892 0.45199999 2
8.5080004 -1.853 0.45500001 2
8.4960003 -1.87 0.45699999 2
8.5270004 -1.88 0.45500001 2
8.5819998 -1.858 0.44800001 2
8.6990004 -1.844 0.43700001 2
8.566 -1.881 0.45100001 2
8.5950003 -1.8839999 0.449 2
8.5419998 -1.8839999 0.454 2
8.5450001 -1.9450001 0.45699999 2
8.5220003 -1.887 0.456 2
8.7159996 -1.846 0.435 2
8.5100002 -1.874 0.456 2
8.5220003 -1.923 0.458 2
8.6149998 -1.868 0.44600001 2
8.6409998 -1.839 0.442 2
8.5030003 -1.914 0.45899999 2
8.5880003 -1.904 0.45100001 2
8.6440001 -1.886 0.44400001 2
8.6370001 -1.898 0.44600001 2
8.526 -1.976 0.461 2
8.5439997 -1.9579999 0.458 2
8.5530005 -1.8559999 0.45100001 2
8.5380001 -1.966 0.45899999 2
8.4849997 -1.992 0.46599999 2
8.4840002 -1.9119999 0.461 2
8.5410004 -1.91 0.45500001 2
8.5649996 -1.882 0.45100001 2
8.552 -1.882 0.45300001 2
8.5769997 -1.848 0.44800001 2
8.5240002 -1.831 0.45199999 2
8.5030003 -1.853 0.45500001 2
8.4849997 -1.939 0.46200001 2
8.6750002 -1.8609999 0.44 2
8.5719995 -1.847 0.449 2
8.552 -1.8660001 0.45199999 2
8.4829998 -1.844 0.45699999 2
8.5150003 -1.886 0.456 2
8.5819998 -1.8559999 0.44800001 2
8.5279999 -1.955 0.45899999 2
8.6470003 -1.882 0.44400001 2
8.5120001 -1.952 0.461 2
8.5889997 -1.8660001 0.44800001 2
8.6210003 -1.8940001 0.447 2
8.533 -1.89 0.45500001 2
8.6219997 -1.867 0.44499999 2
8.618 -1.862 0.44499999 2
8.5389996 -1.877 0.454 2
8.4840002 -1.83 0.456 2
8.4969997 -1.938 0.461 2
8.5139999 -1.9809999 0.46200001 2
8.5010004 -1.899 0.458 2
8.6029997 -1.888 0.44800001 2
8.5229998 -1.9349999 0.45899999 2
8.6630001 -1.877 0.442 2
8.5419998 -1.8710001 0.45300001 2
8.4969997 -1.984 0.46399999 2
8.6680002 -1.865 0.44100001 2
8.6820002 -1.8609999 0.43900001 2
8.5450001 -1.947 0.45699999 2
8.6289997 -1.8789999 0.44499999 2
8.5760002 -1.8430001 0.44800001 2
8.6929998 -1.859 0.43799999 2
8.4879999 -1.967 0.46399999 2
8.6269999 -1.857 0.44400001 2
8.5139999 -1.887 0.456 2
8.5970001 -1.918 0.45100001 2
8.6490002 -1.8430001 0.44100001 2
8.5200005 -1.97 0.461 2
8.5240002 -1.903 0.45699999 2
8.5010004 -1.916 0.45899999 2
8.5839996 -1.839 0.447 2
8.6090002 -1.849 0.44499999 2
8.6079998 -1.9069999 0.449 2
8.6230001 -1.887 0.44600001 2
8.6450005 -1.847 0.442 2
8.5649996 -1.9349999 0.45500001 2
8.6820002 -1.839 0.43799999 2
8.6960001 -1.852 0.43700001 2
8.5059996 -1.8660001 0.456 2
8.5450001 -1.911 0.45500001 2
8.5459995 -1.895 0.454 2
8.5500002 -1.844 0.44999999 2
8.54 -1.839 0.45100001 2
8.5839996 -1.891 0.44999999 2
8.618 -1.869 0.44600001 2
8.6459999 -1.867 0.44299999 2
8.5089998 -1.7690001 0.377 2
8.4899998 -1.783 0.398 2
8.5150003 -1.7640001 0.37799999 2
8.493 -1.783 0.38299999 2
8.5209999 -1.7589999 0.37799999 2
8.4720001 -1.799 0.40000001 2
8.5249996 -1.7539999 0.38699999 2
8.5200005 -1.7589999 0.382 2
8.5100002 -1.7690001 0.377 2
8.4949999 -1.781 0.38499999 2
8.4860001 -1.786 0.403 2
8.5 -1.776 0.384 2
8.4849997 -1.788 0.39399999 2
8.5240002 -1.752 0.40200001 2
8.5120001 -1.766 0.38600001 2
8.4750004 -1.796 0.39700001 2
8.5200005 -1.7589999 0.38299999 2
8.4870005 -1.7869999 0.38999999 2
8.5150003 -1.7640001 0.37599999 2
8.4960003 -1.779 0.38600001 2
8.4960003 -1.673 0.72100002 2
8.5200005 -1.66 0.70999998 2
8.5089998 -1.6720001 0.68199998 2
8.4879999 -1.679 0.71899998 2
8.5150003 -1.671 0.66799998 2
8.5190001 -1.668 0.67000002 2
8.5179996 -1.668 0.67199999 2
8.4799995 -1.684 0.72100002 2
8.5170002 -1.6619999 0.70999998 2
8.4770002 -1.689 0.704 2
8.4860001 -1.679 0.72399998 2
8.4919996 -1.675 0.722 2
8.4870005 -1.6799999 0.71700001 2
8.5080004 -1.671 0.68900001 2
8.507 -1.67 0.70300001 2
8.4989996 -1.6720001 0.72100002 2
8.5010004 -1.678 0.67199999 2
8.4960003 -1.683 0.66799998 2
8.4729996 -1.694 0.68599999 2
8.507 -1.669 0.70499998 2
8.4870005 -1.6849999 0.685 2
8.5190001 -1.666 0.67799997 2
8.5120001 -1.673 0.66500002 2
8.5139999 -1.67 0.676 2
8.5059996 -1.666 0.72799999 2
8.5100002 -1.67 0.68699998 2
8.5039997 -1.673 0.69300002 2
8.5190001 -1.6670001 0.67500001 2
8.5059996 -1.664 0.73799998 2
8.4840002 -1.681 0.72100002 2
8.4899998 -1.678 0.71899998 2
8.5039997 -1.676 0.676 2
8.4910002 -1.681 0.69499999 2
8.5100002 -1.67 0.69099998 2
8.5159998 -1.663 0.70700002 2
8.4689999 -1.696 0.69 2
8.5019999 -1.677 0.67799997 2
8.4729996 -1.689 0.71399999 2
8.493 -1.675 0.72000003 2
8.5159998 -1.6720001 0.65399998 2
8.5229998 -1.664 0.676 2
8.4779997 -1.691 0.68300003 2
8.5240002 -1.659 0.69999999 2
8.5209999 -1.671 0.64300001 2
8.5089998 -1.661 0.74800003 2
8.4729996 -1.694 0.68599999 2
8.4890003 -1.682 0.69800001 2
8.6829996 -1.824 0.493 2
8.6359997 -1.812 0.52899998 2
8.6730003 -1.836 0.44600001 2
8.6789999 -1.781 0.66000003 2
8.5860004 -1.823 0.472 2
8.6049995 -1.801 0.56300002 2
8.7349997 -1.802 0.59399998 2
8.7309999 -1.804 0.583 2
8.6890001 -1.812 0.54100001 2
8.7250004 -1.8049999 0.57599998 2
8.698 -1.7920001 0.62199998 2
8.658 -1.775 0.67500001 2
8.6899996 -1.811 0.54699999 2
8.6479998 -1.8150001 0.51899999 2
8.5600004 -1.821 0.47299999 2
8.5050001 -1.816 0.47999999 2
8.6569996 -1.835 0.44299999 2
8.665 -1.819 0.50700003 2
8.5629997 -1.8049999 0.53399998 2
8.6560001 -1.824 0.486 2
8.6890001 -1.783 0.653 2
8.5839996 -1.816 0.5 2
8.684 -1.775 0.68199998 2
8.5670004 -1.806 0.53299999 2
8.7049999 -1.766 0.72399998 2
8.6379995 -1.824 0.48100001 2
8.7139997 -1.801 0.59100002 2
8.5909996 -1.791 0.597 2
8.6739998 -1.8099999 0.54299998 2
8.71 -1.7869999 0.64200002 2
8.5120001 -1.817 0.47499999 2
8.7180004 -1.7970001 0.60699999 2
8.599 -1.825 0.46599999 2
8.6280003 -1.825 0.47499999 2
8.7130003 -1.758 0.755 2
8.599 -1.808 0.53399998 2
8.5810003 -1.806 0.53500003 2
8.5150003 -1.819 0.47 2
8.6540003 -1.823 0.491 2
8.6420002 -1.798 0.583 2
8.6260004 -1.83 0.456 2
8.6479998 -1.788 0.62400001 2
8.599 -1.803 0.55199999 2
8.6569996 -1.834 0.44600001 2
8.7130003 -1.836 0.454 2
8.6350002 -1.822 0.48899999 2
8.691 -1.8329999 0.45899999 2
8.5799999 -1.799 0.56199998 2
8.6960001 -1.776 0.68300003 2
8.5279999 -1.812 0.50099999 2
8.6870003 -1.793 0.61299998 2
8.7410002 -1.776 0.69599998 2
8.7150002 -1.799 0.597 2
8.7309999 -1.7589999 0.755 2
8.7069998 -1.796 0.60699999 2
8.6459999 -1.795 0.59500003 2
8.7379999 -1.771 0.713 2
8.6330004 -1.821 0.49000001 2
8.5950003 -1.8279999 0.454 2
8.6079998 -1.814 0.514 2
8.6000004 -1.796 0.58099997 2
8.6730003 -1.785 0.63999999 2
8.6350002 -1.83 0.45699999 2
8.6350002 -1.8279999 0.46700001 2
8.7419996 -1.76 0.75700003 2
8.6610003 -1.7920001 0.611 2
8.7060003 -1.781 0.667 2
8.6049995 -1.822 0.47999999 2
8.6300001 -1.826 0.47 2
8.6300001 -1.825 0.47400001 2
8.717 -1.783 0.66100001 2
8.6920004 -1.826 0.486 2
8.5480003 -1.807 0.52200001 2
8.5030003 -1.821 0.45899999 2
8.6890001 -1.807 0.56 2
8.7209997 -1.778 0.68300003 2
8.7040005 -1.823 0.50400001 2
8.5419998 -1.807 0.52200001 2
8.5500002 -1.813 0.49900001 2
8.7370005 -1.758 0.76099998 2
8.5699997 -1.798 0.56599998 2
8.6260004 -1.818 0.5 2
8.7360001 -1.752 0.787 2
8.6049995 -1.821 0.48300001 2
8.7410002 -1.762 0.74800003 2
8.5559998 -1.808 0.52100003 2
8.7320004 -1.76 0.75199997 2
8.5819998 -1.825 0.461 2
8.7119999 -1.831 0.47299999 2
8.6700001 -1.7819999 0.65399998 2
8.5229998 -1.821 0.46399999 2
8.5649996 -1.804 0.54000002 2
8.658 -1.821 0.498 2
8.7060003 -1.834 0.45899999 2
8.6409998 -1.8200001 0.49700001 2
8.6479998 -1.8200001 0.5 2
8.5670004 -1.813 0.50400001 2
8.5979996 -1.7970001 0.57700002 2
8.6379995 -1.824 0.48199999 2
8.7159996 -1.8329999 0.46599999 2
8.6110001 -1.7920001 0.59899998 2
8.6820002 -1.781 0.65899998 2
8.7019997 -1.813 0.54000002 2
8.6049995 -1.795 0.58399999 2
8.7309999 -1.813 0.54900002 2
8.6590004 -1.8279999 0.47099999 2
8.7189999 -1.825 0.49700001 2
8.6920004 -1.777 0.67500001 2
8.5380001 -1.8150001 0.49000001 2
8.6490002 -1.8150001 0.51800001 2
8.7130003 -1.786 0.64899999 2
8.6789999 -1.835 0.44999999 2
8.5500002 -1.8150001 0.49200001 2
8.7200003 -1.795 0.616 2
8.7189999 -1.798 0.60299999 2
8.7139997 -1.822 0.50800002 2
8.6470003 -1.806 0.55400002 2
8.6890001 -1.789 0.63200003 2
8.724 -1.777 0.68699998 2
8.6879997 -1.812 0.54100001 2
8.552 -1.819 0.47999999 2
8.6540003 -1.781 0.65200001 2
8.6730003 -1.775 0.68000001 2
8.6859999 -1.773 0.69300002 2
8.5360003 -1.811 0.50700003 2
8.6960001 -1.791 0.62400001 2
8.6829996 -1.7869999 0.63599998 2
8.7270002 -1.799 0.60000002 2
8.6059999 -1.823 0.477 2
8.5019999 -1.819 0.46399999 2
8.6389999 -1.789 0.61799997 2
8.5950003 -1.827 0.45899999 2
8.6549997 -1.835 0.442 2
8.566 -1.824 0.463 2
8.7370005 -1.778 0.68699998 2
8.6389999 -1.822 0.491 2
8.6879997 -1.809 0.551 2
8.6890001 -1.78 0.66399997 2
8.6660004 -1.798 0.58999997 2
8.6879997 -1.773 0.69400001 2
8.6459999 -1.776 0.671 2
8.6809998 -1.824 0.49399999 2
8.6920004 -1.829 0.47499999 2
8.6689997 -1.83 0.46700001 2
8.7309999 -1.806 0.574 2
8.6309996 -1.831 0.45300001 2
8.7419996 -1.757 0.76800001 2
8.6169996 -1.821 0.48800001 2
8.6079998 -1.8200001 0.491 2
8.6070004 -1.823 0.47799999 2
8.6260004 -1.799 0.57599998 2
8.6129999 -1.818 0.498 2
8.5200005 -1.818 0.47299999 2
8.6420002 -1.8099999 0.537 2
8.7069998 -1.821 0.51099998 2
8.5600004 -1.813 0.50300002 2
8.5740004 -1.821 0.47799999 2
8.5600004 -1.8049999 0.53299999 2
8.724 -1.832 0.47400001 2
8.691 -1.8049999 0.56999999 2
8.5760002 -1.801 0.55400002 2
8.684 -1.811 0.54299998 2
8.7089996 -1.786 0.64700001 2
8.6160002 -1.8279999 0.45899999 2
8.6169996 -1.8 0.56800002 2
8.5480003 -1.825 0.45500001 2
8.6280003 -1.816 0.51099998 2
8.7010002 -1.808 0.56099999 2
8.5430002 -1.812 0.505 2
8.7159996 -1.841 0.43599999 2
8.6049995 -1.816 0.50300002 2
8.6960001 -1.812 0.54400003 2
8.6199999 -1.821 0.49000001 2
8.5880003 -1.795 0.58200002 2
8.7279997 -1.762 0.745 2
8.7139997 -1.784 0.65700001 2
8.6999998 -1.765 0.72500002 2
8.6890001 -1.776 0.68099999 2
8.7139997 -1.78 0.67199999 2
8.54 -1.811 0.50599998 2
8.7110004 -1.7640001 0.73199999 2
8.6219997 -1.8329999 0.44299999 2
8.6619997 -1.8049999 0.56099999 2
8.7030001 -1.763 0.73400003 2
8.4899998 -1.821 0.45500001 2
8.6940002 -1.794 0.61199999 2
8.6420002 -1.812 0.52899998 2
8.6560001 -1.819 0.50400001 2
8.743 -1.768 0.727 2
8.6800003 -1.806 0.56099999 2
8.6129999 -1.807 0.542 2
8.5699997 -1.821 0.47299999 2
8.6780005 -1.837 0.44100001 2
8.7069998 -1.79 0.63099998 2
8.585 -1.807 0.53200001 2
8.6759996 -1.829 0.47400001 2
8.6149998 -1.8099999 0.528 2
8.7270002 -1.766 0.72899997 2
8.7200003 -1.777 0.685 2
8.658 -1.823 0.49000001 2
8.6429996 -1.777 0.66399997 2
8.5620003 -1.804 0.537 2
8.6859999 -1.8150001 0.528 2
8.6350002 -1.826 0.47400001 2
8.6960001 -1.814 0.53500003 2
8.6700001 -1.825 0.48500001 2
8.6029997 -1.803 0.55299997 2
8.658 -1.793 0.60600001 2
8.7229996 -1.7690001 0.71600002 2
8.7069998 -1.779 0.67500001 2
8.658 -1.78 0.65700001 2
8.5629997 -1.804 0.54100001 2
8.5640001 -1.823 0.46599999 2
8.6949997 -1.793 0.61799997 2
8.6470003 -1.812 0.52999997 2
8.526 -1.816 0.48199999 2
8.7290001 -1.817 0.53200001 2
8.5690002 -1.809 0.523 2
8.6479998 -1.825 0.47999999 2
8.7049999 -1.76 0.74699998 2
8.592 -1.811 0.52100003 2
8.6070004 -1.799 0.56999999 2
8.5719995 -1.8150001 0.5 2
8.632 -1.808 0.54100001 2
8.7069998 -1.783 0.65799999 2
8.7139997 -1.761 0.74400002 2
8.7360001 -1.767 0.72600001 2
8.6969995 -1.821 0.509 2
8.6370001 -1.827 0.46900001 2
8.5240002 -1.808 0.51200002 2
8.5640001 -1.802 0.54699999 2
8.632 -1.811 0.52999997 2
8.5629997 -1.818 0.48699999 2
8.7440004 -1.7539999 0.778 2
8.7290001 -1.791 0.63099998 2
8.7460003 -1.753 0.78299999 2
8.6899996 -1.791 0.62300003 2
8.658 -1.809 0.546 2
8.658 -1.802 0.57300001 2
8.6459999 -1.794 0.60000002 2
8.6330004 -1.784 0.63700002 2
8.6429996 -1.791 0.61000001 2
8.6529999 -1.832 0.45300001 2
8.6859999 -1.8150001 0.528 2
8.691 -1.798 0.59500003 2
8.7229996 -1.812 0.54900002 2
8.6169996 -1.7869999 0.61799997 2
8.691 -1.8099999 0.54799998 2
8.6070004 -1.8150001 0.509 2
8.7340002 -1.7920001 0.63200003 2
8.5780001 -1.8099999 0.51899999 2
8.6479998 -1.781 0.64999998 2
8.6789999 -1.7920001 0.61799997 2
8.6759996 -1.816 0.52399999 2
8.7069998 -1.763 0.73500001 2
8.7010002 -1.836 0.45300001 2
8.5080004 -1.816 0.47999999 2
8.724 -1.802 0.58700001 2
8.6029997 -1.8200001 0.48699999 2
8.6879997 -1.775 0.68400002 2
8.6859999 -1.8329999 0.46000001 2
8.5299997 -1.822 0.463 2
8.651 -1.831 0.45899999 2
8.6879997 -1.8200001 0.50999999 2
8.6820002 -1.821 0.50300002 2
8.5050001 -1.821 0.458 2
8.6470003 -1.816 0.51499999 2
8.6309996 -1.791 0.60600001 2
8.6719999 -1.8049999 0.56199998 2
8.6020002 -1.803 0.55199999 2
8.6739998 -1.822 0.49700001 2
8.6429996 -1.813 0.52600002 2
8.7259998 -1.771 0.71100003 2
8.698 -1.8099999 0.55000001 2
8.6160002 -1.793 0.597 2
8.7010002 -1.781 0.66500002 2
8.5889997 -1.813 0.51099998 2
8.5570002 -1.816 0.48899999 2
8.6350002 -1.788 0.61900002 2
8.7069998 -1.79 0.63099998 2
8.6999998 -1.771 0.704 2
8.724 -1.801 0.59200001 2
8.5450001 -1.808 0.52100003 2
8.573 -1.798 0.565 2
8.6669998 -1.825 0.484 2
8.6289997 -1.8150001 0.514 2
8.5500002 -1.824 0.46000001 2
8.6339998 -1.8049999 0.55400002 2
8.7349997 -1.763 0.74299997 2
8.5459995 -1.808 0.52100003 2
8.5900002 -1.816 0.50099999 2
8.6479998 -1.7920001 0.60699999 2
8.6459999 -1.832 0.45100001 2
8.7019997 -1.789 0.634 2
8.6590004 -1.809 0.54500002 2
8.5570002 -1.821 0.47299999 2
8.599 -1.829 0.45100001 2
8.6800003 -1.793 0.611 2
8.717 -1.8380001 0.449 2
8.5270004 -1.813 0.495 2
8.6149998 -1.8049999 0.54900002 2
8.5740004 -1.802 0.55000001 2
8.7119999 -1.786 0.64600003 2
8.6490002 -1.779 0.65700001 2
8.7370005 -1.7539999 0.77899998 2
8.691 -1.791 0.62400001 2
8.7159996 -1.825 0.498 2
8.5279999 -1.823 0.45500001 2
8.6400003 -1.812 0.52899998 2
8.5570002 -1.801 0.551 2
8.6459999 -1.8279999 0.46900001 2
8.7080002 -1.784 0.65399998 2
8.6099997 -1.816 0.505 2
8.7119999 -1.795 0.61299998 2
8.5970001 -1.807 0.53600001 2
8.6789999 -1.77 0.70099998 2
8.6529999 -1.8329999 0.45199999 2
8.7010002 -1.775 0.68599999 2
8.6599998 -1.793 0.60900003 2
8.5830002 -1.8049999 0.54100001 2
8.6920004 -1.778 0.67500001 2
8.6120005 -1.785 0.62699997 2
8.6210003 -1.803 0.55699998 2
8.6990004 -1.819 0.51700002 2
8.6560001 -1.827 0.47499999 2
8.6969995 -1.7640001 0.72799999 2
8.724 -1.758 0.75999999 2
8.5450001 -1.819 0.47600001 2
8.6140003 -1.809 0.53100002 2
8.5760002 -1.7970001 0.57099998 2
8.5380001 -1.814 0.49599999 2
8.6850004 -1.781 0.662 2
8.724 -1.798 0.60500002 2
8.6879997 -1.795 0.60799998 2
8.5889997 -1.799 0.56400001 2
8.5959997 -1.7920001 0.59299999 2
8.6429996 -1.8200001 0.49900001 2
8.6899996 -1.768 0.71100003 2
8.677 -1.784 0.648 2
8.7010002 -1.825 0.493 2
8.5579996 -1.825 0.458 2
8.6020002 -1.819 0.49000001 2
8.7049999 -1.8380001 0.44299999 2
8.6300001 -1.823 0.484 2
8.6389999 -1.813 0.52200001 2
8.6990004 -1.83 0.472 2
8.6040001 -1.825 0.46700001 2
8.6999998 -1.79 0.63099998 2
8.5419998 -1.808 0.51899999 2
8.6520004 -1.796 0.59500003 2
8.7119999 -1.837 0.449 2
8.7200003 -1.83 0.48100001 2
8.5430002 -1.814 0.493 2
8.5319996 -1.819 0.472 2
8.7030001 -1.79 0.63 2
8.684 -1.816 0.52399999 2
8.6560001 -1.803 0.56699997 2
8.7329998 -1.781 0.67400002 2
8.7349997 -1.771 0.71100003 2
8.5760002 -1.822 0.47400001 2
8.6000004 -1.789 0.60600001 2
8.7040005 -1.8 0.58999997 2
8.6560001 -1.822 0.495 2
8.6990004 -1.812 0.54400003 2
8.5609999 -1.812 0.50800002 2
8.691 -1.785 0.64600003 2
8.6289997 -1.829 0.461 2
8.6820002 -1.812 0.54100001 2
8.5170002 -1.817 0.47799999 2
8.7410002 -1.752 0.787 2
8.6739998 -1.774 0.68300003 2
8.5570002 -1.8 0.55199999 2
8.6029997 -1.798 0.574 2
8.6440001 -1.786 0.62800002 2
8.7229996 -1.776 0.69 2
8.6120005 -1.8099999 0.528 2
8.6339998 -1.8150001 0.51499999 2
8.7060003 -1.839 0.44100001 2
8.6260004 -1.786 0.62699997 2
8.6899996 -1.832 0.46200001 2
8.6879997 -1.774 0.68800002 2
8.6379995 -1.824 0.48100001 2
8.6110001 -1.821 0.48500001 2
8.7130003 -1.7690001 0.71399999 2
8.6899996 -1.835 0.45300001 2
8.5640001 -1.821 0.47299999 2
8.6070004 -1.825 0.46900001 2
8.6330004 -1.79 0.61000001 2
8.6929998 -1.7640001 0.72899997 2
8.7089996 -1.79 0.63 2
8.6549997 -1.825 0.48300001 2
8.618 -1.795 0.588 2
8.6140003 -1.8200001 0.49200001 2
8.6389999 -1.806 0.55000001 2
8.6409998 -1.825 0.47799999 2
8.7220001 -1.758 0.75700003 2
8.6560001 -1.824 0.48500001 2
8.6079998 -1.8099999 0.52700001 2
8.6219997 -1.826 0.46799999 2
8.7069998 -1.78 0.67199999 2
8.6009998 -1.807 0.53899997 2
8.6929998 -1.809 0.55400002 2
8.7320004 -1.806 0.574 2
8.6540003 -1.832 0.45300001 2
8.5179996 -1.814 0.49000001 2
8.5190001 -1.816 0.47999999 2
8.6429996 -1.78 0.65399998 2
8.71 -1.821 0.51200002 2
8.54 -1.819 0.477 2
8.7049999 -1.795 0.61199999 2
8.71 -1.829 0.47999999 2
8.6090002 -1.809 0.53299999 2
8.7159996 -1.832 0.47 2
8.6379995 -1.806 0.54900002 2
8.5450001 -1.822 0.463 2
8.5579996 -1.814 0.49900001 2
8.7220001 -1.837 0.454 2
8.7069998 -1.76 0.74800003 2
8.6110001 -1.802 0.55800003 2
8.717 -1.84 0.43900001 2
8.6960001 -1.823 0.50199997 2
8.6470003 -1.8329999 0.45100001 2
8.7060003 -1.776 0.685 2
8.5310001 -1.816 0.484 2
8.7329998 -1.784 0.66100001 2
8.5220003 -1.817 0.479 2
8.5340004 -1.8200001 0.47099999 2
8.4980001 -1.816 0.477 2
8.6429996 -1.819 0.5 2
8.5509996 -1.8049999 0.53299999 2
8.6289997 -1.7869999 0.62099999 2
8.7130003 -1.824 0.49900001 2
8.6719999 -1.835 0.447 2
8.6610003 -1.809 0.546 2
8.7390003 -1.765 0.73699999 2
8.7049999 -1.817 0.52700001 2
8.5719995 -1.827 0.454 2
8.566 -1.827 0.44999999 2
8.6230001 -1.803 0.55699998 2
8.7220001 -1.765 0.73199999 2
8.5930004 -1.808 0.53299999 2
8.6700001 -1.824 0.48800001 2
8.6940002 -1.798 0.597 2
8.5719995 -1.806 0.53500003 2
8.7189999 -1.84 0.44 2
8.6820002 -1.766 0.71700001 2
8.5839996 -1.8049999 0.542 2
8.6960001 -1.825 0.49399999 2
8.7229996 -1.8099999 0.55800003 2
8.7089996 -1.781 0.66600001 2
8.684 -1.799 0.59100002 2
8.6809998 -1.772 0.69199997 2
8.6599998 -1.779 0.662 2
8.7220001 -1.834 0.46399999 2
8.677 -1.827 0.47999999 2
8.6800003 -1.825 0.48699999 2
8.7030001 -1.8380001 0.44299999 2
8.6859999 -1.795 0.60500002 2
8.7399998 -1.762 0.74800003 2
8.6660004 -1.788 0.62900001 2
8.6389999 -1.834 0.44400001 2
8.5889997 -1.791 0.59500003 2
8.7209997 -1.758 0.75800002 2
8.6490002 -1.809 0.54400003 2
8.6440001 -1.825 0.479 2
8.7069998 -1.773 0.69700003 2
8.6070004 -1.8200001 0.48800001 2
8.6479998 -1.809 0.54299998 2
8.599 -1.812 0.51800001 2
8.7390003 -1.772 0.71100003 2
8.7290001 -1.803 0.588 2
8.6719999 -1.8329999 0.45500001 2
8.7220001 -1.824 0.505 2
8.7139997 -1.771 0.70599997 2
8.7299995 -1.752 0.78500003 2
8.4949999 -1.762 0.67299998 2
8.6429996 -1.761 0.72399998 2
8.6300001 -1.776 0.66299999 2
8.5430002 -1.745 0.75 2
8.7080002 -1.751 0.78100002 2
8.4870005 -1.774 0.62400001 2
8.5930004 -1.777 0.64999998 2
8.7220001 -1.7539999 0.773 2
8.6120005 -1.779 0.64600003 2
8.5310001 -1.765 0.67400002 2
8.6339998 -1.762 0.71499997 2
8.4949999 -1.757 0.69099998 2
8.5120001 -1.75 0.72100002 2
8.6540003 -1.768 0.70200002 2
8.6140003 -1.755 0.73400003 2
8.5270004 -1.751 0.72299999 2
8.5570002 -1.76 0.69999999 2
8.5950003 -1.7819999 0.63200003 2
8.618 -1.779 0.65100002 2
8.5059996 -1.739 0.75800002 2
8.6420002 -1.739 0.80299997 2
8.5880003 -1.757 0.71899998 2
8.6079998 -1.765 0.69800001 2
8.6079998 -1.752 0.74299997 2
8.5299997 -1.745 0.74400002 2
8.566 -1.7539999 0.72399998 2
8.5469999 -1.7539999 0.71499997 2
8.5749998 -1.75 0.74199998 2
8.5860004 -1.74 0.77899998 2
8.5489998 -1.739 0.773 2
8.5570002 -1.738 0.77700001 2
8.6700001 -1.766 0.71200001 2
8.5570002 -1.7539999 0.72000003 2
8.6619997 -1.747 0.778 2
8.6949997 -1.744 0.80299997 2
8.6160002 -1.745 0.773 2
8.566 -1.733 0.79799998 2
8.6330004 -1.7539999 0.745 2
8.5089998 -1.804 0.523 2
8.5749998 -1.783 0.62099999 2
8.6529999 -1.757 0.73900002 2
8.5010004 -1.803 0.52399999 2
8.5699997 -1.747 0.74900001 2
8.6000004 -1.783 0.63 2
8.5860004 -1.75 0.745 2
8.4840002 -1.733 0.77399999 2
8.5089998 -1.7460001 0.73400003 2
8.4980001 -1.751 0.71200001 2
8.5670004 -1.789 0.59500003 2
8.6630001 -1.749 0.773 2
8.4960003 -1.762 0.67199999 2
8.5340004 -1.76 0.69199997 2
8.6549997 -1.765 0.71399999 2
8.5010004 -1.813 0.48699999 2
8.5749998 -1.788 0.60399997 2
8.5900002 -1.777 0.64700001 2
8.5279999 -1.785 0.59899998 2
8.6029997 -1.7410001 0.78100002 2
8.5939999 -1.7460001 0.76300001 2
8.5690002 -1.7589999 0.70599997 2
8.5220003 -1.7819999 0.60699999 2
8.5019999 -1.786 0.58700001 2
8.6199999 -1.737 0.80299997 2
8.5909996 -1.755 0.72899997 2
8.6899996 -1.757 0.75199997 2
8.6190004 -1.747 0.76800001 2
8.6560001 -1.761 0.72600001 2
8.5410004 -1.785 0.60399997 2
8.6470003 -1.7640001 0.71499997 2
8.4969997 -1.791 0.56699997 2
8.5780001 -1.791 0.59299999 2
8.6929998 -1.743 0.80500001 2
8.5579996 -1.75 0.73500001 2
8.618 -1.781 0.64300001 2
8.5039997 -1.809 0.50300002 2
8.5349998 -1.767 0.66399997 2
8.4860001 -1.7640001 0.662 2
8.4949999 -1.738 0.759 2
8.6750002 -1.742 0.80199999 2
8.6049995 -1.768 0.68699998 2
8.4809999 -1.812 0.486 2
8.6239996 -1.761 0.71700001 2
8.6269999 -1.7410001 0.79000002 2
8.5039997 -1.729 0.79500002 2
8.6040001 -1.776 0.65499997 2
8.5579996 -1.768 0.66900003 2
8.5860004 -1.772 0.66500002 2
8.6350002 -1.776 0.66500002 2
8.6569996 -1.756 0.745 2
8.5600004 -1.747 0.74699998 2
8.5229998 -1.807 0.51700002 2
8.6440001 -1.745 0.78299999 2
8.4960003 -1.737 0.76200002 2
8.5360003 -1.785 0.60299999 2
8.5319996 -1.779 0.62 2
8.5200005 -1.75 0.72399998 2
8.5760002 -1.788 0.602 2
8.507 -1.729 0.796 2
8.6079998 -1.749 0.75599998 2
8.5179996 -1.737 0.76899999 2
8.5740004 -1.7539999 0.72399998 2
8.6190004 -1.756 0.73299998 2
8.5930004 -1.785 0.62 2
8.6070004 -1.766 0.69400001 2
8.4879999 -1.7640001 0.662 2
8.6389999 -1.773 0.68000001 2
8.5150003 -1.801 0.537 2
8.6079998 -1.778 0.65100002 2
8.552 -1.78 0.62599999 2
8.6669998 -1.749 0.77499998 2
8.4820004 -1.789 0.56900001 2
8.5129995 -1.771 0.64399999 2
8.5089998 -1.75 0.71799999 2
8.5790005 -1.734 0.801 2
8.4949999 -1.804 0.51800001 2
8.7019997 -1.744 0.80400002 2
8.5509996 -1.748 0.73900002 2
8.5249996 -1.8049999 0.52399999 2
8.5010004 -1.752 0.70899999 2
8.6490002 -1.76 0.72799999 2
8.5270004 -1.7819999 0.60799998 2
8.5970001 -1.747 0.75999999 2
8.4949999 -1.7539999 0.70099998 2
8.4829998 -1.742 0.74000001 2
8.526 -1.779 0.62099999 2
8.5810003 -1.772 0.66299999 2
8.5900002 -1.79 0.60000002 2
8.5740004 -1.79 0.59399998 2
8.7049999 -1.749 0.787 2
8.6190004 -1.7690001 0.68599999 2
8.6639996 -1.763 0.72100002 2
8.6739998 -1.758 0.74299997 2
8.4969997 -1.73 0.78799999 2
8.5719995 -1.76 0.704 2
8.6800003 -1.7460001 0.78799999 2
8.5190001 -1.766 0.66299999 2
8.5880003 -1.7869999 0.61000001 2
8.5489998 -1.774 0.64499998 2
8.5480003 -1.802 0.54400003 2
8.552 -1.77 0.65899998 2
8.5930004 -1.7819999 0.63099998 2
8.5290003 -1.776 0.63099998 2
8.6450005 -1.744 0.78399998 2
8.6239996 -1.773 0.67400002 2
8.5279999 -1.73 0.79699999 2
8.4860001 -1.7309999 0.78200001 2
8.4899998 -1.814 0.479 2
8.6929998 -1.745 0.796 2
8.599 -1.755 0.73100001 2
8.6569996 -1.74 0.80400002 2
8.6230001 -1.739 0.796 2
8.6619997 -1.7410001 0.80000001 2
8.5710001 -1.763 0.69099998 2
8.5310001 -1.732 0.792 2
8.5190001 -1.777 0.625 2
8.7139997 -1.7460001 0.801 2
8.4899998 -1.757 0.68699998 2
8.5600004 -1.786 0.60600001 2
8.5699997 -1.789 0.59899998 2
8.5790005 -1.774 0.65399998 2
8.5459995 -1.796 0.565 2
8.5310001 -1.802 0.537 2
8.7110004 -1.755 0.76700002 2
8.5229998 -1.756 0.70099998 2
8.5050001 -1.755 0.69999999 2
8.6429996 -1.7539999 0.75 2
8.6800003 -1.7460001 0.78799999 2
8.6289997 -1.768 0.69300002 2
8.5290003 -1.794 0.565 2
8.6520004 -1.766 0.70899999 2
8.526 -1.7640001 0.67299998 2
8.5489998 -1.7920001 0.579 2
8.5229998 -1.798 0.55000001 2
8.552 -1.7920001 0.57999998 2
8.5410004 -1.762 0.68599999 2
8.5410004 -1.771 0.65399998 2
8.5 -1.753 0.70700002 2
8.5290003 -1.761 0.68699998 2
8.5270004 -1.772 0.64399999 2
8.6289997 -1.752 0.75099999 2
8.6049995 -1.763 0.70499998 2
8.5810003 -1.748 0.75099999 2
8.6190004 -1.743 0.78200001 2
8.5200005 -1.749 0.72600001 2
8.5909996 -1.751 0.741 2
8.4969997 -1.732 0.77999997 2
8.6099997 -1.781 0.639 2
8.5909996 -1.7690001 0.67699999 2
8.5039997 -1.812 0.493 2
8.7189999 -1.748 0.79400003 2
8.5380001 -1.802 0.54000002 2
8.5159998 -1.733 0.78399998 2
8.5819998 -1.78 0.63499999 2
8.5349998 -1.798 0.55400002 2
8.5839996 -1.742 0.77200001 2
8.5530005 -1.777 0.63700002 2
8.5539999 -1.743 0.75800002 2
8.5710001 -1.737 0.78600001 2
8.526 -1.745 0.74299997 2
8.5310001 -1.757 0.69999999 2
8.6680002 -1.757 0.74400002 2
8.5139999 -1.776 0.62699997 2
8.5349998 -1.7869999 0.59399998 2
8.4860001 -1.7359999 0.764 2
8.6599998 -1.7640001 0.71799999 2
8.6300001 -1.765 0.70300001 2
8.5129995 -1.807 0.51300001 2
8.5410004 -1.7410001 0.76300001 2
8.6009998 -1.786 0.61900002 2
8.5159998 -1.802 0.53500003 2
8.5299997 -1.771 0.64899999 2
8.6389999 -1.756 0.73900002 2
8.5039997 -1.729 0.79500002 2
8.5570002 -1.773 0.64999998 2
8.5880003 -1.749 0.75 2
8.5089998 -1.778 0.61699998 2
8.5430002 -1.772 0.64899999 2
8.6479998 -1.7589999 0.73100001 2
8.599 -1.78 0.63999999 2
8.5699997 -1.776 0.64300001 2
8.5799999 -1.761 0.70099998 2
8.5299997 -1.744 0.74599999 2
8.5749998 -1.78 0.634 2
8.6859999 -1.7460001 0.792 2
8.6239996 -1.742 0.78500003 2
8.6459999 -1.748 0.77200001 2
8.5249996 -1.7819999 0.60900003 2
8.5290003 -1.739 0.764 2
8.507 -1.784 0.59500003 2
8.6239996 -1.74 0.79299998 2
8.6219997 -1.7640001 0.70700002 2
8.6129999 -1.737 0.80199999 2
8.6370001 -1.7460001 0.77700001 2
8.6450005 -1.762 0.71899998 2
8.6929998 -1.75 0.77899998 2
8.5670004 -1.7460001 0.75300002 2
8.5089998 -1.7819999 0.60299999 2
8.5319996 -1.735 0.78299999 2
8.6709995 -1.7589999 0.74000001 2
8.507 -1.799 0.54100001 2
8.5349998 -1.774 0.63999999 2
8.6969995 -1.745 0.80000001 2
8.6450005 -1.742 0.79100001 2
8.4870005 -1.784 0.588 2
