# .PCD v0.7 - Point Cloud Data file format
VERSION 0.7
FIELDS x y z label
SIZE 4 4 4 4
TYPE F F F U
COUNT 1 1 1 1
WIDTH 1564
HEIGHT 1
VIEWPOINT 0 0 0 1 0 0 0
POINTS 1564
DATA ascii
8.4709997 -3.4760001 0.62599999 2
8.3940001 -3.46 0.63700002 2
8.3699999 -3.4430001 0.59600002 2
8.3739996 -3.457 0.64399999 2
8.3809996 -3.4579999 0.64099997 2
8.3269997 -3.4349999 0.60799998 2
8.4689999 -3.4760001 0.62800002 2
8.46 -3.4719999 0.62 2
8.4659996 -3.474 0.62300003 2
8.4390001 -3.467 0.62099999 2
8.4759998 -3.473 0.61000001 2
8.4329996 -3.47 0.63700002 2
8.4519997 -3.471 0.62400001 2
8.427 -3.477 0.667 2
8.4709997 -3.47 0.60399997 2
8.4399996 -3.4619999 0.602 2
8.3879995 -3.447 0.59799999 2
8.4870005 -3.4749999 0.60699999 2
8.5030003 -3.477 0.59899998 2
8.4510002 -3.4719999 0.63 2
8.5080004 -3.4779999 0.59899998 2
8.3529997 -3.4389999 0.60000002 2
8.4309998 -3.4630001 0.616 2
8.4580002 -3.4690001 0.61199999 2
8.3970003 -3.467 0.65899998 2
8.4049997 -3.4519999 0.59799999 2
8.3839998 -3.454 0.625 2
8.4200001 -3.471 0.65200001 2
8.349 -3.4460001 0.62599999 2
8.4139996 -3.4649999 0.63499999 2
8.4680004 -3.477 0.63099998 2
8.4589996 -3.4649999 0.597 2
8.4689999 -3.474 0.62099999 2
8.3590002 -3.45 0.63200003 2
8.441 -3.4649999 0.61299998 2
8.4139996 -3.471 0.65700001 2
8.4139996 -3.4649999 0.63700002 2
8.4020004 -3.47 0.66399997 2
8.4429998 -3.4619999 0.59899998 2
8.5010004 -3.4760001 0.60000002 2
8.4750004 -3.4749999 0.61900002 2
8.4069996 -3.4530001 0.602 2
8.342 -3.4389999 0.61000001 2
8.4160004 -3.46 0.61900002 2
8.4090004 -3.4690001 0.65600002 2
8.4820004 -3.47 0.59600002 2
8.3640003 -3.441 0.59600002 2
8.4300003 -3.473 0.653 2
8.3540001 -3.4419999 0.60900003 2
8.3369999 -3.434 0.59600002 2
8.4209995 -3.4649999 0.63099998 2
8.4639997 -3.467 0.59899998 2
8.4069996 -3.467 0.64999998 2
8.4899998 -3.474 0.60000002 2
8.4870005 -3.474 0.60500002 2
8.3599997 -3.448 0.62400001 2
8.382 -3.451 0.616 2
8.3439999 -3.437 0.60100001 2
8.4809999 -3.477 0.62 2
8.4250002 -3.47 0.64600003 2
8.4189997 -3.467 0.63800001 2
8.4169998 -3.4619999 0.62400001 2
8.3579998 -3.4649999 0.67400002 2
8.3339996 -3.4460001 0.63599998 2
8.3649998 -3.4660001 0.67299998 2
8.3570004 -3.4590001 0.65799999 2
8.3800001 -3.47 0.676 2
8.3540001 -3.4590001 0.66000003 2
8.3909998 -3.4660001 0.66100001 2
8.3400002 -3.4449999 0.62800002 2
8.382 -3.4630001 0.65600002 2
8.3590002 -3.4649999 0.67199999 2
8.3710003 -3.4590001 0.65200001 2
8.309 -3.427 0.59600002 2
8.3479996 -3.448 0.634 2
8.3629999 -3.464 0.66900003 2
8.3199997 -3.434 0.60799998 2
8.3500004 -3.45 0.63700002 2
8.3339996 -3.444 0.63 2
8.382 -3.467 0.66799998 2
8.3690004 -3.4560001 0.64600003 2
8.3540001 -3.4489999 0.63300002 2
8.3450003 -3.448 0.634 2
8.3859997 -3.4690001 0.67000002 2
8.3470001 -3.4449999 0.62599999 2
8.3430004 -3.4590001 0.66600001 2
8.3780003 -3.4619999 0.65600002 2
8.335 -3.444 0.62900001 2
8.3959999 -3.47 0.67000002 2
8.375 -3.46 0.653 2
8.3970003 -3.47 0.67000002 2
8.3579998 -3.405 0.5 2
8.408 -3.427 0.52499998 2
8.3850002 -3.4389999 0.57599998 2
8.3549995 -3.414 0.52700001 2
8.4099998 -3.4389999 0.55800003 2
8.3310003 -3.4000001 0.50400001 2
8.3620005 -3.438 0.58899999 2
8.4069996 -3.427 0.52600002 2
8.3850002 -3.411 0.49700001 2
8.4449997 -3.4460001 0.55199999 2
8.3719997 -3.4289999 0.55699998 2
8.3710003 -3.415 0.51800001 2
8.3310003 -3.4289999 0.58499998 2
8.3999996 -3.427 0.53200001 2
8.4320002 -3.437 0.537 2
8.3360004 -3.3959999 0.49000001 2
8.4099998 -3.4419999 0.56699997 2
8.335 -3.401 0.50599998 2
8.3690004 -3.441 0.59399998 2
8.3970003 -3.4400001 0.57099998 2
8.3280001 -3.404 0.51899999 2
8.3690004 -3.428 0.55599999 2
8.3249998 -3.3889999 0.47999999 2
8.3249998 -3.401 0.51200002 2
8.3430004 -3.414 0.53500003 2
8.4580002 -3.461 0.58600003 2
8.3389997 -3.4330001 0.59100002 2
8.3780003 -3.4159999 0.51599997 2
8.3599997 -3.418 0.53399998 2
8.3629999 -3.404 0.49399999 2
8.3719997 -3.4130001 0.51200002 2
8.3290005 -3.3889999 0.477 2
8.474 -3.4560001 0.56099999 2
8.3339996 -3.3989999 0.50199997 2
8.4449997 -3.4489999 0.56199998 2
8.3219995 -3.4159999 0.55500001 2
8.4589996 -3.451 0.55599999 2
8.349 -3.427 0.56699997 2
8.4429998 -3.4519999 0.57099998 2
8.3730001 -3.4400001 0.58600003 2
8.3920002 -3.4330001 0.55400002 2
8.3369999 -3.4200001 0.55599999 2
8.4209995 -3.4400001 0.55299997 2
8.4460001 -3.448 0.55800003 2
8.4919996 -3.471 0.58999997 2
8.316 -3.411 0.54500002 2
8.3380003 -3.398 0.495 2
8.3280001 -3.428 0.58399999 2
8.3990002 -3.4430001 0.57599998 2
8.3599997 -3.3959999 0.47299999 2
8.375 -3.4349999 0.56999999 2
8.3310003 -3.411 0.53500003 2
8.3579998 -3.437 0.58999997 2
8.3479996 -3.402 0.5 2
8.3409996 -3.405 0.51300001 2
8.4069996 -3.425 0.52200001 2
8.3330002 -3.4100001 0.53100002 2
8.4639997 -3.451 0.55299997 2
8.3450003 -3.4170001 0.54400003 2
8.3959999 -3.4230001 0.523 2
8.4300003 -3.444 0.55800003 2
8.3999996 -3.437 0.55800003 2
8.3249998 -3.4219999 0.56999999 2
8.401 -3.4330001 0.54799998 2
8.3649998 -3.4089999 0.505 2
8.3509998 -3.421 0.54900002 2
8.3459997 -3.4159999 0.54000002 2
8.3570004 -3.4159999 0.53100002 2
8.368 -3.4330001 0.57200003 2
8.441 -3.4430001 0.546 2
8.3540001 -3.405 0.50199997 2
8.4589996 -3.448 0.54900002 2
8.3310003 -3.3859999 0.46599999 2
8.3509998 -3.415 0.53100002 2
8.3730001 -3.4289999 0.55699998 2
8.3269997 -3.408 0.53200001 2
8.3920002 -3.4200001 0.51899999 2
8.3929996 -3.428 0.54000002 2
8.3140001 -3.424 0.58499998 2
8.415 -3.45 0.58600003 2
8.4549999 -3.4449999 0.54400003 2
8.3240004 -3.3989999 0.50599998 2
8.3710003 -3.4389999 0.58600003 2
8.4370003 -3.457 0.588 2
8.3479996 -3.401 0.495 2
8.3240004 -3.4170001 0.55599999 2
8.349 -3.402 0.49900001 2
8.3620005 -3.4200001 0.54000002 2
8.4209995 -3.4460001 0.56800002 2
8.3529997 -3.4349999 0.58700001 2
8.3590002 -3.4360001 0.58600003 2
8.434 -3.4349999 0.52899998 2
8.4200001 -3.4389999 0.55000001 2
8.4639997 -3.4560001 0.56800002 2
8.4989996 -3.47 0.58099997 2
8.3990002 -3.4159999 0.50099999 2
8.4499998 -3.45 0.56099999 2
8.3970003 -3.4260001 0.53200001 2
8.3730001 -3.438 0.57999998 2
8.4160004 -3.4260001 0.51899999 2
8.3649998 -3.434 0.57700002 2
8.3889999 -3.421 0.52200001 2
8.3280001 -3.4189999 0.56 2
8.4519997 -3.4579999 0.58200002 2
8.375 -3.4089999 0.50099999 2
8.3380003 -3.415 0.542 2
8.4209995 -3.437 0.54400003 2
8.3249998 -3.4219999 0.57200003 2
8.3599997 -3.415 0.52499998 2
8.4370003 -3.4579999 0.59200001 2
8.4090004 -3.4460001 0.57800001 2
8.349 -3.434 0.58600003 2
8.4390001 -3.4360001 0.52999997 2
8.3470001 -3.404 0.50400001 2
8.415 -3.428 0.52399999 2
8.342 -3.4089999 0.52100003 2
8.3149996 -3.427 0.58999997 2
8.3739996 -3.4200001 0.52999997 2
8.316 -3.415 0.55599999 2
8.3540001 -3.4170001 0.53500003 2
8.3219995 -3.4289999 0.59200001 2
8.3669996 -3.4059999 0.495 2
8.335 -3.3889999 0.472 2
8.441 -3.4449999 0.55199999 2
8.3620005 -3.421 0.54100001 2
8.3739996 -3.4189999 0.52700001 2
8.3140001 -3.4159999 0.56099999 2
8.3850002 -3.4130001 0.50300002 2
8.3520002 -3.4119999 0.523 2
8.3450003 -3.4219999 0.55599999 2
8.3590002 -3.3989999 0.48300001 2
8.4700003 -3.4649999 0.588 2
8.3909998 -3.424 0.53100002 2
8.3900003 -3.424 0.52899998 2
8.3859997 -3.4289999 0.546 2
8.3920002 -3.4130001 0.498 2
8.3369999 -3.408 0.52399999 2
8.3570004 -3.438 0.59200001 2
8.3400002 -3.4330001 0.58999997 2
8.3249998 -3.4170001 0.55500001 2
8.3380003 -3.424 0.56800002 2
8.4110003 -3.451 0.58999997 2
8.3450003 -3.391 0.46900001 2
8.4200001 -3.4300001 0.52600002 2
8.349 -3.4189999 0.54400003 2
8.4940004 -3.4719999 0.59100002 2
8.4180002 -3.428 0.52200001 2
8.3339996 -3.405 0.51700002 2
8.3500004 -3.427 0.56699997 2
8.3839998 -3.4300001 0.55000001 2
8.3240004 -3.421 0.56900001 2
8.3509998 -3.4030001 0.49900001 2
8.3669996 -3.4000001 0.48100001 2
8.3549995 -3.401 0.49000001 2
8.474 -3.4649999 0.58600003 2
8.3850002 -3.434 0.56199998 2
8.4840002 -3.464 0.57499999 2
8.4230003 -3.4330001 0.53100002 2
8.3789997 -3.431 0.55699998 2
8.3450003 -3.4159999 0.53899997 2
8.4549999 -3.4549999 0.57099998 2
8.4300003 -3.4349999 0.53399998 2
8.3319998 -3.4000001 0.50599998 2
8.4130001 -3.424 0.51300001 2
8.3520002 -3.428 0.56800002 2
8.3290005 -3.4200001 0.56199998 2
8.3959999 -3.4400001 0.57099998 2
8.375 -3.4419999 0.59200001 2
8.349 -3.395 0.47799999 2
8.349 -3.404 0.50300002 2
8.4110003 -3.448 0.58099997 2
8.4090004 -3.5769999 0.81 2
8.4219999 -3.6010001 0.81199998 2
8.3929996 -3.5880001 0.80500001 2
8.4289999 -3.5710001 0.81599998 2
8.401 -3.5940001 0.80699998 2
8.415 -3.559 0.81300002 2
8.4300003 -3.5810001 0.815 2
8.4289999 -3.586 0.815 2
8.408 -3.5929999 0.80800003 2
8.4250002 -3.5929999 0.81300002 2
8.4189997 -3.585 0.81199998 2
8.4069996 -3.6029999 0.80699998 2
8.4090004 -3.5469999 0.81199998 2
8.4020004 -3.5780001 0.80800003 2
8.4460001 -3.5669999 0.82099998 2
8.434 -3.553 0.81900001 2
8.4250002 -3.572 0.815 2
8.4399996 -3.589 0.81699997 2
8.434 -3.596 0.815 2
8.4180002 -3.5480001 0.815 2
8.4139996 -3.5610001 0.81300002 2
8.4130001 -3.585 0.81099999 2
8.4309998 -3.5869999 0.815 2
8.4130001 -3.539 0.81400001 2
8.4200001 -3.5439999 0.81599998 2
8.434 -3.572 0.81699997 2
8.4230003 -3.582 0.81300002 2
8.4399996 -3.5810001 0.81800002 2
8.4560003 -3.575 0.82300001 2
8.4379997 -3.5880001 0.81699997 2
8.4510002 -3.5739999 0.82200003 2
8.4250002 -3.562 0.81599998 2
8.474 -3.5880001 0.82700002 2
8.4379997 -3.575 0.81800002 2
8.3520002 -3.4909999 0.52499998 2
8.3640003 -3.5190001 0.59600002 2
8.3719997 -3.4860001 0.49000001 2
8.3719997 -3.5009999 0.53299999 2
8.368 -3.5 0.53500003 2
8.368 -3.5150001 0.579 2
8.3719997 -3.4990001 0.52700001 2
8.3640003 -3.5050001 0.55299997 2
8.3620005 -3.5090001 0.56900001 2
8.3699999 -3.513 0.57200003 2
8.3579998 -3.477 0.47499999 2
8.368 -3.5020001 0.54299998 2
8.3669996 -3.5120001 0.57300001 2
8.3599997 -3.507 0.565 2
8.3730001 -3.4990001 0.52899998 2
8.3559999 -3.4809999 0.49000001 2
8.375 -3.54 0.64700001 2
8.3649998 -3.4679999 0.44400001 2
8.3629999 -3.494 0.523 2
8.3719997 -3.5139999 0.57300001 2
8.3710003 -3.5090001 0.55900002 2
8.3710003 -3.5239999 0.60299999 2
8.3620005 -3.4860001 0.498 2
8.3719997 -3.4530001 0.38999999 2
8.3640003 -3.474 0.46200001 2
8.3549995 -3.49 0.51899999 2
8.3739996 -3.494 0.51099998 2
8.3649998 -3.47 0.44800001 2
8.3739996 -3.484 0.48100001 2
8.3629999 -3.467 0.442 2
8.3739996 -3.5139999 0.57200003 2
8.3570004 -3.497 0.53600001 2
8.3640003 -3.5050001 0.55299997 2
8.3760004 -3.527 0.61000001 2
8.3649998 -3.4990001 0.53600001 2
8.3629999 -3.5090001 0.56699997 2
8.3739996 -3.4809999 0.47400001 2
8.3660002 -3.497 0.528 2
8.3699999 -3.4590001 0.41100001 2
8.3629999 -3.51 0.56999999 2
8.3570004 -3.4860001 0.50400001 2
8.3710003 -3.5280001 0.61699998 2
8.3579998 -3.507 0.565 2
8.4289999 -3.516 0.75800002 2
8.4359999 -3.4960001 0.704 2
8.4560003 -3.4890001 0.67000002 2
8.4239998 -3.484 0.685 2
8.4350004 -3.4860001 0.68099999 2
8.415 -3.4820001 0.69099998 2
8.4239998 -3.4820001 0.68099999 2
8.4169998 -3.53 0.80000001 2
8.4200001 -3.5320001 0.80199999 2
8.4139996 -3.483 0.69199997 2
8.4320002 -3.4890001 0.69099998 2
8.4200001 -3.5139999 0.75999999 2
8.4209995 -3.527 0.79000002 2
8.4469995 -3.483 0.66299999 2
8.448 -3.5139999 0.73500001 2
8.5 -3.4879999 0.63 2
8.4700003 -3.4809999 0.64099997 2
8.4219999 -3.5039999 0.736 2
8.4320002 -3.4849999 0.68199998 2
8.4540005 -3.493 0.68099999 2
8.4589996 -3.4909999 0.67199999 2
8.4849997 -3.494 0.65700001 2
8.434 -3.503 0.72299999 2
8.4460001 -3.5039999 0.71399999 2
8.4449997 -3.506 0.71899998 2
8.4230003 -3.5039999 0.73299998 2
8.4399996 -3.5090001 0.73100001 2
8.4469995 -3.493 0.68699998 2
8.4650002 -3.494 0.67500001 2
8.434 -3.5050001 0.72600001 2
8.4549999 -3.497 0.68900001 2
8.434 -3.5139999 0.74699998 2
8.4300003 -3.493 0.70300001 2
8.4540005 -3.4779999 0.64700001 2
8.4809999 -3.4979999 0.671 2
8.4799995 -3.4979999 0.67000002 2
8.4540005 -3.507 0.71399999 2
8.4510002 -3.49 0.676 2
8.4160004 -3.5079999 0.74900001 2
8.4759998 -3.4979999 0.67299998 2
8.4619999 -3.4909999 0.66900003 2
8.4230003 -3.5120001 0.75300002 2
8.4350004 -3.513 0.745 2
8.4300003 -3.516 0.755 2
8.4429998 -3.5109999 0.73299998 2
8.4399996 -3.4790001 0.662 2
8.4729996 -3.4879999 0.65200001 2
8.4630003 -3.494 0.676 2
8.4949999 -3.4809999 0.61699998 2
8.4169998 -3.5090001 0.75099999 2
8.5100002 -3.484 0.61199999 2
8.4890003 -3.4820001 0.625 2
8.4359999 -3.4820001 0.67000002 2
8.415 -3.494 0.71600002 2
8.4449997 -3.493 0.68900001 2
8.4350004 -3.5079999 0.73199999 2
8.4849997 -3.4860001 0.639 2
8.4720001 -3.494 0.66799998 2
8.4770002 -3.5 0.67799997 2
8.4209995 -3.4809999 0.68099999 2
8.4530001 -3.507 0.71499997 2
8.4829998 -3.487 0.64200002 2
8.4700003 -3.4890001 0.65899998 2
8.4309998 -3.526 0.778 2
8.4250002 -3.529 0.79100001 2
8.4449997 -3.506 0.72000003 2
8.46 -3.503 0.699 2
8.4989996 -3.49 0.63499999 2
8.4650002 -3.48 0.64200002 2
8.4239998 -3.4779999 0.67299998 2
8.4189997 -3.497 0.72100002 2
8.4289999 -3.503 0.72500002 2
8.4230003 -3.5050001 0.736 2
8.4770002 -3.4960001 0.66799998 2
8.4320002 -3.507 0.73199999 2
8.4619999 -3.5020001 0.69700003 2
8.4370003 -3.5020001 0.71700001 2
8.4619999 -3.4920001 0.671 2
8.427 -3.5190001 0.76499999 2
8.448 -3.4960001 0.69400001 2
8.4309998 -3.516 0.75400001 2
8.4350004 -3.52 0.75999999 2
8.4469995 -3.5050001 0.71499997 2
8.4530001 -3.506 0.713 2
8.4809999 -3.4790001 0.625 2
8.401 -3.4089999 0.477 2
8.4530001 -3.4400001 0.528 2
8.4040003 -3.408 0.47099999 2
8.4280005 -3.415 0.47 2
8.4820004 -3.438 0.49599999 2
8.3640003 -3.392 0.456 2
8.3330002 -3.381 0.45100001 2
8.4940004 -3.444 0.50199997 2
8.5 -3.444 0.495 2
8.4390001 -3.431 0.51200002 2
8.448 -3.424 0.47999999 2
8.4130001 -3.411 0.47099999 2
8.4429998 -3.434 0.51999998 2
8.4770002 -3.418 0.433 2
8.493 -3.45 0.52200001 2
8.3979998 -3.4130001 0.493 2
8.4870005 -3.4430001 0.505 2
8.4130001 -3.401 0.44 2
8.4650002 -3.427 0.47499999 2
8.3859997 -3.408 0.48699999 2
8.3839998 -3.402 0.47 2
8.4799995 -3.438 0.495 2
8.4130001 -3.4030001 0.44400001 2
8.4549999 -3.4159999 0.44600001 2
8.4320002 -3.4200001 0.48199999 2
8.4949999 -3.4590001 0.551 2
8.4790001 -3.4289999 0.46900001 2
8.3319998 -3.3800001 0.449 2
8.434 -3.4089999 0.44299999 2
8.4779997 -3.4530001 0.54900002 2
8.4469995 -3.4170001 0.46000001 2
8.4399996 -3.4300001 0.50800002 2
8.3920002 -3.405 0.47400001 2
8.5 -3.457 0.53899997 2
8.4829998 -3.4460001 0.51899999 2
8.4910002 -3.4319999 0.465 2
8.4919996 -3.4560001 0.54400003 2
8.4510002 -3.415 0.44800001 2
8.4960003 -3.4530001 0.53100002 2
8.3830004 -3.398 0.45899999 2
8.5030003 -3.4530001 0.523 2
8.4829998 -3.4430001 0.51099998 2
8.3579998 -3.3870001 0.44600001 2
8.4499998 -3.4170001 0.45500001 2
8.4860001 -3.421 0.433 2
8.467 -3.4189999 0.44600001 2
8.4940004 -3.4460001 0.50999999 2
8.4329996 -3.427 0.50599998 2
8.3809996 -3.398 0.461 2
8.4230003 -3.4159999 0.47799999 2
8.3690004 -3.398 0.472 2
8.4770002 -3.421 0.442 2
8.5109997 -3.4590001 0.53500003 2
8.4779997 -3.45 0.53799999 2
8.3570004 -3.3870001 0.447 2
8.4989996 -3.4560001 0.537 2
8.4370003 -3.4089999 0.442 2
8.4569998 -3.437 0.514 2
8.4560003 -3.425 0.477 2
8.4680004 -3.4460001 0.53500003 2
8.4469995 -3.4330001 0.51200002 2
8.4460001 -3.4260001 0.491 2
8.3830004 -3.3989999 0.46200001 2
8.4569998 -3.444 0.53600001 2
8.3970003 -3.411 0.48800001 2
8.4799995 -3.421 0.44 2
8.427 -3.4059999 0.442 2
8.4619999 -3.4300001 0.486 2
8.4840002 -3.4349999 0.47999999 2
8.4849997 -3.438 0.49000001 2
8.4399996 -3.4170001 0.46399999 2
8.4379997 -3.418 0.47099999 2
8.3590002 -3.3940001 0.46900001 2
8.5039997 -3.4630001 0.55400002 2
8.3809996 -3.4000001 0.465 2
8.4130001 -3.408 0.461 2
8.3830004 -3.402 0.472 2
8.4940004 -3.454 0.537 2
8.434 -3.414 0.461 2
8.4919996 -3.4400001 0.49000001 2
8.4460001 -3.4159999 0.458 2
8.4320002 -3.4260001 0.50199997 2
8.4890003 -3.431 0.46399999 2
8.4870005 -3.427 0.45100001 2
8.4320002 -3.418 0.477 2
8.5030003 -3.4649999 0.56300002 2
8.4700003 -3.4300001 0.47999999 2
8.4060001 -3.4130001 0.48500001 2
8.4700003 -3.45 0.54500002 2
8.4890003 -3.4300001 0.461 2
8.4510002 -3.4419999 0.537 2
8.4390001 -3.4130001 0.45300001 2
8.3850002 -3.404 0.477 2
8.4980001 -3.454 0.52999997 2
8.467 -3.4349999 0.5 2
8.3640003 -3.3929999 0.46000001 2
8.3970003 -3.4070001 0.47299999 2
8.4329996 -3.414 0.461 2
8.3529997 -3.3859999 0.44800001 2
8.4779997 -3.4360001 0.49200001 2
8.4790001 -3.4200001 0.43799999 2
8.3559999 -3.3900001 0.45699999 2
8.5 -3.464 0.56300002 2
8.4980001 -3.4430001 0.49399999 2
8.4379997 -3.427 0.5 2
8.4280005 -3.4289999 0.51800001 2
8.434 -3.4200001 0.48100001 2
8.493 -3.4630001 0.56599998 2
8.4960003 -3.4630001 0.56300002 2
8.5010004 -3.437 0.47099999 2
8.4309998 -3.4189999 0.48100001 2
8.4540005 -3.421 0.46399999 2
8.3839998 -3.404 0.47600001 2
8.493 -3.428 0.45100001 2
8.4729996 -3.45 0.54400003 2
8.4989996 -3.4530001 0.52600002 2
8.5109997 -3.46 0.53799999 2
8.3839998 -3.398 0.456 2
8.4820004 -3.4200001 0.43399999 2
8.4180002 -3.4130001 0.47499999 2
8.5019999 -3.454 0.52700001 2
8.4720001 -3.4260001 0.465 2
8.3789997 -3.401 0.47099999 2
8.4960003 -3.45 0.51800001 2
8.434 -3.4200001 0.48100001 2
8.3909998 -3.4070001 0.479 2
8.4200001 -3.4119999 0.46900001 2
8.4569998 -3.4300001 0.491 2
8.4280005 -3.4300001 0.52100003 2
8.427 -3.4119999 0.461 2
8.4560003 -3.4260001 0.47799999 2
8.4580002 -3.4449999 0.54100001 2
8.5030003 -3.457 0.53600001 2
8.4250002 -3.424 0.50199997 2
8.4659996 -3.45 0.55000001 2
8.4440002 -3.4189999 0.46700001 2
8.4720001 -3.4200001 0.44299999 2
8.4250002 -3.4289999 0.51899999 2
8.4879999 -3.4579999 0.55400002 2
8.3739996 -3.3970001 0.463 2
8.4610004 -3.4419999 0.52899998 2
8.3590002 -3.3940001 0.46900001 2
8.4680004 -3.4460001 0.53200001 2
8.4899998 -3.4419999 0.5 2
8.5050001 -3.4619999 0.55000001 2
8.4320002 -3.4159999 0.47 2
8.3719997 -3.401 0.47999999 2
8.4449997 -3.4330001 0.35100001 2
8.4180002 -3.4189999 0.345 2
8.4160004 -3.4449999 0.36899999 2
8.3870001 -3.398 0.33500001 2
8.3809996 -3.437 0.37099999 2
8.474 -3.467 0.373 2
8.4849997 -3.451 0.35600001 2
8.4469995 -3.438 0.354 2
8.4209995 -3.428 0.352 2
8.4420004 -3.438 0.35499999 2
8.427 -3.4430001 0.36399999 2
8.4280005 -3.4319999 0.35499999 2
8.4519997 -3.4590001 0.37200001 2
8.4750004 -3.4660001 0.37200001 2
8.3920002 -3.4159999 0.34999999 2
8.3900003 -3.45 0.38 2
8.4779997 -3.4530001 0.359 2
8.4709997 -3.464 0.37099999 2
8.4060001 -3.437 0.36500001 2
8.4180002 -3.421 0.347 2
8.4779997 -3.4660001 0.37099999 2
8.3900003 -3.4000001 0.336 2
8.4560003 -3.4419999 0.35600001 2
8.3900003 -3.425 0.35800001 2
8.4209995 -3.4170001 0.34299999 2
8.4230003 -3.457 0.377 2
8.4280005 -3.4519999 0.37099999 2
8.4259996 -3.437 0.359 2
8.4449997 -3.4349999 0.352 2
8.4329996 -3.4189999 0.34099999 2
8.415 -3.427 0.354 2
8.3789997 -3.427 0.36300001 2
8.401 -3.4260001 0.35600001 2
8.3879995 -3.414 0.34900001 2
8.4860001 -3.467 0.37 2
8.408 -3.447 0.373 2
8.4510002 -3.4549999 0.36899999 2
8.4370003 -3.4230001 0.34400001 2
8.4630003 -3.4549999 0.36500001 2
8.3879995 -3.415 0.34900001 2
8.3970003 -3.4089999 0.34200001 2
8.3870001 -3.4189999 0.35299999 2
8.533 -3.474 0.36300001 2
8.5039997 -3.454 0.354 2
8.3830004 -3.4400001 0.373 2
8.4530001 -3.441 0.35600001 2
8.4060001 -3.404 0.33500001 2
8.3959999 -3.4100001 0.34299999 2
8.3850002 -3.421 0.35600001 2
8.3970003 -3.454 0.38100001 2
8.3999996 -3.414 0.34599999 2
8.415 -3.418 0.345 2
8.3900003 -3.4030001 0.33899999 2
8.3900003 -3.4260001 0.359 2
8.507 -3.4679999 0.366 2
8.3839998 -3.427 0.361 2
8.4849997 -3.4649999 0.36899999 2
8.4250002 -3.4349999 0.35699999 2
8.3929996 -3.401 0.33700001 2
8.46 -3.4489999 0.361 2
8.4119997 -3.4100001 0.33899999 2
8.3970003 -3.437 0.36700001 2
8.4110003 -3.4130001 0.34200001 2
8.4460001 -3.461 0.375 2
8.4209995 -3.4449999 0.36700001 2
8.4569998 -3.4419999 0.35600001 2
8.4069996 -3.457 0.38100001 2
8.4200001 -3.4300001 0.354 2
8.4549999 -3.4619999 0.373 2
8.5209999 -3.471 0.36399999 2
8.4589996 -3.4419999 0.35499999 2
8.4139996 -3.45 0.37400001 2
8.4560003 -3.444 0.35699999 2
8.3830004 -3.4389999 0.373 2
8.3879995 -3.448 0.37900001 2
8.4809999 -3.451 0.35699999 2
8.401 -3.415 0.34599999 2
8.4989996 -3.4579999 0.35800001 2
8.4169998 -3.427 0.35299999 2
8.4189997 -3.431 0.35600001 2
8.3940001 -3.408 0.34200001 2
8.5959997 -3.6270001 0.76700002 2
8.4879999 -3.6140001 0.76700002 2
8.5059996 -3.6070001 0.74299997 2
8.6330004 -3.6389999 0.787 2
8.5150003 -3.6129999 0.75700003 2
8.5909996 -3.6129999 0.73000002 2
8.5240002 -3.628 0.79400003 2
8.5200005 -3.6170001 0.76700002 2
8.4280005 -3.6129999 0.787 2
8.5570002 -3.6240001 0.77100003 2
8.6260004 -3.631 0.76800001 2
8.4770002 -3.6140001 0.77399999 2
8.6009998 -3.6270001 0.764 2
8.5050001 -3.608 0.74800003 2
8.533 -3.605 0.727 2
8.5649996 -3.628 0.77999997 2
8.6049995 -3.6240001 0.75400001 2
8.4860001 -3.6210001 0.79000002 2
8.6239996 -3.6400001 0.79100001 2
8.5950003 -3.6170001 0.73900002 2
8.5439997 -3.6040001 0.722 2
8.5699997 -3.6340001 0.79400003 2
8.6230001 -3.6329999 0.77200001 2
8.5109997 -3.6199999 0.778 2
8.5120001 -3.6110001 0.75199997 2
8.6000004 -3.6129999 0.72500002 2
8.5270004 -3.625 0.78500003 2
8.4809999 -3.6159999 0.77600002 2
8.5249996 -3.618 0.76800001 2
8.5459995 -3.6040001 0.722 2
8.5100002 -3.6140001 0.76200002 2
8.6330004 -3.6359999 0.77899998 2
8.5290003 -3.6140001 0.755 2
8.4659996 -3.6129999 0.77399999 2
8.5640001 -3.6159999 0.74699998 2
8.474 -3.6140001 0.773 2
8.5299997 -3.6270001 0.78899997 2
8.6400003 -3.638 0.77999997 2
8.4729996 -3.6199999 0.79000002 2
8.507 -3.6159999 0.76700002 2
8.5930004 -3.609 0.71799999 2
8.6370001 -3.6440001 0.79699999 2
8.4490004 -3.6170001 0.79000002 2
8.54 -3.622 0.773 2
8.4980001 -3.612 0.75800002 2
8.5550003 -3.6329999 0.79699999 2
8.625 -3.6340001 0.77399999 2
8.3959999 -3.6099999 0.79100001 2
8.5419998 -3.6259999 0.78200001 2
8.5340004 -3.608 0.736 2
8.4650002 -3.6110001 0.76899999 2
8.5010004 -3.612 0.75800002 2
8.5360003 -3.6300001 0.796 2
8.5120001 -3.618 0.77100003 2
8.526 -3.6300001 0.79799998 2
8.4449997 -3.619 0.79900002 2
8.5120001 -3.6210001 0.77999997 2
8.6470003 -3.645 0.79900002 2
8.6029997 -3.632 0.778 2
8.5170002 -3.615 0.75999999 2
8.4890003 -3.6210001 0.78799999 2
8.6389999 -3.6370001 0.778 2
8.4879999 -3.615 0.77200001 2
8.6450005 -3.642 0.78899997 2
8.4309998 -3.609 0.77700001 2
8.5790005 -3.6110001 0.727 2
8.599 -3.622 0.75199997 2
8.4960003 -3.619 0.77999997 2
8.5769997 -3.605 0.71200001 2
8.6260004 -3.6289999 0.76200002 2
8.54 -3.6300001 0.79400003 2
8.5579996 -3.6289999 0.78600001 2
8.6059999 -3.6289999 0.76700002 2
8.4289999 -3.6099999 0.778 2
8.6149998 -3.635 0.78200001 2
8.5760002 -3.6359999 0.79699999 2
8.5129995 -3.605 0.73400003 2
8.526 -3.608 0.73799998 2
8.6059999 -3.6359999 0.78799999 2
8.4549999 -3.618 0.79100001 2
8.4189997 -3.615 0.79699999 2
8.5900002 -3.608 0.71600002 2
8.5600004 -3.6300001 0.787 2
8.467 -3.6159999 0.78100002 2
8.5509996 -3.6210001 0.76700002 2
8.4329996 -3.6170001 0.79799998 2
8.4870005 -3.6170001 0.778 2
8.5550003 -3.628 0.78399998 2
8.3999996 -3.6099999 0.79100001 2
8.6280003 -3.638 0.78600001 2
8.6110001 -3.6259999 0.759 2
8.5670004 -3.6059999 0.71700001 2
8.5249996 -3.618 0.76599997 2
8.441 -3.6129999 0.78299999 2
8.6300001 -3.632 0.76700002 2
8.5760002 -3.608 0.71899998 2
8.4680004 -3.609 0.76099998 2
8.6099997 -3.622 0.74599999 2
8.4209995 -3.6110001 0.78399998 2
8.5159998 -3.628 0.796 2
8.5769997 -3.6010001 0.70200002 2
8.6289997 -3.6359999 0.77899998 2
8.5699997 -3.6170001 0.74699998 2
8.5159998 -3.622 0.78100002 2
8.5139999 -3.6110001 0.75199997 2
8.5860004 -3.6059999 0.70999998 2
8.5690002 -3.599 0.699 2
8.4280005 -3.6159999 0.796 2
8.5509996 -3.6159999 0.75099999 2
8.5649996 -3.6099999 0.73000002 2
8.4790001 -3.609 0.75800002 2
8.5749998 -3.6259999 0.76999998 2
8.552 -3.6240001 0.77499998 2
8.4429998 -3.6129999 0.78200001 2
8.5089998 -3.612 0.75599998 2
8.4879999 -3.6099999 0.75700003 2
8.5749998 -3.6300001 0.78100002 2
8.6140003 -3.6289999 0.76499999 2
8.5819998 -3.618 0.745 2
8.4680004 -3.612 0.76999998 2
8.6020002 -3.6340001 0.78299999 2
8.5710001 -3.6010001 0.70300001 2
8.5600004 -3.6270001 0.77899998 2
8.5609999 -3.6259999 0.77499998 2
8.5030003 -3.6199999 0.78100002 2
8.5799999 -3.6110001 0.72600001 2
8.5430002 -3.6099999 0.73699999 2
8.5489998 -3.622 0.76999998 2
8.4969997 -3.6140001 0.76700002 2
8.5089998 -3.6170001 0.76899999 2
8.6289997 -3.635 0.77700001 2
8.448 -3.608 0.76800001 2
8.4180002 -3.609 0.77999997 2
8.4700003 -3.618 0.787 2
8.5679998 -3.6059999 0.71899998 2
8.3900003 -3.6110001 0.79699999 2
8.6289997 -3.6359999 0.77899998 2
8.5570002 -3.615 0.74800003 2
8.573 -3.615 0.741 2
8.5979996 -3.6270001 0.764 2
8.5889997 -3.618 0.74400002 2
8.4700003 -3.612 0.76899999 2
8.599 -3.6359999 0.79100001 2
8.4829998 -3.6210001 0.79100001 2
8.618 -3.628 0.76200002 2
8.5120001 -3.622 0.78100002 2
8.4589996 -3.618 0.79000002 2
8.5200005 -3.612 0.75300002 2
8.415 -3.6129999 0.79299998 2
8.5360003 -3.6099999 0.741 2
8.4899998 -3.6099999 0.75599998 2
8.5609999 -3.618 0.75300002 2
8.5229998 -3.6289999 0.79699999 2
8.5480003 -3.6270001 0.78500003 2
8.6029997 -3.6329999 0.77899998 2
8.4350004 -3.576 0.704 2
8.4809999 -3.595 0.72500002 2
8.5369997 -3.598 0.70899999 2
8.434 -3.5899999 0.73400003 2
8.4510002 -3.582 0.70999998 2
8.4799995 -3.6029999 0.74199998 2
8.4919996 -3.5969999 0.72500002 2
8.3970003 -3.573 0.713 2
8.4759998 -3.5940001 0.72500002 2
8.3929996 -3.595 0.759 2
8.3950005 -3.563 0.69300002 2
8.3920002 -3.6059999 0.78399998 2
8.4090004 -3.589 0.741 2
8.4370003 -3.6040001 0.76099998 2
8.4829998 -3.5739999 0.68000001 2
8.4989996 -3.598 0.72399998 2
8.5530005 -3.5999999 0.70599997 2
8.434 -3.5829999 0.71899998 2
8.3870001 -3.585 0.741 2
8.4700003 -3.5829999 0.70499998 2
8.3970003 -3.599 0.76700002 2
8.4729996 -3.592 0.722 2
8.4949999 -3.5780001 0.68300003 2
8.3900003 -3.599 0.77100003 2
8.5109997 -3.5940001 0.71100003 2
8.4720001 -3.5969999 0.73400003 2
8.3839998 -3.5799999 0.73199999 2
8.4639997 -3.582 0.70599997 2
8.4110003 -3.589 0.74000001 2
8.4449997 -3.573 0.69400001 2
8.4809999 -3.6029999 0.74299997 2
8.4989996 -3.5810001 0.68800002 2
8.427 -3.5739999 0.704 2
8.4169998 -3.582 0.72299999 2
8.4180002 -3.5580001 0.67199999 2
8.4020004 -3.592 0.75099999 2
8.401 -3.6040001 0.77600002 2
8.4300003 -3.605 0.76599997 2
8.3990002 -3.5739999 0.71499997 2
8.4499998 -3.5840001 0.71399999 2
8.4580002 -3.586 0.71499997 2
8.4870005 -3.5929999 0.72000003 2
8.441 -3.576 0.70099998 2
8.4659996 -3.5869999 0.71499997 2
8.4379997 -3.5699999 0.68900001 2
8.4960003 -3.5869999 0.70200002 2
8.3920002 -3.5769999 0.722 2
8.3800001 -3.572 0.71799999 2
8.4130001 -3.5569999 0.67299998 2
8.3830004 -3.576 0.72500002 2
8.3859997 -3.573 0.71799999 2
8.4169998 -3.608 0.77700001 2
8.4729996 -3.573 0.68300003 2
8.3889999 -3.6029999 0.778 2
8.4069996 -3.599 0.764 2
8.467 -3.586 0.713 2
8.5310001 -3.5910001 0.69700003 2
8.3789997 -3.575 0.72299999 2
8.3959999 -3.5539999 0.67299998 2
8.3990002 -3.569 0.704 2
8.4879999 -3.599 0.73199999 2
8.4069996 -3.586 0.73699999 2
8.4680004 -3.579 0.69800001 2
8.4049997 -3.575 0.713 2
8.4820004 -3.5910001 0.71600002 2
8.5670004 -3.599 0.69800001 2
8.4320002 -3.598 0.75099999 2
8.4200001 -3.5669999 0.69099998 2
8.4820004 -3.5910001 0.71600002 2
8.4919996 -3.5969999 0.72500002 2
8.4510002 -3.6040001 0.75599998 2
8.4029999 -3.573 0.71100003 2
8.3870001 -3.586 0.74400002 2
8.4069996 -3.5650001 0.69099998 2
8.4469995 -3.605 0.759 2
8.382 -3.5940001 0.76300001 2
8.4560003 -3.592 0.73000002 2
8.4580002 -3.602 0.75 2
8.3929996 -3.608 0.787 2
8.3950005 -3.559 0.68400002 2
8.5290003 -3.589 0.69300002 2
8.4029999 -3.5910001 0.74699998 2
8.3879995 -3.5899999 0.75199997 2
8.4020004 -3.598 0.76300001 2
8.5150003 -3.596 0.713 2
8.4499998 -3.573 0.69099998 2
8.4099998 -3.559 0.67900002 2
8.4969997 -3.602 0.73299998 2
8.4060001 -3.589 0.74400002 2
8.4420004 -3.5929999 0.73699999 2
8.4060001 -3.5669999 0.69599998 2
8.5179996 -3.5910001 0.70200002 2
8.4879999 -3.5780001 0.68699998 2
8.493 -3.6029999 0.73699999 2
8.427 -3.586 0.72799999 2
8.5220003 -3.5929999 0.70499998 2
8.4160004 -3.6010001 0.76499999 2
8.5159998 -3.5940001 0.70999998 2
8.4469995 -3.573 0.69199997 2
8.382 -3.5669999 0.70599997 2
8.5419998 -3.595 0.70099998 2
8.4200001 -3.562 0.68099999 2
8.3920002 -3.599 0.76899999 2
8.4040003 -3.5550001 0.67199999 2
8.4020004 -3.5769999 0.71899998 2
8.5150003 -3.596 0.71399999 2
8.3879995 -3.592 0.75599998 2
8.5240002 -3.5910001 0.699 2
8.4799995 -3.5929999 0.72100002 2
8.3979998 -3.5880001 0.745 2
8.4729996 -3.596 0.73100001 2
8.4989996 -3.595 0.71899998 2
8.5129995 -3.5880001 0.69800001 2
8.4560003 -3.5699999 0.68300003 2
8.4580002 -3.5780001 0.69800001 2
8.3959999 -3.6040001 0.778 2
8.5030003 -3.5910001 0.708 2
8.4610004 -3.5969999 0.736 2
8.3999996 -3.5880001 0.74299997 2
8.4029999 -3.5929999 0.75199997 2
8.4110003 -3.562 0.68400002 2
8.3830004 -3.575 0.72299999 2
8.4160004 -3.5650001 0.68900001 2
8.5249996 -3.5869999 0.69 2
8.3889999 -3.562 0.69199997 2
8.3920002 -3.608 0.78799999 2
8.3950005 -3.569 0.70599997 2
8.3879995 -3.572 0.71399999 2
8.5249996 -3.599 0.71600002 2
8.3800001 -3.6070001 0.79100001 2
8.4329996 -3.5999999 0.755 2
8.5 -3.5880001 0.70200002 2
8.4099998 -3.573 0.708 2
8.3800001 -3.599 0.77399999 2
8.441 -3.5969999 0.745 2
8.4720001 -3.585 0.70899999 2
8.4239998 -3.598 0.75300002 2
8.4359999 -3.572 0.69400001 2
8.5 -3.582 0.69 2
8.4320002 -3.5669999 0.685 2
8.4300003 -3.5810001 0.71499997 2
8.3830004 -3.5969999 0.76800001 2
8.4490004 -3.6010001 0.75099999 2
8.4160004 -3.596 0.75400001 2
8.4169998 -3.5940001 0.74900001 2
8.4359999 -3.5669999 0.68400002 2
8.3929996 -3.585 0.74000001 2
8.4309998 -3.605 0.76599997 2
8.3800001 -3.573 0.71899998 2
8.3920002 -3.5569999 0.68099999 2
8.4169998 -3.6029999 0.76800001 2
8.4960003 -3.4400001 0.345 2
8.5550003 -3.4779999 0.36199999 2
8.5039997 -3.4200001 0.331 2
8.4490004 -3.405 0.329 2
8.5129995 -3.4419999 0.34400001 2
8.5159998 -3.4489999 0.34799999 2
8.4770002 -3.4289999 0.34099999 2
8.4960003 -3.414 0.32800001 2
8.533 -3.4530001 0.34799999 2
8.5100002 -3.4300001 0.33700001 2
8.5340004 -3.4360001 0.33700001 2
8.4449997 -3.415 0.33700001 2
8.5030003 -3.424 0.333 2
8.4560003 -3.424 0.34099999 2
8.5139999 -3.4389999 0.34200001 2
8.4530001 -3.4130001 0.33399999 2
8.5430002 -3.4549999 0.34799999 2
8.5190001 -3.4319999 0.336 2
8.4989996 -3.45 0.352 2
8.4160004 -3.404 0.333 2
8.5139999 -3.4419999 0.34400001 2
8.5570002 -3.4779999 0.36199999 2
8.4530001 -3.4219999 0.34 2
8.5290003 -3.447 0.345 2
8.5340004 -3.464 0.35600001 2
8.46 -3.408 0.33000001 2
8.4870005 -3.428 0.338 2
8.5030003 -3.425 0.33399999 2
8.4169998 -3.398 0.329 2
8.3859997 -3.391 0.33000001 2
8.4890003 -3.4419999 0.34799999 2
8.5249996 -3.428 0.33199999 2
8.4960003 -3.4360001 0.34299999 2
8.4320002 -3.4030001 0.331 2
8.4729996 -3.4360001 0.34599999 2
8.448 -3.4189999 0.33899999 2
8.4639997 -3.4100001 0.33000001 2
8.5170002 -3.4300001 0.33500001 2
8.5480003 -3.4619999 0.352 2
8.4849997 -3.4400001 0.347 2
8.4390001 -3.4189999 0.34 2
8.4519997 -3.408 0.331 2
8.4320002 -3.408 0.33399999 2
8.4890003 -3.441 0.347 2
8.4399996 -3.4159999 0.338 2
8.4490004 -3.4159999 0.33700001 2
8.5369997 -3.457 0.34999999 2
8.5570002 -3.4790001 0.36199999 2
8.4460001 -3.4059999 0.33000001 2
8.5030003 -3.6199999 0.80500001 2
8.5270004 -3.625 0.80299997 2
8.5439997 -3.6300001 0.801 2
8.467 -3.619 0.80199999 2
8.4770002 -3.596 0.82300001 2
8.4490004 -3.6070001 0.81 2
8.493 -3.612 0.81099999 2
8.4650002 -3.619 0.80199999 2
8.415 -3.609 0.80500001 2
8.5740004 -3.628 0.80599999 2
8.4239998 -3.6140001 0.801 2
8.3959999 -3.6099999 0.801 2
8.6009998 -3.6389999 0.80000001 2
8.5380001 -3.619 0.81 2
8.441 -3.6159999 0.80199999 2
8.6199999 -3.6400001 0.801 2
8.4420004 -3.605 0.81099999 2
8.5019999 -3.605 0.81699997 2
8.5019999 -3.6070001 0.81599998 2
8.5889997 -3.628 0.80699998 2
8.5080004 -3.612 0.81199998 2
8.4860001 -3.5969999 0.82300001 2
8.4799995 -3.6229999 0.80000001 2
8.4919996 -3.6199999 0.80400002 2
8.493 -3.6170001 0.80599999 2
8.4879999 -3.6099999 0.81199998 2
8.5139999 -3.618 0.80800003 2
8.4449997 -3.6040001 0.81199998 2
8.4160004 -3.6040001 0.80900002 2
8.5349998 -3.6140001 0.81400001 2
8.5609999 -3.6270001 0.80599999 2
8.4650002 -3.6040001 0.81400001 2
8.6409998 -3.6440001 0.80000001 2
8.4989996 -3.6229999 0.80199999 2
8.3879995 -3.6099999 0.801 2
8.5179996 -3.6099999 0.815 2
8.5640001 -3.631 0.80199999 2
8.4910002 -3.596 0.824 2
8.5469999 -3.6270001 0.80400002 2
8.4160004 -3.6110001 0.80299997 2
8.4980001 -3.6229999 0.80199999 2
8.4289999 -3.6029999 0.81099999 2
8.4729996 -3.6010001 0.81800002 2
8.5010004 -3.6129999 0.81 2
8.6129999 -3.641 0.79900002 2
8.5 -3.6029999 0.81900001 2
8.5019999 -3.6110001 0.81199998 2
8.5489998 -3.625 0.80599999 2
8.4689999 -3.5940001 0.82300001 2
8.4759998 -3.5969999 0.82099998 2
8.5209999 -3.619 0.80800003 2
8.6009998 -3.6340001 0.80400002 2
8.5170002 -3.6199999 0.80599999 2
8.6260004 -3.6400001 0.80199999 2
8.5100002 -3.615 0.81 2
8.5360003 -3.6289999 0.801 2
8.5270004 -3.6159999 0.81099999 2
8.5640001 -3.631 0.80199999 2
8.4750004 -3.5969999 0.82099998 2
8.4910002 -3.6099999 0.81199998 2
8.3970003 -3.5139999 0.55500001 2
8.5270004 -3.5810001 0.67400002 2
8.4680004 -3.523 0.537 2
8.4300003 -3.54 0.61299998 2
8.5620003 -3.589 0.67400002 2
8.4049997 -3.507 0.52999997 2
8.3909998 -3.4949999 0.505 2
8.4510002 -3.5109999 0.514 2
8.4110003 -3.5480001 0.64899999 2
8.4300003 -3.5220001 0.55800003 2
8.3999996 -3.493 0.491 2
8.4180002 -3.5 0.50199997 2
8.4759998 -3.5439999 0.59500003 2
8.4309998 -3.55 0.64200002 2
8.3990002 -3.53 0.602 2
8.5 -3.5450001 0.58399999 2
8.4090004 -3.529 0.59500003 2
8.4589996 -3.53 0.565 2
8.4809999 -3.539 0.579 2
8.4639997 -3.526 0.54799998 2
8.5120001 -3.5610001 0.625 2
8.4420004 -3.5179999 0.53899997 2
8.4390001 -3.503 0.498 2
8.3870001 -3.5409999 0.64399999 2
8.382 -3.4979999 0.51899999 2
8.467 -3.5350001 0.57300001 2
8.408 -3.507 0.52899998 2
8.3780003 -3.52 0.58700001 2
8.4049997 -3.4779999 0.44400001 2
8.4130001 -3.5409999 0.62800002 2
8.4049997 -3.543 0.63700002 2
8.4490004 -3.5339999 0.583 2
8.4180002 -3.516 0.55000001 2
8.3990002 -3.5339999 0.61400002 2
8.4440002 -3.55 0.63200003 2
8.4829998 -3.569 0.667 2
8.4209995 -3.5150001 0.54400003 2
8.3839998 -3.5450001 0.65600002 2
8.4569998 -3.5280001 0.55900002 2
8.5209999 -3.5650001 0.62900001 2
8.3830004 -3.5050001 0.53799999 2
8.4849997 -3.5450001 0.59399998 2
8.4160004 -3.5480001 0.64700001 2
8.4350004 -3.529 0.57599998 2
8.4709997 -3.526 0.546 2
8.3889999 -3.5450001 0.65399998 2
8.4820004 -3.5450001 0.597 2
8.427 -3.5050001 0.51200002 2
8.4820004 -3.5469999 0.60100001 2
8.4759998 -3.566 0.66000003 2
8.5159998 -3.566 0.63700002 2
8.4110003 -3.513 0.546 2
8.4370003 -3.4990001 0.48699999 2
8.4049997 -3.477 0.442 2
8.4709997 -3.5250001 0.54299998 2
8.5200005 -3.5769999 0.66500002 2
8.401 -3.4860001 0.47099999 2
8.4809999 -3.5350001 0.565 2
8.5039997 -3.556 0.61199999 2
8.4069996 -3.5469999 0.64899999 2
8.3950005 -3.5020001 0.523 2
8.401 -3.5209999 0.57599998 2
8.46 -3.5380001 0.58700001 2
8.4300003 -3.4960001 0.48199999 2
8.4910002 -3.569 0.66000003 2
8.3929996 -3.4790001 0.454 2
8.4169998 -3.5550001 0.66399997 2
8.4610004 -3.5469999 0.61500001 2
8.4680004 -3.5569999 0.64099997 2
8.441 -3.5239999 0.55800003 2
8.4960003 -3.5569999 0.62199998 2
8.4650002 -3.5320001 0.56800002 2
8.5139999 -3.5639999 0.63 2
8.4630003 -3.527 0.55400002 2
8.5039997 -3.553 0.60600001 2
8.4379997 -3.5539999 0.64999998 2
8.4420004 -3.5380001 0.59899998 2
8.5 -3.5439999 0.57999998 2
8.4069996 -3.517 0.56 2
8.467 -3.523 0.53799999 2
8.4099998 -3.5020001 0.51200002 2
8.4860001 -3.5369999 0.56900001 2
8.4729996 -3.5550001 0.63 2
8.3839998 -3.5280001 0.60799998 2
8.5530005 -3.5880001 0.67799997 2
8.4799995 -3.5380001 0.57700002 2
8.5240002 -3.5810001 0.67699999 2
8.4350004 -3.527 0.57099998 2
8.3909998 -3.5179999 0.57300001 2
8.552 -3.5840001 0.66799998 2
8.3920002 -3.5250001 0.59299999 2
8.375 -3.4579999 0.403 2
8.4300003 -3.52 0.55400002 2
8.4119997 -3.5220001 0.56999999 2
8.4790001 -3.563 0.64899999 2
8.4919996 -3.553 0.61299998 2
8.4219999 -3.5320001 0.59500003 2
8.3900003 -3.52 0.579 2
8.4440002 -3.5190001 0.542 2
8.4110003 -3.55 0.65399998 2
8.4259996 -3.5339999 0.597 2
8.448 -3.549 0.62900001 2
8.5129995 -3.563 0.62800002 2
8.448 -3.559 0.65799999 2
8.3950005 -3.54 0.63599998 2
8.4770002 -3.5599999 0.64200002 2
8.5100002 -3.5639999 0.634 2
8.434 -3.5539999 0.653 2
8.5039997 -3.5599999 0.625 2
8.3780003 -3.4719999 0.44499999 2
8.4200001 -3.5309999 0.59100002 2
8.4469995 -3.5120001 0.51899999 2
8.5229998 -3.5840001 0.68300003 2
8.4879999 -3.5610001 0.63800001 2
8.4060001 -3.5369999 0.62 2
8.3979998 -3.549 0.66000003 2
8.4680004 -3.5369999 0.579 2
8.5209999 -3.5610001 0.61900002 2
8.382 -3.4679999 0.43000001 2
8.4980001 -3.5680001 0.65399998 2
8.533 -3.5710001 0.639 2
8.5349998 -3.5799999 0.66500002 2
8.4329996 -3.5109999 0.52600002 2
8.382 -3.4779999 0.45899999 2
8.3830004 -3.4719999 0.44100001 2
8.4209995 -3.5190001 0.55699998 2
8.4700003 -3.546 0.60399997 2
8.427 -3.5420001 0.62099999 2
8.5170002 -3.5650001 0.63300002 2
8.4239998 -3.552 0.65200001 2
8.5530005 -3.5869999 0.67400002 2
8.3769999 -3.4949999 0.51300001 2
8.5030003 -3.549 0.59299999 2
8.401 -3.5179999 0.56699997 2
8.4069996 -3.5280001 0.58999997 2
8.4510002 -3.527 0.56199998 2
8.3940001 -3.5250001 0.58999997 2
8.4300003 -3.55 0.64300001 2
8.3979998 -3.516 0.56300002 2
8.3879995 -3.507 0.54299998 2
8.4759998 -3.553 0.62400001 2
8.4239998 -3.5320001 0.59399998 2
8.3950005 -3.48 0.45500001 2
8.3929996 -3.5380001 0.63 2
8.3920002 -3.4760001 0.44800001 2
8.4350004 -3.497 0.48300001 2
8.4980001 -3.5580001 0.62300003 2
8.4259996 -3.5409999 0.61799997 2
8.3789997 -3.48 0.46799999 2
8.3999996 -3.5339999 0.61400002 2
8.4449997 -3.54 0.60399997 2
8.3970003 -3.4909999 0.49000001 2
8.4949999 -3.5480001 0.59600002 2
8.4160004 -3.53 0.59399998 2
8.4980001 -3.575 0.67400002 2
8.4580002 -3.5150001 0.52200001 2
8.5410004 -3.589 0.68699998 2
8.4200001 -3.5280001 0.583 2
8.3990002 -3.5480001 0.65499997 2
8.54 -3.579 0.66000003 2
8.4069996 -3.4860001 0.46900001 2
8.4779997 -3.563 0.64899999 2
8.4540005 -3.543 0.60600001 2
8.4980001 -3.563 0.63800001 2
8.4460001 -3.539 0.59799999 2
8.5209999 -3.5799999 0.67299998 2
8.4449997 -3.5599999 0.66399997 2
8.4919996 -3.549 0.59899998 2
8.4919996 -3.5669999 0.65499997 2
8.4160004 -3.5420001 0.62699997 2
8.3920002 -3.5150001 0.56199998 2
8.552 -3.5880001 0.67699999 2
8.4289999 -3.513 0.53399998 2
8.5299997 -3.5739999 0.64999998 2
8.5220003 -3.5699999 0.64399999 2
8.4919996 -3.546 0.59200001 2
8.4370003 -3.5320001 0.58499998 2
8.3769999 -3.4790001 0.465 2
8.4420004 -3.543 0.616 2
8.4099998 -3.4779999 0.442 2
8.4519997 -3.539 0.59600002 2
8.5190001 -3.562 0.62199998 2
8.434 -3.5350001 0.597 2
8.4820004 -3.5669999 0.66000003 2
8.448 -3.5220001 0.54900002 2
8.3780003 -3.543 0.65399998 2
8.4139996 -3.5009999 0.50800002 2
8.4469995 -3.54 0.60299999 2
8.5349998 -3.573 0.64399999 2
8.5179996 -3.563 0.62699997 2
8.4060001 -3.497 0.50099999 2
8.4309998 -3.5150001 0.53899997 2
8.4560003 -3.5220001 0.542 2
8.5439997 -3.589 0.68599999 2
8.4370003 -3.5409999 0.611 2
8.448 -3.5480001 0.625 2
8.3780003 -3.4820001 0.47299999 2
8.4510002 -3.526 0.55699998 2
8.5419998 -3.5810001 0.66299999 2
8.474 -3.5380001 0.579 2
8.4130001 -3.4909999 0.479 2
8.3830004 -3.5020001 0.53100002 2
8.4420004 -3.53 0.57499999 2
8.5229998 -3.5639999 0.62599999 2
8.4519997 -3.5109999 0.514 2
8.3900003 -3.526 0.597 2
8.4680004 -3.529 0.55599999 2
8.5209999 -3.5680001 0.63999999 2
8.4040003 -3.527 0.59100002 2
8.3800001 -3.5309999 0.61699998 2
8.3959999 -3.5450001 0.64899999 2
8.5430002 -3.5769999 0.653 2
8.4180002 -3.513 0.54100001 2
8.4139996 -3.5369999 0.61199999 2
8.3909998 -3.513 0.55699998 2
8.3970003 -3.471 0.428 2
8.4289999 -3.5539999 0.65600002 2
8.5159998 -3.5610001 0.62099999 2
8.3920002 -3.5369999 0.62900001 2
8.4449997 -3.5320001 0.57999998 2
8.5120001 -3.553 0.59899998 2
8.3999996 -3.483 0.463 2
8.5430002 -3.589 0.68599999 2
8.474 -3.5439999 0.597 2
8.4989996 -3.575 0.67199999 2
8.4420004 -3.546 0.62400001 2
8.3959999 -3.4820001 0.463 2
8.5539999 -3.586 0.67000002 2
8.3769999 -3.5009999 0.52899998 2
8.3780003 -3.5380001 0.64099997 2
8.4700003 -3.54 0.58700001 2
8.4219999 -3.497 0.49000001 2
8.4639997 -3.536 0.57999998 2
8.3859997 -3.54 0.64200002 2
8.408 -3.4960001 0.498 2
8.4729996 -3.566 0.66399997 2
8.5089998 -3.573 0.66000003 2
8.54 -3.586 0.67900002 2
8.5249996 -3.573 0.64999998 2
8.3870001 -3.4979999 0.51499999 2
8.4280005 -3.4949999 0.48199999 2
8.4980001 -3.5710001 0.662 2
8.5080004 -3.5580001 0.61799997 2
8.3760004 -3.4619999 0.41600001 2
8.4429998 -3.52 0.54500002 2
8.4329996 -3.539 0.60900003 2
8.408 -3.523 0.57700002 2
8.415 -3.54 0.62300003 2
8.448 -3.5280001 0.56699997 2
8.4650002 -3.5190001 0.528 2
8.46 -3.5599999 0.653 2
8.3990002 -3.55 0.662 2
8.3809996 -3.5090001 0.55199999 2
8.4060001 -3.4949999 0.49399999 2
8.4630003 -3.5250001 0.54799998 2
8.4790001 -3.5320001 0.55800003 2
8.4589996 -3.5309999 0.56900001 2
8.5010004 -3.5699999 0.65799999 2
8.3850002 -3.503 0.53200001 2
8.5190001 -3.559 0.61400002 2
8.3839998 -3.4909999 0.498 2
8.4770002 -3.529 0.55000001 2
8.4209995 -3.527 0.57999998 2
8.5150003 -3.5739999 0.66100001 2
8.4209995 -3.5050001 0.514 2
8.4610004 -3.52 0.53500003 2
8.4110003 -3.5209999 0.56699997 2
8.4840002 -3.549 0.60600001 2
8.3959999 -3.55 0.66399997 2
8.3970003 -3.5039999 0.52700001 2
8.408 -3.4920001 0.48500001 2
8.4300003 -3.539 0.61000001 2
8.3940001 -3.506 0.53399998 2
8.3959999 -3.5309999 0.60699999 2
8.3760004 -3.4990001 0.52399999 2
8.5129995 -3.572 0.65399998 2
8.5139999 -3.582 0.68400002 2
8.5249996 -3.5739999 0.653 2
8.5319996 -3.5680001 0.63099998 2
8.4580002 -3.53 0.565 2
8.5010004 -3.5450001 0.583 2
8.375 -3.47 0.43900001 2
8.4399996 -3.5090001 0.51499999 2
8.4460001 -3.5539999 0.64399999 2
8.4379997 -3.5139999 0.53200001 2
8.474 -3.5339999 0.56599998 2
8.4180002 -3.5439999 0.634 2
8.4169998 -3.5450001 0.63599998 2
8.4659996 -3.566 0.66799998 2
8.5080004 -3.552 0.59899998 2
8.3850002 -3.533 0.62199998 2
8.5019999 -3.575 0.67299998 2
8.3979998 -3.5050001 0.52999997 2
8.4469995 -3.527 0.565 2
8.5019999 -3.5610001 0.62800002 2
8.4829998 -3.5409999 0.58200002 2
8.4829998 -3.5420001 0.58600003 2
8.5200005 -3.5610001 0.61799997 2
8.6020002 -3.5020001 0.426 2
8.625 -3.51 0.44499999 2
8.5819998 -3.4949999 0.40799999 2
8.5609999 -3.4960001 0.433 2
8.5959997 -3.5020001 0.433 2
8.5670004 -3.493 0.412 2
8.4820004 -3.4719999 0.389 2
8.625 -3.513 0.458 2
8.5380001 -3.4849999 0.40000001 2
8.5749998 -3.497 0.426 2
8.4040003 -3.4579999 0.391 2
8.5699997 -3.493 0.40799999 2
8.3970003 -3.4549999 0.384 2
8.4899998 -3.4790001 0.41499999 2
8.5900002 -3.5020001 0.43900001 2
8.5690002 -3.487 0.38100001 2
8.6020002 -3.503 0.43099999 2
8.618 -3.5109999 0.456 2
8.5179996 -3.484 0.412 2
8.4619999 -3.4679999 0.38600001 2
8.5349998 -3.4849999 0.40099999 2
8.5270004 -3.4790001 0.377 2
8.573 -3.4949999 0.41499999 2
8.5530005 -3.484 0.37799999 2
8.4770002 -3.4760001 0.41299999 2
8.5839996 -3.5009999 0.43599999 2
8.4460001 -3.464 0.37900001 2
8.5649996 -3.4890001 0.39199999 2
8.467 -3.47 0.389 2
8.658 -3.5190001 0.45899999 2
8.5480003 -3.483 0.377 2
8.4239998 -3.461 0.38499999 2
8.6330004 -3.513 0.45500001 2
8.6190004 -3.5050001 0.42399999 2
8.5609999 -3.497 0.43700001 2
8.4420004 -3.4630001 0.38100001 2
8.415 -3.4590001 0.384 2
8.467 -3.4719999 0.40400001 2
8.4729996 -3.4719999 0.396 2
8.651 -3.5179999 0.461 2
8.5939999 -3.5020001 0.435 2
8.5489998 -3.4820001 0.37599999 2
8.4680004 -3.471 0.396 2
8.5799999 -3.497 0.419 2
8.474 -3.4719999 0.39399999 2
8.6210003 -3.507 0.433 2
8.5900002 -3.4979999 0.414 2
8.4949999 -3.477 0.40000001 2
8.5159998 -3.4820001 0.40599999 2
8.4510002 -3.4679999 0.39700001 2
8.6929998 -3.5280001 0.47099999 2
8.4980001 -3.4760001 0.39399999 2
8.6619997 -3.5209999 0.465 2
8.6339998 -3.513 0.44999999 2
8.5790005 -3.4890001 0.38299999 2
8.5760002 -3.4920001 0.398 2
8.5089998 -3.474 0.373 2
8.6859999 -3.526 0.46599999 2
8.6709995 -3.5209999 0.45500001 2
8.5830002 -3.5020001 0.44400001 2
8.5930004 -3.5 0.42300001 2
8.6750002 -3.5239999 0.46799999 2
8.6230001 -3.507 0.43099999 2
8.5860004 -3.4949999 0.405 2
8.4580002 -3.4690001 0.39399999 2
8.5970001 -3.5039999 0.44100001 2
8.5909996 -3.5009999 0.43399999 2
8.5939999 -3.5009999 0.43000001 2
8.5679998 -3.4920001 0.40799999 2
8.4130001 -3.4590001 0.38600001 2
8.6540003 -3.5190001 0.46200001 2
8.6450005 -3.513 0.44 2
8.6520004 -3.517 0.45500001 2
8.4359999 -3.464 0.391 2
8.4989996 -3.4779999 0.40000001 2
8.5220003 -3.483 0.403 2
8.6169996 -3.507 0.43399999 2
8.5080004 -3.483 0.419 2
8.4630003 -3.4679999 0.384 2
8.4300003 -3.461 0.37900001 2
8.5790005 -3.494 0.40400001 2
8.5249996 -3.4790001 0.384 2
8.5459995 -3.484 0.38699999 2
8.5769997 -3.4909999 0.39300001 2
8.573 -3.497 0.426 2
8.6269999 -3.507 0.426 2
8.6459999 -3.5120001 0.43399999 2
8.599 -3.4960001 0.398 2
8.4119997 -3.4590001 0.389 2
8.5690002 -3.4879999 0.384 2
8.5100002 -3.484 0.42300001 2
8.5790005 -3.5 0.43700001 2
8.6110001 -3.5039999 0.42500001 2
8.4259996 -3.46 0.37900001 2
8.5190001 -3.48 0.38999999 2
8.5310001 -3.4809999 0.38800001 2
8.5950003 -3.503 0.435 2
8.4980001 -3.474 0.38299999 2
8.4919996 -3.474 0.389 2
8.6389999 -3.5120001 0.43900001 2
8.6070004 -3.507 0.44400001 2
8.4110003 -3.4579999 0.382 2
8.5190001 -3.4820001 0.40200001 2
8.5089998 -3.4820001 0.414 2
8.5819998 -3.5020001 0.44400001 2
8.4569998 -3.4719999 0.40900001 2
8.5579996 -3.493 0.421 2
8.5310001 -3.4779999 0.36899999 2
8.5010004 -3.4760001 0.389 2
8.493 -3.4790001 0.41 2
8.434 -3.4630001 0.38800001 2
8.4420004 -3.467 0.398 2
8.493 -3.4749999 0.39199999 2
8.5710001 -3.497 0.42899999 2
8.4540005 -3.4679999 0.39199999 2
8.5410004 -3.484 0.38999999 2
8.6389999 -3.516 0.461 2
8.5509996 -3.484 0.38100001 2
8.6459999 -3.5120001 0.43599999 2
8.6029997 -3.5050001 0.442 2
8.4879999 -3.4779999 0.41 2
8.6730003 -3.523 0.46599999 2
8.6809998 -3.5239999 0.463 2
8.6079998 -3.5039999 0.428 2
8.4119997 -3.46 0.39300001 2
8.401 -3.4579999 0.39300001 2
8.5229998 -3.4790001 0.384 2
8.6070004 -3.5 0.40799999 2
8.4779997 -3.471 0.38499999 2
8.5579996 -3.49 0.40599999 2
8.6040001 -3.4990001 0.40799999 2
8.5450001 -3.566 0.62 2
8.5539999 -3.5339999 0.53600001 2
8.4650002 -3.5009999 0.48199999 2
8.5299997 -3.562 0.616 2
8.5790005 -3.5090001 0.465 2
8.6379995 -3.527 0.49000001 2
8.5539999 -3.556 0.59299999 2
8.6459999 -3.5190001 0.46700001 2
8.5780001 -3.566 0.60900003 2
8.6230001 -3.5469999 0.546 2
8.4619999 -3.503 0.48699999 2
8.6309996 -3.517 0.46700001 2
8.5489998 -3.51 0.47799999 2
8.6020002 -3.53 0.50999999 2
8.6230001 -3.559 0.57800001 2
8.6280003 -3.523 0.48500001 2
8.5389996 -3.5420001 0.56199998 2
8.4560003 -3.4820001 0.43700001 2
8.5450001 -3.5 0.45300001 2
8.5979996 -3.536 0.52700001 2
8.5880003 -3.575 0.63099998 2
8.5089998 -3.5009999 0.46700001 2
8.5190001 -3.4920001 0.44 2
8.5340004 -3.539 0.55500001 2
8.6120005 -3.539 0.52999997 2
8.46 -3.5 0.48100001 2
8.5740004 -3.5079999 0.463 2
8.6309996 -3.549 0.54900002 2
8.4530001 -3.477 0.42399999 2
8.5930004 -3.579 0.63800001 2
8.6420002 -3.523 0.47799999 2
8.5959997 -3.569 0.61199999 2
8.6129999 -3.576 0.625 2
8.4729996 -3.517 0.51999998 2
8.6190004 -3.526 0.49599999 2
8.6400003 -3.5480001 0.54299998 2
8.46 -3.5020001 0.486 2
8.5889997 -3.5699999 0.61699998 2
8.5170002 -3.5050001 0.47400001 2
8.6230001 -3.5369999 0.51999998 2
8.5570002 -3.5320001 0.52899998 2
8.6929998 -3.539 0.50300002 2
8.448 -3.4760001 0.42300001 2
8.6739998 -3.527 0.47799999 2
8.5500002 -3.556 0.59299999 2
8.6079998 -3.5780001 0.63200003 2
8.5679998 -3.53 0.523 2
8.5500002 -3.497 0.44400001 2
8.5450001 -3.5480001 0.57499999 2
8.5609999 -3.5369999 0.54299998 2
8.5 -3.539 0.56800002 2
8.6350002 -3.5650001 0.58999997 2
8.5860004 -3.513 0.47299999 2
8.552 -3.497 0.44299999 2
8.5900002 -3.5220001 0.49399999 2
8.5439997 -3.5 0.45300001 2
8.5959997 -3.5190001 0.48500001 2
8.5819998 -3.517 0.48300001 2
8.4490004 -3.47 0.40900001 2
8.4259996 -3.4760001 0.43200001 2
8.408 -3.47 0.421 2
8.5839996 -3.576 0.634 2
8.4799995 -3.5039999 0.48300001 2
8.6070004 -3.5109999 0.45899999 2
8.5810003 -3.536 0.53399998 2
8.6529999 -3.526 0.48199999 2
8.6339998 -3.5539999 0.56 2
8.6879997 -3.54 0.50700003 2
