# .PCD v0.7 - Point Cloud Data file format
VERSION 0.7
FIELDS x y z label
SIZE 4 4 4 4
TYPE F F F U
COUNT 1 1 1 1
WIDTH 1579
HEIGHT 1
VIEWPOINT 0 0 0 1 0 0 0
POINTS 1579
DATA ascii
9.2989998 -2.3340001 0.44999999 2
9.224 -2.448 0.45199999 2
9.2060003 -2.3970001 0.456 2
9.1940002 -2.3670001 0.458 2
9.0869999 -2.5369999 0.461 2
9.2250004 -2.4000001 0.454 2
9.2790003 -2.3740001 0.44999999 2
9.1479998 -2.5 0.45699999 2
9.198 -2.3699999 0.45699999 2
9.1440001 -2.47 0.458 2
9.1470003 -2.437 0.45899999 2
9.2270002 -2.457 0.45199999 2
9.257 -2.358 0.45199999 2
9.2609997 -2.332 0.45300001 2
9.1730003 -2.4960001 0.45500001 2
9.1520004 -2.454 0.458 2
9.165 -2.4519999 0.45699999 2
9.1899996 -2.4660001 0.454 2
9.1190004 -2.464 0.461 2
9.2329998 -2.3940001 0.45300001 2
9.1719999 -2.404 0.458 2
9.2679996 -2.3180001 0.45300001 2
9.1929998 -2.418 0.456 2
9.2290001 -2.421 0.45300001 2
9.1999998 -2.365 0.45699999 2
9.2340002 -2.3759999 0.454 2
9.2609997 -2.421 0.44999999 2
9.0790005 -2.5320001 0.46200001 2
9.1619997 -2.4560001 0.45699999 2
9.0810003 -2.53 0.46200001 2
9.0559998 -2.55 0.463 2
9.2600002 -2.319 0.454 2
9.2840004 -2.4000001 0.44800001 2
9.2440004 -2.3570001 0.454 2
9.2819996 -2.4419999 0.447 2
9.0600004 -2.5469999 0.463 2
9.243 -2.447 0.44999999 2
9.2200003 -2.447 0.45199999 2
9.1990004 -2.438 0.45500001 2
9.2530003 -2.3469999 0.45300001 2
9.2580004 -2.3499999 0.45300001 2
9.2489996 -2.3740001 0.45300001 2
9.2819996 -2.3789999 0.449 2
9.1569996 -2.4909999 0.456 2
9.3079996 -2.3959999 0.44600001 2
9.1750002 -2.402 0.458 2
9.2220001 -2.4660001 0.45199999 2
9.1610003 -2.408 0.45899999 2
9.21 -2.4230001 0.454 2
9.118 -2.487 0.46000001 2
9.1059999 -2.5120001 0.46000001 2
9.2259998 -2.4130001 0.45300001 2
9.1829996 -2.477 0.45500001 2
9.1599998 -2.457 0.45699999 2
9.243 -2.3410001 0.454 2
9.283 -2.313 0.45199999 2
9.1639996 -2.549 0.458 2
9.2390003 -2.487 0.45100001 2
9.177 -2.4990001 0.45500001 2
9.2740002 -2.506 0.45100001 2
9.2349997 -2.556 0.456 2
9.1379995 -2.536 0.458 2
9.1269999 -2.559 0.46000001 2
9.2589998 -2.467 0.44999999 2
9.1809998 -2.5190001 0.456 2
9.3059998 -2.457 0.447 2
9.2360001 -2.506 0.45300001 2
9.1379995 -2.5450001 0.45899999 2
9.2180004 -2.5350001 0.45500001 2
9.1149998 -2.536 0.45899999 2
9.2729998 -2.4679999 0.449 2
9.1090002 -2.553 0.46000001 2
9.2860003 -2.473 0.449 2
9.2250004 -2.4949999 0.45300001 2
9.2650003 -2.4890001 0.45100001 2
9.1470003 -2.5179999 0.45699999 2
9.1070004 -2.5669999 0.461 2
9.2259998 -2.5510001 0.456 2
9.2360001 -2.55 0.45500001 2
9.0769997 -2.556 0.46200001 2
9.0629997 -2.559 0.463 2
9.2340002 -2.513 0.45300001 2
9.243 -2.4809999 0.45100001 2
9.1739998 -2.55 0.458 2
9.1890001 -2.516 0.45500001 2
9.2360001 -2.5309999 0.454 2
9.1750002 -2.5339999 0.45699999 2
9.2299995 -2.506 0.45300001 2
9.2930002 -2.4549999 0.447 2
9.1759996 -2.53 0.45699999 2
9.25 -2.5039999 0.45199999 2
9.2480001 -2.493 0.45100001 2
9.1260004 -2.5250001 0.458 2
9.1350002 -2.5190001 0.45699999 2
9.0609999 -2.5680001 0.463 2
9.2030001 -2.5369999 0.456 2
9.059 -2.5680001 0.463 2
9.3009996 -2.444 0.44600001 2
9.2200003 -2.553 0.456 2
9.3009996 -2.454 0.447 2
9.1890001 -2.507 0.45500001 2
9.1280003 -2.5480001 0.45899999 2
9.2779999 -2.4619999 0.44800001 2
9.1870003 -2.5079999 0.45500001 2
9.2629995 -2.4619999 0.449 2
9.2690001 -2.45 0.44800001 2
9.2309999 -2.53 0.454 2
9.2980003 -2.4360001 0.44600001 2
9.1420002 -2.5510001 0.45899999 2
9.1619997 -2.5380001 0.458 2
9.2370005 -2.5309999 0.454 2
9.2939997 -2.4749999 0.449 2
9.2690001 -2.5220001 0.45199999 2
9.1269999 -2.536 0.45899999 2
9.2580004 -2.4790001 0.44999999 2
9.2159996 -2.543 0.456 2
9.2259998 -2.477 0.45100001 2
9.1739998 -2.536 0.45699999 2
9.0810003 -2.562 0.46200001 2
9.3339996 -2.4170001 0.44400001 2
9.1359997 -2.552 0.45899999 2
9.276 -2.4809999 0.44999999 2
9.0579996 -2.566 0.463 2
9.2919998 -2.4949999 0.44999999 2
9.2869997 -2.497 0.44999999 2
9.1969995 -2.5550001 0.45699999 2
9.2290001 -2.55 0.456 2
9.1040001 -2.5469999 0.46000001 2
9.2950001 -2.448 0.447 2
9.3219995 -2.4260001 0.44499999 2
9.198 -2.5050001 0.454 2
9.2629995 -2.5090001 0.45199999 2
9.2180004 -2.55 0.456 2
9.1230001 -2.5599999 0.46000001 2
9.1260004 -2.5250001 0.458 2
9.2189999 -2.5239999 0.454 2
9.1149998 -2.539 0.45899999 2
9.1339998 -2.5250001 0.458 2
9.0719995 -2.5669999 0.463 2
9.2110004 -2.53 0.45500001 2
9.2519999 -2.494 0.45100001 2
9.2489996 -2.5220001 0.45300001 2
9.2980003 -2.461 0.44800001 2
9.2030001 -2.506 0.454 2
9.1969995 -2.523 0.45500001 2
9.1230001 -2.556 0.46000001 2
9.2019997 -2.51 0.454 2
9.2209997 -2.507 0.45300001 2
9.1389999 -2.5539999 0.45899999 2
9.1870003 -2.5569999 0.458 2
9.0760002 -2.5650001 0.46200001 2
9.2589998 -2.52 0.45300001 2
9.1800003 -2.529 0.456 2
9.243 -2.516 0.45300001 2
9.1440001 -2.5469999 0.45899999 2
9.1680002 -2.5250001 0.45699999 2
9.2860003 -2.5009999 0.44999999 2
9.1140003 -2.5539999 0.46000001 2
9.1630001 -2.563 0.45899999 2
9.191 -2.4920001 0.454 2
9.2670002 -2.4590001 0.449 2
9.099 -2.5539999 0.461 2
9.1330004 -2.5569999 0.46000001 2
9.1940002 -2.497 0.454 2
9.2360001 -2.471 0.45100001 2
9.2279997 -2.527 0.454 2
9.0679998 -2.5669999 0.463 2
9.2010002 -2.5050001 0.454 2
9.3050003 -2.4330001 0.44600001 2
9.2749996 -2.516 0.45199999 2
9.1630001 -2.5079999 0.456 2
9.2130003 -2.5090001 0.454 2
9.1660004 -2.5580001 0.45899999 2
9.1499996 -2.51 0.456 2
9.118 -2.553 0.46000001 2
9.2690001 -2.5239999 0.45199999 2
9.2989998 -2.471 0.44800001 2
9.2410002 -2.4949999 0.45199999 2
9.198 -2.533 0.456 2
9.2519999 -2.516 0.45300001 2
9.2480001 -2.5090001 0.45199999 2
9.302 -2.474 0.44800001 2
9.2889996 -2.451 0.447 2
9.2150002 -2.5109999 0.454 2
9.283 -2.5050001 0.45100001 2
9.2860003 -2.441 0.447 2
9.2329998 -2.539 0.45500001 2
9.0690002 -2.559 0.46200001 2
9.2189999 -2.4760001 0.45199999 2
9.1879997 -2.5 0.454 2
9.1850004 -2.5039999 0.45500001 2
9.1879997 -2.5280001 0.456 2
9.2150002 -2.52 0.454 2
9.2779999 -2.5 0.45100001 2
9.2980003 -2.4660001 0.44800001 2
9.2229996 -2.4809999 0.45199999 2
9.2469997 -2.53 0.454 2
9.309 -2.4579999 0.447 2
9.0869999 -2.5639999 0.46200001 2
9.1949997 -2.5320001 0.456 2
9.2049999 -2.5079999 0.454 2
9.1330004 -2.5439999 0.45899999 2
9.3000002 -2.4530001 0.447 2
9.1809998 -2.5309999 0.456 2
9.2040005 -2.506 0.454 2
9.1210003 -2.5380001 0.45899999 2
9.151 -2.5139999 0.45699999 2
9.3330002 -2.4219999 0.44400001 2
9.1969995 -2.553 0.45699999 2
9.2309999 -2.49 0.45199999 2
9.1599998 -2.5550001 0.45899999 2
9.1689997 -2.5450001 0.458 2
9.2220001 -2.4809999 0.45199999 2
9.0869999 -2.5550001 0.46200001 2
9.2150002 -2.4979999 0.45300001 2
9.1929998 -2.5409999 0.456 2
9.29 -2.4860001 0.449 2
9.3409996 -2.6819999 0.461 2
9.1960001 -2.7950001 0.47400001 2
9.309 -2.7060001 0.46399999 2
9.3649998 -2.701 0.461 2
9.3330002 -2.6819999 0.461 2
9.3100004 -2.684 0.46200001 2
9.3109999 -2.6889999 0.46200001 2
9.2690001 -2.763 0.46900001 2
9.2200003 -2.789 0.47299999 2
9.1870003 -2.8050001 0.47499999 2
9.2799997 -2.5969999 0.45699999 2
9.2980003 -2.6199999 0.458 2
9.2679996 -2.6459999 0.461 2
9.2180004 -2.79 0.47299999 2
9.2629995 -2.757 0.46900001 2
9.2360001 -2.6589999 0.463 2
9.2519999 -2.585 0.45699999 2
9.2379999 -2.7479999 0.46900001 2
9.2969999 -2.658 0.461 2
9.1969995 -2.777 0.47299999 2
9.2819996 -2.7550001 0.46799999 2
9.2740002 -2.747 0.46799999 2
9.2469997 -2.763 0.47 2
9.2399998 -2.757 0.47 2
9.2139997 -2.75 0.47 2
9.2539997 -2.5810001 0.45699999 2
9.2650003 -2.6099999 0.458 2
9.2910004 -2.6919999 0.463 2
9.3039999 -2.7130001 0.46399999 2
9.3439999 -2.7219999 0.46399999 2
9.2889996 -2.711 0.465 2
9.2419996 -2.6329999 0.461 2
9.2119999 -2.783 0.47299999 2
9.3199997 -2.734 0.465 2
9.2930002 -2.7160001 0.465 2
9.2690001 -2.6860001 0.46399999 2
9.2510004 -2.6129999 0.45899999 2
9.2510004 -2.71 0.46599999 2
9.2919998 -2.7320001 0.46599999 2
9.2419996 -2.675 0.46399999 2
9.2309999 -2.7820001 0.472 2
9.2469997 -2.6670001 0.463 2
9.3000002 -2.71 0.46399999 2
9.2399998 -2.7260001 0.46799999 2
9.309 -2.628 0.458 2
9.2729998 -2.681 0.463 2
9.2530003 -2.7579999 0.46900001 2
9.1960001 -2.7639999 0.472 2
9.3450003 -2.684 0.461 2
9.2700005 -2.635 0.46000001 2
9.3549995 -2.707 0.46200001 2
9.3579998 -2.7030001 0.46200001 2
9.3070002 -2.7179999 0.465 2
9.2399998 -2.6270001 0.46000001 2
9.2209997 -2.7809999 0.472 2
9.2589998 -2.6059999 0.458 2
9.3140001 -2.671 0.461 2
9.2480001 -2.71 0.46599999 2
9.2670002 -2.664 0.46200001 2
9.2639999 -2.6040001 0.458 2
9.2709999 -2.668 0.46200001 2
9.283 -2.618 0.458 2
9.2519999 -2.714 0.46599999 2
9.3219995 -2.7360001 0.465 2
9.2139997 -2.7479999 0.47 2
9.2939997 -2.6459999 0.46000001 2
9.3559999 -2.7049999 0.46200001 2
9.2320004 -2.77 0.47099999 2
9.3199997 -2.658 0.46000001 2
9.3339996 -2.72 0.46399999 2
9.2449999 -2.7720001 0.47099999 2
9.3479996 -2.6789999 0.46000001 2
9.2930002 -2.7249999 0.46599999 2
9.25 -2.602 0.458 2
9.3059998 -2.628 0.458 2
9.2849998 -2.7579999 0.46799999 2
9.2049999 -2.7349999 0.47 2
9.3219995 -2.6589999 0.46000001 2
9.2309999 -2.7679999 0.47099999 2
9.2530003 -2.7579999 0.46900001 2
9.3140001 -2.7090001 0.46399999 2
9.2410002 -2.7190001 0.46700001 2
9.1920004 -2.7709999 0.47299999 2
9.3140001 -2.71 0.46399999 2
9.2069998 -2.779 0.47299999 2
9.2250004 -2.6670001 0.46399999 2
9.2299995 -2.7620001 0.47099999 2
9.2959995 -2.642 0.46000001 2
9.2539997 -2.615 0.45899999 2
9.2449999 -2.6919999 0.465 2
9.2679996 -2.767 0.47 2
9.2110004 -2.77 0.472 2
9.2959995 -2.622 0.458 2
9.3330002 -2.71 0.463 2
9.2709999 -2.678 0.463 2
9.2659998 -2.77 0.47 2
9.3310003 -2.658 0.45899999 2
9.283 -2.658 0.461 2
9.2060003 -2.7509999 0.47099999 2
9.283 -2.733 0.46700001 2
9.3149996 -2.71 0.46399999 2
9.2659998 -2.6559999 0.46200001 2
9.3070002 -2.6889999 0.463 2
9.2119999 -2.7309999 0.46900001 2
9.224 -2.796 0.47299999 2
9.3170004 -2.681 0.46200001 2
9.2379999 -2.7609999 0.47 2
9.2589998 -2.724 0.46700001 2
9.1969995 -2.8069999 0.47499999 2
9.3000002 -2.6789999 0.46200001 2
9.2440004 -2.651 0.46200001 2
9.3479996 -2.687 0.461 2
9.2770004 -2.7420001 0.46700001 2
9.2489996 -2.677 0.46399999 2
9.3439999 -2.7119999 0.463 2
9.2720003 -2.6670001 0.46200001 2
9.2709999 -2.7650001 0.46900001 2
9.224 -2.779 0.472 2
9.3479996 -2.694 0.461 2
9.2980003 -2.7049999 0.46399999 2
9.2110004 -2.743 0.47 2
9.3529997 -2.6919999 0.461 2
9.1940002 -2.8069999 0.47499999 2
9.191 -2.776 0.47299999 2
9.191 -2.8080001 0.47499999 2
9.2860003 -2.6389999 0.46000001 2
9.2729998 -2.6630001 0.46200001 2
9.1829996 -2.8080001 0.47600001 2
9.2779999 -2.5929999 0.45699999 2
9.2580004 -2.7290001 0.46700001 2
9.2819996 -2.71 0.465 2
9.2209997 -2.7379999 0.46900001 2
9.2589998 -2.7679999 0.47 2
9.2799997 -2.737 0.46700001 2
9.2279997 -2.766 0.47099999 2
9.2489996 -2.5910001 0.458 2
9.2139997 -2.7320001 0.46900001 2
9.2600002 -2.733 0.46700001 2
9.2360001 -2.7539999 0.47 2
9.2469997 -2.7179999 0.46700001 2
9.2720003 -2.615 0.458 2
9.2519999 -2.5739999 0.456 2
9.1920004 -2.779 0.47299999 2
9.2720003 -2.6300001 0.46000001 2
9.2860003 -2.747 0.46700001 2
9.2329998 -2.658 0.463 2
9.2449999 -2.6040001 0.45899999 2
9.2139997 -2.727 0.46900001 2
9.2980003 -2.7490001 0.46700001 2
9.2650003 -2.586 0.45699999 2
9.1920004 -2.793 0.47400001 2
9.3339996 -2.6830001 0.461 2
9.309 -2.7390001 0.46599999 2
9.3479996 -2.7179999 0.463 2
9.2519999 -2.5929999 0.458 2
9.2370005 -2.7260001 0.46799999 2
9.3459997 -2.707 0.46200001 2
9.2810001 -2.7249999 0.46599999 2
9.2620001 -2.619 0.45899999 2
9.2799997 -2.6199999 0.458 2
9.2229996 -2.701 0.46599999 2
9.2860003 -2.721 0.46599999 2
9.3380003 -2.7130001 0.463 2
9.2550001 -2.684 0.46399999 2
9.2959995 -2.6530001 0.46000001 2
9.2419996 -2.78 0.47099999 2
9.2519999 -2.6070001 0.45899999 2
9.3000002 -2.6370001 0.45899999 2
9.2419996 -2.777 0.47099999 2
9.276 -2.638 0.46000001 2
9.1870003 -2.799 0.47499999 2
9.349 -2.714 0.463 2
9.2600002 -2.77 0.47 2
9.2049999 -2.747 0.47 2
9.3369999 -2.711 0.463 2
9.2969999 -2.6919999 0.463 2
9.2779999 -2.6719999 0.46200001 2
9.3640003 -2.698 0.461 2
9.2639999 -2.6589999 0.46200001 2
9.2969999 -2.6210001 0.458 2
9.3149996 -2.6989999 0.463 2
9.2980003 -2.694 0.463 2
9.2799997 -2.641 0.46000001 2
9.2370005 -2.6730001 0.46399999 2
9.3430004 -2.671 0.46000001 2
9.1949997 -2.7820001 0.47299999 2
9.2749996 -2.6689999 0.46200001 2
9.3070002 -2.652 0.46000001 2
9.3269997 -2.6800001 0.461 2
9.3190002 -2.7149999 0.46399999 2
9.3380003 -2.665 0.46000001 2
9.2869997 -2.6530001 0.461 2
9.2849998 -2.6530001 0.461 2
9.2530003 -2.6170001 0.45899999 2
9.2220001 -2.704 0.46700001 2
9.2620001 -2.7049999 0.465 2
9.2530003 -2.75 0.46900001 2
9.2629995 -2.7049999 0.465 2
9.2679996 -2.687 0.46399999 2
9.191 -2.802 0.47499999 2
9.2580004 -2.6619999 0.46200001 2
9.342 -2.6689999 0.46000001 2
9.2620001 -2.704 0.465 2
9.283 -2.7049999 0.465 2
9.2460003 -2.694 0.465 2
9.2250004 -2.714 0.46700001 2
9.2620001 -2.704 0.465 2
9.2410002 -2.642 0.461 2
9.1890001 -2.8080001 0.47499999 2
9.2749996 -2.701 0.46399999 2
9.283 -2.675 0.46200001 2
9.2320004 -2.7509999 0.47 2
9.3109999 -2.675 0.461 2
9.2729998 -2.6919999 0.46399999 2
9.2869997 -2.6830001 0.463 2
9.3079996 -2.7349999 0.46599999 2
9.3280001 -2.7579999 0.44800001 2
9.3389997 -2.7460001 0.44999999 2
9.3290005 -2.757 0.44800001 2
9.316 -2.7409999 0.465 2
9.3179998 -2.7620001 0.44999999 2
9.3240004 -2.7490001 0.456 2
9.2010002 -2.8150001 0.472 2
9.309 -2.7620001 0.454 2
9.3409996 -2.7360001 0.456 2
9.3100004 -2.75 0.46200001 2
9.3219995 -2.776 0.43900001 2
9.2799997 -2.7709999 0.463 2
9.3380003 -2.76 0.44100001 2
9.2340002 -2.7920001 0.472 2
9.2709999 -2.779 0.46200001 2
9.3219995 -2.766 0.44499999 2
9.2860003 -2.7639999 0.465 2
9.323 -2.744 0.46000001 2
9.2150002 -2.802 0.47400001 2
9.3470001 -2.74 0.45100001 2
9.198 -2.8180001 0.472 2
9.3030005 -2.779 0.44600001 2
9.243 -2.806 0.458 2
9.3380003 -2.7409999 0.45500001 2
9.3100004 -2.7780001 0.44400001 2
9.3199997 -2.743 0.46200001 2
9.2159996 -2.8069999 0.47 2
9.3120003 -2.743 0.46599999 2
9.3149996 -2.7609999 0.45199999 2
9.3140001 -2.7720001 0.44499999 2
9.2489996 -2.7909999 0.46399999 2
9.217 -2.803 0.472 2
9.2259998 -2.803 0.46799999 2
9.3140001 -2.78 0.44 2
9.2749996 -2.789 0.45300001 2
9.2720003 -2.7679999 0.46900001 2
9.2969999 -2.77 0.45500001 2
9.3299999 -2.74 0.45899999 2
9.3400002 -2.737 0.456 2
9.3330002 -2.744 0.454 2
9.316 -2.7850001 0.435 2
9.3009996 -2.7880001 0.44100001 2
9.2950001 -2.76 0.46200001 2
9.2370005 -2.8069999 0.46000001 2
9.2399998 -2.8 0.463 2
9.2989998 -2.7539999 0.465 2
9.2980003 -2.78 0.44800001 2
9.2180004 -2.8010001 0.47299999 2
9.2559996 -2.7950001 0.458 2
9.2969999 -2.7550001 0.465 2
9.2600002 -2.776 0.46900001 2
9.29 -2.7639999 0.463 2
9.3470001 -2.7449999 0.44800001 2
9.2010002 -2.8180001 0.47 2
9.323 -2.737 0.46399999 2
9.3409996 -2.7490001 0.44800001 2
9.2819996 -2.7739999 0.46000001 2
9.3079996 -2.7780001 0.44400001 2
9.3100004 -2.763 0.454 2
9.2399998 -2.8050001 0.46000001 2
9.217 -2.8050001 0.47099999 2
9.2620001 -2.7809999 0.465 2
9.2259998 -2.8 0.47 2
9.3050003 -2.5580001 0.454 2
9.3000002 -2.602 0.45699999 2
9.3430004 -2.457 0.44600001 2
9.2959995 -2.5139999 0.45100001 2
9.3260002 -2.5580001 0.45300001 2
9.3509998 -2.658 0.45899999 2
9.3149996 -2.563 0.454 2
9.2889996 -2.5090001 0.45100001 2
9.3540001 -2.6300001 0.45699999 2
9.3030005 -2.4920001 0.449 2
9.3299999 -2.5710001 0.454 2
9.3079996 -2.4949999 0.449 2
9.3240004 -2.5969999 0.456 2
9.3380003 -2.6589999 0.45899999 2
9.3450003 -2.6500001 0.458 2
9.3610001 -2.6129999 0.456 2
9.3430004 -2.444 0.44499999 2
9.3269997 -2.635 0.458 2
9.3500004 -2.602 0.45500001 2
9.3400002 -2.562 0.45300001 2
9.2790003 -2.553 0.454 2
9.3509998 -2.615 0.456 2
9.3360004 -2.602 0.456 2
9.3190002 -2.5769999 0.454 2
9.3450003 -2.609 0.456 2
9.3590002 -2.6589999 0.45899999 2
9.3439999 -2.6270001 0.45699999 2
9.2860003 -2.5369999 0.45300001 2
9.3360004 -2.4619999 0.44600001 2
9.3120003 -2.507 0.44999999 2
9.3120003 -2.5480001 0.45300001 2
9.3059998 -2.5190001 0.45100001 2
9.349 -2.52 0.44999999 2
9.3210001 -2.5079999 0.44999999 2
9.3690004 -2.678 0.46000001 2
9.3380003 -2.5680001 0.45300001 2
9.3219995 -2.4779999 0.44800001 2
9.3290005 -2.5120001 0.44999999 2
9.2939997 -2.573 0.45500001 2
9.2670002 -2.5569999 0.45500001 2
9.3199997 -2.5079999 0.44999999 2
9.3050003 -2.4809999 0.449 2
9.283 -2.572 0.45500001 2
9.3529997 -2.632 0.45699999 2
9.3520002 -2.543 0.45100001 2
9.3540001 -2.6359999 0.45699999 2
9.3249998 -2.527 0.45100001 2
9.3559999 -2.6440001 0.458 2
9.3120003 -2.513 0.44999999 2
9.3299999 -2.6040001 0.456 2
9.3210001 -2.536 0.45199999 2
9.3360004 -2.4319999 0.44400001 2
9.3210001 -2.556 0.45300001 2
9.342 -2.6300001 0.45699999 2
9.2679996 -2.5699999 0.45500001 2
9.3590002 -2.615 0.456 2
9.316 -2.523 0.45100001 2
9.335 -2.5239999 0.45100001 2
9.3339996 -2.5869999 0.45500001 2
9.3009996 -2.523 0.45100001 2
9.2969999 -2.53 0.45199999 2
9.3400002 -2.589 0.45500001 2
9.2939997 -2.5009999 0.44999999 2
9.3199997 -2.487 0.44800001 2
9.3629999 -2.6110001 0.45500001 2
9.3330002 -2.4319999 0.44499999 2
9.2959995 -2.5829999 0.45500001 2
9.3290005 -2.5190001 0.44999999 2
9.3430004 -2.4979999 0.449 2
9.3719997 -2.6849999 0.46000001 2
9.2959995 -2.572 0.45500001 2
9.3649998 -2.651 0.458 2
9.3430004 -2.5639999 0.45300001 2
9.2880001 -2.585 0.456 2
9.3219995 -2.517 0.44999999 2
9.3179998 -2.6270001 0.458 2
9.3380003 -2.5580001 0.45300001 2
9.3459997 -2.4779999 0.447 2
9.3389997 -2.516 0.44999999 2
9.2799997 -2.5780001 0.456 2
9.335 -2.5780001 0.454 2
9.3389997 -2.513 0.44999999 2
9.3299999 -2.6240001 0.45699999 2
9.3330002 -2.642 0.458 2
9.3009996 -2.5680001 0.454 2
9.3540001 -2.562 0.45199999 2
9.3629999 -2.608 0.45500001 2
9.2880001 -2.582 0.456 2
9.3330002 -2.641 0.458 2
9.3260002 -2.5179999 0.44999999 2
9.3210001 -2.5050001 0.44999999 2
9.3260002 -2.4960001 0.449 2
9.3050003 -2.4979999 0.44999999 2
9.3360004 -2.5120001 0.44999999 2
9.3529997 -2.6600001 0.45899999 2
9.3319998 -2.4760001 0.447 2
9.3129997 -2.622 0.458 2
9.3199997 -2.6240001 0.458 2
9.342 -2.5480001 0.45199999 2
9.3389997 -2.6010001 0.45500001 2
9.3389997 -2.615 0.456 2
9.335 -2.5699999 0.454 2
9.3179998 -2.5669999 0.454 2
9.2670002 -2.5639999 0.45500001 2
9.3500004 -2.5079999 0.449 2
9.3430004 -2.473 0.447 2
9.3050003 -2.5439999 0.45300001 2
9.2919998 -2.5439999 0.45300001 2
9.2930002 -2.563 0.454 2
9.3319998 -2.4360001 0.44499999 2
9.3240004 -2.552 0.45300001 2
9.3179998 -2.628 0.458 2
9.3430004 -2.5940001 0.45500001 2
9.3299999 -2.6140001 0.45699999 2
9.3529997 -2.651 0.458 2
9.3280001 -2.4820001 0.44800001 2
9.323 -2.598 0.456 2
9.3269997 -2.474 0.447 2
9.3319998 -2.54 0.45199999 2
9.2959995 -2.536 0.45199999 2
9.3100004 -2.484 0.449 2
9.3070002 -2.562 0.454 2
9.3240004 -2.6370001 0.458 2
9.302 -2.585 0.45500001 2
9.3629999 -2.6359999 0.45699999 2
9.2819996 -2.5480001 0.454 2
9.2980003 -2.6040001 0.45699999 2
9.3170004 -2.595 0.456 2
9.3009996 -2.497 0.44999999 2
9.3470001 -2.4809999 0.447 2
9.3579998 -2.6800001 0.46000001 2
9.2969999 -2.5220001 0.45100001 2
9.3599997 -2.638 0.45699999 2
9.2860003 -2.562 0.454 2
9.2799997 -2.533 0.45300001 2
9.3050003 -2.5009999 0.44999999 2
9.3240004 -2.563 0.45300001 2
9.302 -2.598 0.456 2
9.3290005 -2.52 0.44999999 2
9.368 -2.6570001 0.458 2
9.3249998 -2.6210001 0.45699999 2
9.3260002 -2.4960001 0.449 2
9.3050003 -2.4760001 0.44800001 2
9.3389997 -2.654 0.45899999 2
9.3050003 -2.585 0.45500001 2
9.3459997 -2.4960001 0.44800001 2
9.3579998 -2.6630001 0.45899999 2
9.2670002 -2.5650001 0.45500001 2
9.3339996 -2.589 0.45500001 2
9.3590002 -2.618 0.456 2
9.3000002 -2.5999999 0.456 2
9.3780003 -2.6340001 0.458 2
9.3760004 -2.641 0.458 2
9.3999996 -2.6429999 0.46000001 2
9.3640003 -2.5829999 0.454 2
9.3889999 -2.6240001 0.458 2
9.3620005 -2.461 0.447 2
9.3610001 -2.5339999 0.45100001 2
9.3640003 -2.539 0.45199999 2
9.4139996 -2.5829999 0.458 2
9.4180002 -2.5910001 0.458 2
9.3970003 -2.6099999 0.458 2
9.3950005 -2.638 0.45899999 2
9.3739996 -2.4760001 0.449 2
9.401 -2.556 0.45500001 2
9.3710003 -2.5079999 0.44999999 2
9.3710003 -2.523 0.45100001 2
9.382 -2.5669999 0.454 2
9.3599997 -2.5190001 0.44999999 2
9.4020004 -2.572 0.456 2
9.3529997 -2.526 0.44999999 2
9.4200001 -2.5710001 0.45699999 2
9.4020004 -2.552 0.45500001 2
9.3839998 -2.609 0.45699999 2
9.3690004 -2.5699999 0.454 2
9.4040003 -2.527 0.454 2
9.3780003 -2.529 0.45199999 2
9.3629999 -2.5280001 0.45100001 2
9.3570004 -2.5250001 0.44999999 2
9.4020004 -2.5869999 0.45699999 2
9.3559999 -2.4960001 0.449 2
9.3859997 -2.5420001 0.45300001 2
9.3590002 -2.533 0.45100001 2
9.368 -2.552 0.45300001 2
9.3800001 -2.628 0.458 2
9.401 -2.562 0.456 2
9.3940001 -2.6240001 0.458 2
9.3870001 -2.5969999 0.456 2
9.3649998 -2.51 0.44999999 2
9.3879995 -2.6040001 0.45699999 2
9.3500004 -2.483 0.44800001 2
9.4180002 -2.5929999 0.458 2
9.3640003 -2.5469999 0.45199999 2
9.3739996 -2.6340001 0.45699999 2
9.3699999 -2.6470001 0.458 2
9.3719997 -2.526 0.45199999 2
9.3620005 -2.53 0.45100001 2
9.3929996 -2.5999999 0.45699999 2
9.3669996 -2.641 0.45699999 2
9.3559999 -2.4979999 0.449 2
9.4040003 -2.5929999 0.45699999 2
9.3599997 -2.516 0.44999999 2
9.4049997 -2.523 0.454 2
9.3710003 -2.6140001 0.456 2
9.3690004 -2.6059999 0.456 2
9.3549995 -2.4549999 0.447 2
9.3809996 -2.4960001 0.45100001 2
9.3789997 -2.631 0.458 2
9.3629999 -2.6029999 0.45500001 2
9.3739996 -2.598 0.45500001 2
9.3780003 -2.54 0.45300001 2
9.3649998 -2.592 0.45500001 2
9.3529997 -2.464 0.447 2
9.4219999 -2.5539999 0.45699999 2
9.3800001 -2.6889999 0.461 2
9.3830004 -2.628 0.458 2
9.3760004 -2.6570001 0.45899999 2
9.3500004 -2.4749999 0.447 2
9.4209995 -2.553 0.45699999 2
9.3620005 -2.513 0.44999999 2
9.4139996 -2.572 0.45699999 2
9.4189997 -2.5739999 0.458 2
9.3760004 -2.585 0.45500001 2
9.4189997 -2.563 0.45699999 2
9.4049997 -2.5450001 0.45500001 2
9.3830004 -2.642 0.458 2
9.3979998 -2.582 0.456 2
9.3800001 -2.5 0.45100001 2
9.3570004 -2.503 0.449 2
9.3870001 -2.6329999 0.458 2
9.3929996 -2.526 0.45300001 2
9.368 -2.612 0.456 2
9.3660002 -2.6110001 0.456 2
9.3590002 -2.523 0.44999999 2
9.3719997 -2.6570001 0.458 2
9.3940001 -2.5550001 0.45500001 2
9.3699999 -2.559 0.45300001 2
9.3549995 -2.5380001 0.45100001 2
9.3929996 -2.625 0.458 2
9.3780003 -2.5179999 0.45199999 2
9.3839998 -2.6270001 0.458 2
9.3789997 -2.6760001 0.46000001 2
9.4069996 -2.599 0.458 2
9.3579998 -2.5020001 0.449 2
9.3570004 -2.5350001 0.45100001 2
9.3859997 -2.5510001 0.454 2
9.4090004 -2.585 0.45699999 2
9.4189997 -2.595 0.45899999 2
9.3719997 -2.5009999 0.44999999 2
9.3839998 -2.631 0.458 2
9.3690004 -2.5179999 0.45100001 2
9.3599997 -2.48 0.44800001 2
9.3940001 -2.5650001 0.45500001 2
9.3579998 -2.4990001 0.449 2
9.3940001 -2.5439999 0.454 2
9.3900003 -2.5829999 0.456 2
9.3909998 -2.5009999 0.45199999 2
9.3959999 -2.527 0.45300001 2
9.3979998 -2.5739999 0.456 2
9.4119997 -2.576 0.45699999 2
9.3620005 -2.461 0.447 2
9.448 -2.635 0.447 2
9.448 -2.608 0.45100001 2
9.408 -2.6440001 0.458 2
9.4069996 -2.677 0.45500001 2
9.4160004 -2.681 0.45199999 2
9.4399996 -2.5869999 0.45500001 2
9.4289999 -2.622 0.45500001 2
9.4490004 -2.665 0.44400001 2
9.4379997 -2.6340001 0.45100001 2
9.4449997 -2.6889999 0.44299999 2
9.4329996 -2.684 0.447 2
9.4390001 -2.6930001 0.44400001 2
9.4540005 -2.677 0.44100001 2
9.4589996 -2.6429999 0.44400001 2
9.3979998 -2.671 0.458 2
9.4180002 -2.6860001 0.45100001 2
9.3920002 -2.668 0.46000001 2
9.4379997 -2.605 0.454 2
9.4130001 -2.6240001 0.45899999 2
9.4460001 -2.674 0.44400001 2
9.4779997 -2.6760001 0.43399999 2
9.4449997 -2.6689999 0.44499999 2
9.3950005 -2.6949999 0.456 2
9.4160004 -2.6800001 0.45199999 2
9.4110003 -2.6830001 0.45300001 2
9.4189997 -2.635 0.456 2
9.4350004 -2.619 0.45300001 2
9.4259996 -2.622 0.456 2
9.4680004 -2.6570001 0.43900001 2
9.4350004 -2.5869999 0.45699999 2
9.4160004 -2.6340001 0.45699999 2
9.4069996 -2.6440001 0.45899999 2
9.4420004 -2.681 0.44400001 2
9.4510002 -2.6140001 0.449 2
9.4189997 -2.6210001 0.458 2
9.4370003 -2.589 0.456 2
9.4099998 -2.6289999 0.45899999 2
9.434 -2.6900001 0.44600001 2
9.3879995 -2.6949999 0.45899999 2
9.4659996 -2.6800001 0.43700001 2
9.46 -2.6889999 0.43799999 2
9.4040003 -2.6689999 0.45699999 2
9.4759998 -2.6789999 0.435 2
9.441 -2.6429999 0.449 2
9.4049997 -2.677 0.45500001 2
9.4759998 -2.678 0.435 2
9.4610004 -2.651 0.442 2
9.4440002 -2.6329999 0.449 2
9.4569998 -2.6530001 0.44299999 2
9.4090004 -2.674 0.45500001 2
9.4619999 -2.687 0.43799999 2
9.4370003 -2.651 0.449 2
9.427 -2.645 0.45300001 2
9.4700003 -2.665 0.43799999 2
9.4200001 -2.6059999 0.45899999 2
9.3859997 -2.6900001 0.45899999 2
9.415 -2.671 0.45300001 2
9.4560003 -2.6600001 0.442 2
9.4750004 -2.6760001 0.435 2
9.3999996 -2.652 0.46000001 2
9.4309998 -2.697 0.44600001 2
9.3859997 -2.687 0.46000001 2
9.4180002 -2.694 0.44999999 2
9.4370003 -2.586 0.456 2
9.4429998 -2.648 0.44800001 2
9.3900003 -2.6760001 0.46000001 2
9.4329996 -2.6129999 0.454 2
9.4029999 -2.694 0.454 2
9.4219999 -2.687 0.449 2
9.4189997 -2.6789999 0.45100001 2
9.4429998 -2.6670001 0.44499999 2
9.4370003 -2.6630001 0.44800001 2
9.2729998 -2.277 0.48800001 2
9.2849998 -2.293 0.51099998 2
9.2720003 -2.2739999 0.49200001 2
9.323 -2.3789999 0.45100001 2
9.3009996 -2.332 0.47400001 2
9.2819996 -2.2980001 0.46799999 2
9.2810001 -2.2980001 0.45699999 2
9.3030005 -2.3380001 0.47499999 2
9.3140001 -2.362 0.456 2
9.2709999 -2.276 0.47499999 2
9.2749996 -2.276 0.509 2
9.2980003 -2.3239999 0.48699999 2
9.3210001 -2.3770001 0.45199999 2
9.3100004 -2.3540001 0.45300001 2
9.2919998 -2.3210001 0.45100001 2
9.2860003 -2.3 0.49599999 2
9.3009996 -2.332 0.477 2
9.2849998 -2.303 0.472 2
9.2950001 -2.3180001 0.493 2
9.2959995 -2.3269999 0.456 2
9.2810001 -2.286 0.514 2
9.2910004 -2.3150001 0.47099999 2
9.2749996 -2.283 0.48100001 2
9.2969999 -2.3210001 0.491 2
9.2919998 -2.313 0.48800001 2
9.2790003 -2.29 0.48199999 2
9.2989998 -2.3329999 0.45500001 2
9.2959995 -2.3280001 0.45100001 2
9.2939997 -2.3199999 0.47099999 2
9.29 -2.3069999 0.49200001 2
9.276 -2.283 0.49000001 2
9.2939997 -2.3210001 0.46700001 2
9.2889996 -2.312 0.463 2
9.283 -2.2909999 0.51099998 2
9.2989998 -2.3340001 0.45500001 2
9.2790003 -2.2939999 0.46200001 2
9.2980003 -2.323 0.48800001 2
9.302 -2.332 0.48699999 2
9.3120003 -2.3559999 0.46799999 2
9.3050003 -2.3399999 0.47499999 2
9.2980003 -2.3329999 0.454 2
9.2989998 -2.3269999 0.486 2
9.2889996 -2.3050001 0.49399999 2
9.2749996 -2.2809999 0.48100001 2
9.3009996 -2.3340001 0.472 2
9.2790003 -2.2939999 0.46700001 2
9.2810001 -2.2950001 0.47799999 2
9.3120003 -2.3540001 0.47499999 2
9.3240004 -2.382 0.44600001 2
9.276 -2.2869999 0.47099999 2
9.2969999 -2.323 0.484 2
9.3039999 -2.3380001 0.477 2
9.2849998 -2.302 0.47799999 2
9.3260002 -2.3840001 0.456 2
9.2840004 -2.293 0.50700003 2
9.2729998 -2.244 0.54699999 2
9.2740002 -2.2509999 0.54500002 2
9.2709999 -2.2509999 0.52700001 2
9.2720003 -2.2579999 0.52600002 2
9.2729998 -2.2460001 0.54299998 2
9.2729998 -2.2550001 0.53399998 2
9.2740002 -2.26 0.53799999 2
9.2729998 -2.26 0.52700001 2
9.2700005 -2.2409999 0.52700001 2
9.3030005 -2.322 0.50800002 2
9.29 -2.296 0.52200001 2
9.2849998 -2.2690001 0.55299997 2
9.2840004 -2.263 0.56300002 2
9.3039999 -2.3280001 0.49900001 2
9.2799997 -2.277 0.52700001 2
9.283 -2.266 0.55400002 2
9.2950001 -2.306 0.51499999 2
9.2880001 -2.2809999 0.54100001 2
9.2980003 -2.3180001 0.50199997 2
9.2810001 -2.2650001 0.551 2
9.302 -2.316 0.51700002 2
9.2779999 -2.2490001 0.56999999 2
9.302 -2.312 0.523 2
9.316 -2.3599999 0.47600001 2
9.2889996 -2.28 0.54299998 2
9.2790003 -2.2550001 0.56099999 2
9.2910004 -2.289 0.53399998 2
9.2849998 -2.289 0.52100003 2
9.3070002 -2.3310001 0.50400001 2
9.3039999 -2.3299999 0.498 2
9.2849998 -2.2709999 0.55199999 2
9.2810001 -2.26 0.55900002 2
9.2860003 -2.2969999 0.509 2
9.2790003 -2.2490001 0.57200003 2
9.2939997 -2.3099999 0.50800002 2
9.2819996 -2.273 0.54000002 2
9.2939997 -2.2950001 0.53299999 2
9.283 -2.2709999 0.54500002 2
9.2959995 -2.2980001 0.53200001 2
9.2959995 -2.3010001 0.52600002 2
9.2919998 -2.289 0.53799999 2
9.2849998 -2.2809999 0.53500003 2
9.2799997 -2.2539999 0.56699997 2
9.3070002 -2.3310001 0.50400001 2
9.276 -2.267 0.53500003 2
9.3179998 -2.3629999 0.47499999 2
9.3000002 -2.313 0.51700002 2
9.3149996 -2.3210001 0.55400002 2
9.3039999 -2.3110001 0.52899998 2
9.3219995 -2.339 0.542 2
9.2989998 -2.2869999 0.56699997 2
9.3079996 -2.2750001 0.63300002 2
9.2950001 -2.273 0.58399999 2
9.2969999 -2.256 0.63200003 2
9.302 -2.2550001 0.65600002 2
9.2790003 -2.2420001 0.588 2
9.2959995 -2.244 0.65399998 2
9.2919998 -2.257 0.60799998 2
9.3360004 -2.395 0.47 2
9.2989998 -2.276 0.59100002 2
9.323 -2.3599999 0.5 2
9.3129997 -2.2950001 0.60799998 2
9.3050003 -2.256 0.66500002 2
9.302 -2.2750001 0.60699999 2
9.3070002 -2.2839999 0.60900003 2
9.323 -2.3429999 0.537 2
9.2980003 -2.2409999 0.67000002 2
9.2959995 -2.256 0.62800002 2
9.3120003 -2.2550001 0.69700003 2
9.3319998 -2.381 0.48800001 2
9.3000002 -2.2379999 0.685 2
9.3070002 -2.3139999 0.53600001 2
9.323 -2.3469999 0.52999997 2
9.3000002 -2.2420001 0.67699999 2
9.3050003 -2.2980001 0.56699997 2
9.3059998 -2.303 0.55900002 2
9.2969999 -2.293 0.54500002 2
9.309 -2.2780001 0.63300002 2
9.3000002 -2.2590001 0.63599998 2
9.2889996 -2.253 0.60600001 2
9.2969999 -2.276 0.583 2
9.3030005 -2.2739999 0.61500001 2
9.3170004 -2.3399999 0.51899999 2
9.29 -2.253 0.60900003 2
9.3299999 -2.3670001 0.51300001 2
9.3120003 -2.273 0.65499997 2
9.3039999 -2.313 0.52700001 2
9.309 -2.2739999 0.639 2
9.2950001 -2.25 0.63800001 2
9.3120003 -2.26 0.685 2
9.3330002 -2.3900001 0.47 2
9.3059998 -2.277 0.62099999 2
9.3079996 -2.2750001 0.63599998 2
9.3120003 -2.2809999 0.639 2
9.3170004 -2.2850001 0.648 2
9.3079996 -2.2739999 0.63700002 2
9.2939997 -2.2539999 0.62300003 2
9.3000002 -2.2950001 0.551 2
9.2889996 -2.266 0.57300001 2
9.283 -2.2539999 0.57499999 2
9.3050003 -2.2909999 0.58399999 2
9.3109999 -2.3050001 0.57599998 2
9.2980003 -2.26 0.62400001 2
9.3079996 -2.2320001 0.73500001 2
9.2779999 -2.2409999 0.58399999 2
9.3299999 -2.369 0.50599998 2
9.3199997 -2.346 0.51899999 2
9.3360004 -2.4000001 0.458 2
9.3149996 -2.2950001 0.616 2
9.3290005 -2.368 0.50599998 2
9.3070002 -2.3199999 0.52399999 2
9.29 -2.243 0.63200003 2
9.323 -2.3559999 0.50599998 2
9.3039999 -2.26 0.653 2
9.3000002 -2.293 0.55699998 2
9.3210001 -2.3280001 0.56300002 2
9.3059998 -2.2820001 0.60900003 2
9.3039999 -2.2509999 0.67400002 2
9.2950001 -2.2379999 0.66299999 2
9.2959995 -2.243 0.65899998 2
9.302 -2.24 0.69300002 2
9.3050003 -2.2690001 0.63499999 2
9.3050003 -2.2739999 0.62599999 2
9.3009996 -2.293 0.56300002 2
9.3030005 -2.247 0.67799997 2
9.3149996 -2.293 0.61900002 2
9.3210001 -2.3599999 0.48899999 2
9.2980003 -2.244 0.66500002 2
9.3210001 -2.3440001 0.52600002 2
9.3129997 -2.2690001 0.671 2
9.3199997 -2.3329999 0.54799998 2
9.3030005 -2.2509999 0.67000002 2
9.2959995 -2.2460001 0.65200001 2
9.2799997 -2.2390001 0.59600002 2
9.3100004 -2.2709999 0.65200001 2
9.323 -2.359 0.50099999 2
9.2969999 -2.2920001 0.54500002 2
9.2959995 -2.256 0.62800002 2
9.3260002 -2.349 0.53600001 2
9.302 -2.2349999 0.704 2
9.3290005 -2.368 0.505 2
9.316 -2.313 0.57800001 2
9.3129997 -2.3110001 0.56999999 2
9.3070002 -2.2780001 0.62199998 2
9.2959995 -2.2709999 0.59399998 2
9.3170004 -2.3069999 0.59799999 2
9.3149996 -2.283 0.64600003 2
9.316 -2.3039999 0.60100001 2
9.309 -2.3269999 0.51700002 2
9.2860003 -2.2609999 0.57099998 2
9.2880001 -2.2409999 0.62699997 2
9.3100004 -2.3 0.583 2
9.283 -2.2390001 0.60900003 2
9.2959995 -2.2409999 0.662 2
9.3299999 -2.3829999 0.47499999 2
9.3070002 -2.244 0.70300001 2
9.3009996 -2.2939999 0.56099999 2
9.302 -2.2639999 0.63300002 2
9.3009996 -2.2539999 0.653 2
9.3070002 -2.2479999 0.69199997 2
9.3249998 -2.345 0.54299998 2
9.3039999 -2.2820001 0.59799999 2
9.2930002 -2.2520001 0.62199998 2
9.3179998 -2.348 0.505 2
9.3109999 -2.2739999 0.64999998 2
9.3369999 -2.4030001 0.45699999 2
9.2969999 -2.257 0.62900001 2
9.2989998 -2.277 0.59299999 2
9.2810001 -2.2390001 0.602 2
9.3070002 -2.283 0.61000001 2
9.3129997 -2.303 0.58999997 2
9.3199997 -2.346 0.52100003 2
9.3109999 -2.302 0.58099997 2
9.2950001 -2.2679999 0.59399998 2
9.2910004 -2.2349999 0.65600002 2
9.309 -2.2460001 0.708 2
9.3009996 -2.244 0.67900002 2
9.3059998 -2.312 0.53899997 2
9.3170004 -2.3340001 0.53299999 2
9.3199997 -2.3529999 0.505 2
9.3310003 -2.372 0.50300002 2
9.3269997 -2.3759999 0.47499999 2
9.3039999 -2.2709999 0.62599999 2
9.3179998 -2.326 0.55800003 2
9.2959995 -2.25 0.64300001 2
9.3120003 -2.326 0.53299999 2
9.323 -2.345 0.53299999 2
9.3100004 -2.3139999 0.551 2
9.2989998 -2.2969999 0.542 2
9.3120003 -2.319 0.54799998 2
9.3079996 -2.2679999 0.65100002 2
9.3059998 -2.2750001 0.62400001 2
9.2910004 -2.2520001 0.616 2
9.2969999 -2.2750001 0.588 2
9.3299999 -2.362 0.52399999 2
9.3870001 -2.4849999 0.50400001 2
9.3620005 -2.4460001 0.47400001 2
9.4049997 -2.4849999 0.55500001 2
9.3739996 -2.4590001 0.495 2
9.3979998 -2.4809999 0.53799999 2
9.4110003 -2.4879999 0.56800002 2
9.3909998 -2.4660001 0.53500003 2
9.4040003 -2.483 0.55400002 2
9.3920002 -2.471 0.53399998 2
9.4160004 -2.493 0.579 2
9.3979998 -2.4860001 0.53500003 2
9.3590002 -2.4330001 0.477 2
9.3629999 -2.444 0.47799999 2
9.3529997 -2.4330001 0.46000001 2
9.3999996 -2.477 0.54900002 2
9.401 -2.483 0.546 2
9.3739996 -2.4530001 0.49900001 2
9.3699999 -2.4590001 0.48100001 2
9.4110003 -2.49 0.56599998 2
9.3780003 -2.464 0.50199997 2
9.3870001 -2.483 0.505 2
9.3809996 -2.474 0.498 2
9.3830004 -2.473 0.50599998 2
9.3520002 -2.4330001 0.45899999 2
9.3780003 -2.457 0.50599998 2
9.3570004 -2.431 0.47400001 2
9.3500004 -2.428 0.45699999 2
9.3979998 -2.4790001 0.54100001 2
9.3889999 -2.483 0.51099998 2
9.3769999 -2.4660001 0.493 2
9.408 -2.484 0.56599998 2
9.3950005 -2.48 0.53299999 2
9.3900003 -2.483 0.514 2
9.3879995 -2.4790001 0.51200002 2
9.3839998 -2.4679999 0.51300001 2
9.4119997 -2.4890001 0.57099998 2
9.3730001 -2.448 0.50300002 2
9.3929996 -2.4779999 0.528 2
9.3620005 -2.4400001 0.47999999 2
9.3879995 -2.474 0.51700002 2
9.4200001 -2.4849999 0.611 2
9.3310003 -2.3139999 0.63999999 2
9.335 -2.3540001 0.56 2
9.349 -2.3469999 0.639 2
9.3479996 -2.421 0.45899999 2
9.3889999 -2.4189999 0.63599998 2
9.3669996 -2.4200001 0.54000002 2
9.3330002 -2.3510001 0.56199998 2
9.3889999 -2.4260001 0.61699998 2
9.3249998 -2.325 0.59100002 2
9.3380003 -2.326 0.639 2
9.3439999 -2.3740001 0.55500001 2
9.3280001 -2.336 0.574 2
9.4169998 -2.4790001 0.60900003 2
9.3730001 -2.378 0.66299999 2
9.3629999 -2.3870001 0.602 2
9.3660002 -2.3629999 0.671 2
9.3839998 -2.411 0.63099998 2
9.4139996 -2.477 0.60500002 2
9.3430004 -2.3859999 0.52200001 2
9.3509998 -2.3659999 0.60100001 2
9.3780003 -2.3959999 0.64300001 2
9.3789997 -2.4189999 0.59299999 2
9.3500004 -2.3399999 0.65799999 2
9.3579998 -2.3870001 0.583 2
9.3540001 -2.421 0.48500001 2
9.3109999 -2.2449999 0.71799999 2
9.3780003 -2.4430001 0.53399998 2
9.342 -2.388 0.51099998 2
9.3900003 -2.4389999 0.59200001 2
9.3430004 -2.345 0.61799997 2
9.3599997 -2.402 0.55500001 2
9.3789997 -2.398 0.64200002 2
9.3339996 -2.3410001 0.59100002 2
9.3529997 -2.3640001 0.61500001 2
9.3240004 -2.2780001 0.69300002 2
9.3479996 -2.3310001 0.671 2
9.3319998 -2.319 0.63 2
9.3219995 -2.2780001 0.68599999 2
9.3470001 -2.3610001 0.597 2
9.3360004 -2.395 0.47099999 2
9.4020004 -2.4590001 0.59500003 2
9.3509998 -2.3659999 0.60000002 2
9.3269997 -2.2750001 0.71399999 2
9.3859997 -2.427 0.60500002 2
9.3409996 -2.4030001 0.47299999 2
9.3830004 -2.4560001 0.52200001 2
9.3620005 -2.4170001 0.528 2
9.3439999 -2.375 0.55000001 2
9.3269997 -2.3239999 0.59899998 2
9.3479996 -2.3840001 0.54900002 2
9.3540001 -2.346 0.66000003 2
9.3389997 -2.3299999 0.63700002 2
9.3830004 -2.418 0.611 2
9.3439999 -2.3210001 0.67900002 2
9.3459997 -2.319 0.69199997 2
9.3669996 -2.4260001 0.52700001 2
9.3479996 -2.3440001 0.63700002 2
9.3179998 -2.2679999 0.69499999 2
9.382 -2.4289999 0.58200002 2
9.3409996 -2.3469999 0.602 2
9.3450003 -2.3710001 0.565 2
9.3290005 -2.3150001 0.62699997 2
9.3310003 -2.3099999 0.648 2
9.3879995 -2.4219999 0.62199998 2
9.401 -2.471 0.56599998 2
9.349 -2.372 0.57999998 2
9.3280001 -2.319 0.61699998 2
9.349 -2.3800001 0.56 2
9.3170004 -2.2809999 0.65899998 2
9.415 -2.487 0.583 2
9.4180002 -2.4820001 0.60799998 2
9.3690004 -2.398 0.60100001 2
9.3520002 -2.345 0.65399998 2
9.342 -2.309 0.69499999 2
9.3579998 -2.414 0.51800001 2
9.3929996 -2.4460001 0.58999997 2
9.3669996 -2.3940001 0.60399997 2
9.3380003 -2.3740001 0.528 2
9.3839998 -2.431 0.58499998 2
9.3859997 -2.4430001 0.56599998 2
9.3360004 -2.3199999 0.64700001 2
9.382 -2.4300001 0.58099997 2
9.3660002 -2.404 0.57200003 2
9.3850002 -2.447 0.55500001 2
9.3470001 -2.332 0.66399997 2
9.3450003 -2.3610001 0.588 2
9.3280001 -2.335 0.57800001 2
9.3520002 -2.405 0.51499999 2
9.3520002 -2.4119999 0.49900001 2
9.3959999 -2.4519999 0.58700001 2
9.3330002 -2.319 0.63700002 2
9.3500004 -2.4230001 0.46399999 2
9.3990002 -2.4649999 0.56900001 2
9.3190002 -2.2809999 0.66900003 2
9.3760004 -2.431 0.55400002 2
9.3360004 -2.346 0.58600003 2
9.3970003 -2.4690001 0.55000001 2
9.3549995 -2.427 0.47400001 2
9.3409996 -2.3759999 0.53600001 2
9.3459997 -2.398 0.50599998 2
9.3540001 -2.3369999 0.68099999 2
9.3140001 -2.2490001 0.72000003 2
9.3319998 -2.303 0.667 2
9.3339996 -2.3670001 0.52899998 2
9.3640003 -2.437 0.49200001 2
9.4099998 -2.464 0.616 2
9.3360004 -2.395 0.472 2
9.335 -2.319 0.64700001 2
9.3199997 -2.3010001 0.625 2
9.3730001 -2.421 0.565 2
9.3380003 -2.3959999 0.47799999 2
9.3979998 -2.434 0.63499999 2
9.3520002 -2.3529999 0.63700002 2
9.3109999 -2.2379999 0.73299998 2
9.3330002 -2.3329999 0.602 2
9.3470001 -2.3629999 0.59200001 2
9.3509998 -2.3640001 0.60500002 2
9.3990002 -2.46 0.57999998 2
9.4139996 -2.4860001 0.58099997 2
9.3500004 -2.352 0.62900001 2
9.3529997 -2.3770001 0.583 2
9.3290005 -2.289 0.68800002 2
9.3430004 -2.3640001 0.57300001 2
9.3950005 -2.4530001 0.58099997 2
9.335 -2.342 0.58899999 2
9.3929996 -2.4349999 0.61299998 2
9.3559999 -2.4000001 0.542 2
9.3990002 -2.438 0.63200003 2
9.3540001 -2.381 0.579 2
9.3809996 -2.451 0.52899998 2
9.3909998 -2.438 0.60000002 2
9.3660002 -2.3929999 0.60000002 2
9.368 -2.425 0.53399998 2
9.3459997 -2.392 0.52200001 2
9.3310003 -2.319 0.62900001 2
9.3319998 -2.3610001 0.53500003 2
9.3430004 -2.312 0.69300002 2
9.4069996 -2.47 0.58999997 2
9.4119997 -2.4760001 0.59500003 2
9.3219995 -2.273 0.699 2
9.3330002 -2.349 0.56699997 2
9.3219995 -2.2809999 0.68000001 2
9.3280001 -2.3399999 0.56400001 2
9.3360004 -2.375 0.51599997 2
9.3999996 -2.464 0.57499999 2
9.3990002 -2.4719999 0.551 2
9.3739996 -2.4349999 0.537 2
9.3599997 -2.3699999 0.62699997 2
9.3529997 -2.4230001 0.47499999 2
9.3859997 -2.451 0.54900002 2
9.4060001 -2.4649999 0.59799999 2
9.3800001 -2.444 0.53799999 2
9.3249998 -2.302 0.64499998 2
9.4040003 -2.473 0.574 2
9.3409996 -2.349 0.59899998 2
9.3599997 -2.3510001 0.67500001 2
9.3809996 -2.4000001 0.64600003 2
9.3640003 -2.4219999 0.52499998 2
9.3269997 -2.3269999 0.59500003 2
9.4099998 -2.4649999 0.61400002 2
9.4049997 -2.4519999 0.62400001 2
9.3809996 -2.4489999 0.53100002 2
9.3319998 -2.3429999 0.57599998 2
9.3330002 -2.293 0.69700003 2
9.3540001 -2.3380001 0.67900002 2
9.3889999 -2.4300001 0.60900003 2
9.3290005 -2.346 0.55599999 2
9.3380003 -2.404 0.45899999 2
9.3439999 -2.3380001 0.63700002 2
9.3219995 -2.283 0.67299998 2
9.3190002 -2.2939999 0.63599998 2
9.3690004 -2.4100001 0.57300001 2
9.3739996 -2.4419999 0.51800001 2
9.3520002 -2.401 0.523 2
9.3369999 -2.348 0.58399999 2
9.3909998 -2.448 0.57300001 2
9.3299999 -2.3410001 0.57300001 2
9.3730001 -2.398 0.61900002 2
9.3929996 -2.4449999 0.59200001 2
9.3120003 -2.2539999 0.70200002 2
9.3120003 -2.24 0.73199999 2
9.3500004 -2.3529999 0.62599999 2
9.3789997 -2.4170001 0.59600002 2
9.3500004 -2.408 0.49700001 2
9.3549995 -2.3429999 0.67199999 2
9.3310003 -2.299 0.67299998 2
9.3210001 -2.2750001 0.69 2
9.3389997 -2.3 0.70499998 2
9.3540001 -2.342 0.67000002 2
9.3629999 -2.405 0.56099999 2
9.3669996 -2.4100001 0.56300002 2
9.3470001 -2.325 0.68000001 2
9.3330002 -2.3740001 0.50800002 2
9.3389997 -2.332 0.63099998 2
9.349 -2.329 0.67900002 2
9.3889999 -2.437 0.59299999 2
9.3269997 -2.2739999 0.71799999 2
9.3669996 -2.3729999 0.64999998 2
9.4130001 -2.484 0.58200002 2
9.3970003 -2.438 0.62400001 2
9.3509998 -2.381 0.565 2
9.3199997 -2.273 0.68699998 2
9.3649998 -2.408 0.56099999 2
9.3240004 -2.267 0.71799999 2
9.3879995 -2.438 0.58700001 2
9.323 -2.3110001 0.611 2
9.3100004 -2.2379999 0.72799999 2
9.3409996 -2.336 0.62800002 2
9.3719997 -2.3970001 0.61400002 2
9.3369999 -2.303 0.69 2
9.4069996 -2.4749999 0.57800001 2
9.3850002 -2.425 0.602 2
9.3369999 -2.335 0.61699998 2
9.4169998 -2.49 0.58499998 2
9.3529997 -2.369 0.60299999 2
9.3559999 -2.362 0.63200003 2
9.3430004 -2.312 0.69499999 2
9.3430004 -2.336 0.63800001 2
9.4060001 -2.4679999 0.59200001 2
9.323 -2.2869999 0.671 2
9.3439999 -2.405 0.48100001 2
9.3310003 -2.29 0.69800001 2
9.3839998 -2.425 0.60100001 2
9.3299999 -2.3559999 0.53500003 2
9.3260002 -2.299 0.653 2
9.3479996 -2.362 0.59799999 2
9.3559999 -2.381 0.58899999 2
9.3800001 -2.411 0.61500001 2
9.3389997 -2.368 0.54699999 2
9.3479996 -2.3829999 0.55000001 2
9.342 -2.3199999 0.67199999 2
9.3299999 -2.319 0.62400001 2
9.3409996 -2.3710001 0.54799998 2
9.3140001 -2.2620001 0.69199997 2
9.3500004 -2.4159999 0.47799999 2
9.3170004 -2.2579999 0.713 2
9.3459997 -2.3559999 0.60500002 2
9.3579998 -2.3629999 0.63499999 2
9.3120003 -2.2539999 0.69999999 2
9.3590002 -2.358 0.65600002 2
9.3310003 -2.348 0.56 2
9.3450003 -2.3800001 0.54500002 2
9.3959999 -2.4560001 0.579 2
9.3260002 -2.3080001 0.63200003 2
9.323 -2.3080001 0.62199998 2
9.3149996 -2.266 0.685 2
9.3649998 -2.3859999 0.61500001 2
9.3669996 -2.391 0.60600001 2
9.3640003 -2.3870001 0.60699999 2
9.4200001 -2.487 0.60299999 2
9.3310003 -2.3329999 0.59399998 2
9.3400002 -2.309 0.69099998 2
9.3719997 -2.4089999 0.58999997 2
9.3500004 -2.3840001 0.55199999 2
9.3459997 -2.391 0.51899999 2
9.3190002 -2.2709999 0.68900001 2
9.3590002 -2.359 0.65200001 2
9.4139996 -2.4860001 0.58099997 2
9.335 -2.3069999 0.67299998 2
9.3529997 -2.395 0.54000002 2
9.3979998 -2.441 0.62 2
9.3260002 -2.3050001 0.63999999 2
9.3430004 -2.325 0.66299999 2
9.3640003 -2.3959999 0.58600003 2
9.3660002 -2.3789999 0.634 2
9.3839998 -2.4519999 0.537 2
9.3319998 -2.3329999 0.60000002 2
9.335 -2.359 0.55000001 2
9.3620005 -2.3970001 0.57499999 2
9.316 -2.263 0.69700003 2
9.3520002 -2.3759999 0.58399999 2
9.382 -2.4130001 0.62199998 2
9.3459997 -2.3269999 0.67299998 2
9.3570004 -2.348 0.66900003 2
9.3660002 -2.4030001 0.57700002 2
9.4060001 -2.474 0.57499999 2
9.3739996 -2.408 0.59600002 2
9.4130001 -2.4790001 0.59500003 2
9.3409996 -2.391 0.50099999 2
9.335 -2.3610001 0.54699999 2
9.3870001 -2.451 0.55299997 2
9.4119997 -2.4849999 0.57700002 2
9.3450003 -2.3800001 0.54000002 2
9.3660002 -2.4289999 0.51700002 2
9.3739996 -2.3859999 0.64999998 2
9.4119997 -2.477 0.59500003 2
9.3549995 -2.3670001 0.616 2
9.3620005 -2.3759999 0.62099999 2
9.3290005 -2.309 0.64300001 2
9.368 -2.411 0.565 2
9.349 -2.3729999 0.57599998 2
9.368 -2.381 0.63800001 2
9.3940001 -2.45 0.58399999 2
9.3900003 -2.4619999 0.53799999 2
9.3269997 -2.342 0.55900002 2
9.3540001 -2.4089999 0.51300001 2
9.3900003 -2.4230001 0.63200003 2
9.3450003 -2.3469999 0.62099999 2
9.3549995 -2.418 0.495 2
9.3870001 -2.4460001 0.56400001 2
9.3479996 -2.408 0.491 2
9.3439999 -2.3670001 0.56999999 2
9.3620005 -2.382 0.60900003 2
9.3319998 -2.355 0.54900002 2
9.3870001 -2.4260001 0.61199999 2
9.3889999 -2.4549999 0.551 2
9.3719997 -2.3940001 0.62199998 2
9.3559999 -2.3510001 0.65600002 2
9.342 -2.4059999 0.47 2
9.3459997 -2.3469999 0.625 2
9.3570004 -2.4030001 0.537 2
9.3549995 -2.3510001 0.65200001 2
9.3570004 -2.369 0.62 2
9.3610001 -2.4319999 0.48800001 2
9.3319998 -2.3610001 0.53399998 2
9.3459997 -2.381 0.54699999 2
9.382 -2.4360001 0.565 2
9.3850002 -2.4230001 0.61000001 2
9.3870001 -2.454 0.54299998 2
9.382 -2.4519999 0.52999997 2
9.3570004 -2.402 0.54100001 2
9.3339996 -2.3110001 0.65899998 2
9.3690004 -2.414 0.56199998 2
9.3629999 -2.359 0.66900003 2
9.342 -2.322 0.66799998 2
9.4020004 -2.473 0.56199998 2
9.415 -2.477 0.60500002 2
9.3760004 -2.3859999 0.66000003 2
9.3629999 -2.4530001 0.44800001 2
9.3889999 -2.497 0.45500001 2
9.3579998 -2.4430001 0.46599999 2
9.3909998 -2.4990001 0.465 2
9.3859997 -2.4879999 0.49599999 2
9.3780003 -2.4749999 0.47600001 2
9.3940001 -2.503 0.47299999 2
9.3850002 -2.4860001 0.49399999 2
9.3760004 -2.474 0.45899999 2
9.3579998 -2.4449999 0.447 2
9.4029999 -2.5179999 0.47299999 2
9.3769999 -2.4749999 0.46399999 2
9.3629999 -2.4530001 0.45500001 2
9.382 -2.483 0.458 2
9.3990002 -2.51 0.48800001 2
9.3620005 -2.4489999 0.46200001 2
9.3830004 -2.4860001 0.45500001 2
9.3719997 -2.4660001 0.46399999 2
9.3830004 -2.4860001 0.45300001 2
9.415 -2.539 0.47 2
9.3800001 -2.4809999 0.465 2
9.3950005 -2.5050001 0.458 2
9.3629999 -2.4519999 0.45699999 2
9.3760004 -2.473 0.47499999 2
9.3990002 -2.513 0.45300001 2
9.4130001 -2.536 0.46799999 2
9.3739996 -2.471 0.44999999 2
9.3830004 -2.484 0.472 2
9.408 -2.527 0.47400001 2
9.4189997 -2.546 0.45899999 2
9.382 -2.484 0.47 2
9.4219999 -2.55 0.46599999 2
9.4020004 -2.516 0.47499999 2
9.4309998 -2.566 0.461 2
9.4099998 -2.5309999 0.47099999 2
9.3970003 -2.506 0.48699999 2
9.3730001 -2.467 0.47299999 2
9.3479996 -2.427 0.44499999 2
9.4069996 -2.5250001 0.47600001 2
9.4110003 -2.5320001 0.46399999 2
9.4230003 -2.552 0.46700001 2
9.3730001 -2.467 0.477 2
9.3529997 -2.4349999 0.456 2
9.4029999 -2.5179999 0.48500001 2
9.3699999 -2.336 0.72500002 2
9.3389997 -2.296 0.71200001 2
9.3870001 -2.3759999 0.70200002 2
9.3549995 -2.3069999 0.73500001 2
9.368 -2.306 0.76899999 2
9.4020004 -2.414 0.68000001 2
9.3610001 -2.325 0.72000003 2
9.335 -2.29 0.71100003 2
9.4029999 -2.444 0.634 2
9.3699999 -2.3329999 0.73100001 2
9.3780003 -2.3380001 0.741 2
9.3909998 -2.4000001 0.67500001 2
9.3690004 -2.349 0.70200002 2
9.3280001 -2.2539999 0.75099999 2
9.3920002 -2.405 0.66900003 2
9.3310003 -2.2820001 0.71499997 2
9.3620005 -2.3039999 0.75700003 2
9.3430004 -2.256 0.787 2
9.3780003 -2.3829999 0.67000002 2
9.3950005 -2.414 0.662 2
9.3879995 -2.365 0.72500002 2
9.3579998 -2.2869999 0.77499998 2
9.3649998 -2.2880001 0.792 2
9.3870001 -2.4030001 0.66100001 2
9.4090004 -2.4360001 0.66100001 2
9.3669996 -2.29 0.79100001 2
9.3870001 -2.382 0.69499999 2
9.3640003 -2.326 0.727 2
9.3839998 -2.3740001 0.69999999 2
9.4020004 -2.4130001 0.68099999 2
9.3970003 -2.4059999 0.67900002 2
9.4049997 -2.4449999 0.63800001 2
9.415 -2.457 0.64200002 2
9.3610001 -2.3340001 0.70599997 2
9.3769999 -2.339 0.73900002 2
9.3559999 -2.322 0.71399999 2
9.3760004 -2.3210001 0.76499999 2
9.3389997 -2.29 0.722 2
9.3839998 -2.398 0.662 2
9.3730001 -2.332 0.73900002 2
9.3640003 -2.335 0.71100003 2
9.3520002 -2.316 0.713 2
9.3369999 -2.2809999 0.73100001 2
9.3579998 -2.3380001 0.69099998 2
9.3979998 -2.4260001 0.64899999 2
9.4110003 -2.4579999 0.63099998 2
9.335 -2.256 0.76599997 2
9.3260002 -2.2390001 0.77200001 2
9.4090004 -2.447 0.64399999 2
9.3380003 -2.253 0.77999997 2
9.323 -2.2520001 0.74400002 2
9.3739996 -2.3210001 0.759 2
9.3570004 -2.296 0.75800002 2
9.3179998 -2.2460001 0.73900002 2
9.3299999 -2.279 0.71700001 2
9.3900003 -2.372 0.71899998 2
9.3660002 -2.3099999 0.75700003 2
9.3690004 -2.3280001 0.73500001 2
9.3559999 -2.3169999 0.72100002 2
9.401 -2.434 0.64499998 2
9.4139996 -2.4549999 0.64300001 2
9.4130001 -2.4590001 0.63599998 2
9.3789997 -2.3469999 0.73100001 2
9.3900003 -2.3870001 0.69300002 2
9.3570004 -2.2780001 0.787 2
9.415 -2.46 0.63700002 2
9.3780003 -2.3329999 0.75099999 2
9.3319998 -2.2679999 0.74000001 2
9.3629999 -2.339 0.70200002 2
9.3879995 -2.3959999 0.67500001 2
9.3549995 -2.289 0.76499999 2
9.3620005 -2.3380001 0.70099998 2
9.3879995 -2.3870001 0.68699998 2
9.3640003 -2.283 0.79699999 2
9.3719997 -2.3269999 0.745 2
9.3590002 -2.3329999 0.70200002 2
9.3920002 -2.4100001 0.66100001 2
9.3280001 -2.257 0.74699998 2
9.3669996 -2.302 0.77200001 2
9.3979998 -2.425 0.653 2
9.3620005 -2.3 0.764 2
9.3950005 -2.405 0.67799997 2
9.3269997 -2.2579999 0.74299997 2
9.3699999 -2.3110001 0.76599997 2
9.316 -2.233 0.75700003 2
9.3509998 -2.2460001 0.82200003 2
9.3870001 -2.3889999 0.68400002 2
