# .PCD v0.7 - Point Cloud Data file format
VERSION 0.7
FIELDS x y z label
SIZE 4 4 4 4
TYPE F F F U
COUNT 1 1 1 1
WIDTH 1574
HEIGHT 1
VIEWPOINT 0 0 0 1 0 0 0
POINTS 1574
DATA ascii
7.4629998 -2.5780001 0.588 2
7.4860001 -2.5899999 0.486 2
7.4619999 -2.5869999 0.58999997 2
7.493 -2.5610001 0.477 2
7.4699998 -2.4809999 0.61900002 2
7.4699998 -2.5250001 0.59100002 2
7.4359999 -2.72 0.61699998 2
7.454 -2.638 0.59200001 2
7.473 -2.559 0.55900002 2
7.4400001 -2.687 0.61900002 2
7.46 -2.5780001 0.60399997 2
7.4809999 -2.5969999 0.505 2
7.4770002 -2.6289999 0.5 2
7.4899998 -2.6029999 0.46399999 2
7.4949999 -2.5869999 0.45199999 2
7.4549999 -2.6199999 0.59899998 2
7.4650002 -2.6340001 0.54799998 2
7.4679999 -2.497 0.616 2
7.4710002 -2.625 0.528 2
7.461 -2.5420001 0.61900002 2
7.4450002 -2.7030001 0.58899999 2
7.4489999 -2.6140001 0.62699997 2
7.4650002 -2.6329999 0.551 2
7.4710002 -2.4170001 0.68900001 2
7.4749999 -2.401 0.70099998 2
7.4629998 -2.424 0.708 2
7.48 -2.398 0.68699998 2
7.474 -2.4159999 0.67699999 2
7.4619999 -2.4300001 0.70200002 2
7.4860001 -2.3889999 0.67699999 2
7.4489999 -2.4460001 0.72500002 2
7.473 -2.404 0.70099998 2
7.4380002 -2.4679999 0.72799999 2
7.4260001 -2.471 0.77200001 2
7.4650002 -2.4289999 0.69199997 2
7.4650002 -2.427 0.69499999 2
7.4429998 -2.4619999 0.72100002 2
7.448 -2.447 0.72500002 2
7.4429998 -2.4649999 0.71399999 2
7.4489999 -2.4449999 0.72399998 2
7.454 -2.4549999 0.69 2
7.4699998 -2.4130001 0.69700003 2
7.487 -2.3889999 0.676 2
7.441 -2.448 0.74900001 2
7.4260001 -2.4690001 0.77100003 2
7.4590001 -2.4300001 0.71399999 2
7.4679999 -2.431 0.67500001 2
7.4970002 -2.372 0.66500002 2
7.4689999 -2.437 0.66100001 2
7.4559999 -2.448 0.69300002 2
7.4619999 -2.45 0.66600001 2
7.434 -2.46 0.75599998 2
7.4619999 -2.447 0.67199999 2
7.4569998 -2.451 0.68300003 2
7.4770002 -2.4070001 0.68199998 2
7.4629998 -2.437 0.685 2
7.4959998 -2.3710001 0.671 2
7.441 -2.461 0.73000002 2
7.4390001 -2.4549999 0.74699998 2
7.4650002 -2.4389999 0.67299998 2
7.441 -2.461 0.73000002 2
7.4889998 -2.382 0.68000001 2
7.46 -2.4349999 0.70099998 2
7.4510002 -2.4349999 0.73400003 2
7.4759998 -2.404 0.69199997 2
7.4780002 -2.4000001 0.69099998 2
7.4850001 -2.391 0.67900002 2
7.4450002 -2.4460001 0.741 2
7.4489999 -2.451 0.71499997 2
7.4990001 -2.3670001 0.667 2
7.434 -2.4660001 0.74699998 2
7.448 -2.457 0.70899999 2
7.4219999 -2.4790001 0.77200001 2
7.4889998 -2.391 0.66299999 2
7.4460001 -2.4579999 0.71499997 2
7.4400001 -2.464 0.72600001 2
7.4390001 -2.4519999 0.75099999 2
7.4499998 -2.4419999 0.72399998 2
7.4429998 -2.4649999 0.71499997 2
7.4380002 -2.4579999 0.745 2
7.4770002 -2.4000001 0.69400001 2
7.4330001 -2.47 0.74299997 2
7.4569998 -2.4400001 0.70099998 2
7.4629998 -2.447 0.66900003 2
7.4559999 -2.444 0.69999999 2
7.4400001 -2.451 0.75199997 2
7.447 -2.4349999 0.80199999 2
7.4899998 -2.352 0.801 2
7.48 -2.362 0.792 2
7.4569998 -2.4400001 0.82499999 2
7.4460001 -2.431 0.79500002 2
7.4559999 -2.4300001 0.81400001 2
7.4829998 -2.372 0.80800003 2
7.4569998 -2.4360001 0.82200003 2
7.4510002 -2.4319999 0.80699998 2
7.4679999 -2.388 0.79299998 2
7.4349999 -2.46 0.80199999 2
7.4169998 -2.483 0.78899997 2
7.474 -2.381 0.79799998 2
7.467 -2.4030001 0.80699998 2
7.4510002 -2.431 0.80400002 2
7.4559999 -2.4119999 0.796 2
7.4439998 -2.4489999 0.81 2
7.4559999 -2.4189999 0.80199999 2
7.4580002 -2.428 0.81599998 2
7.441 -2.444 0.79799998 2
7.434 -2.464 0.80400002 2
7.4310002 -2.46 0.79500002 2
7.4569998 -2.4349999 0.82200003 2
7.4689999 -2.414 0.824 2
7.4679999 -2.4059999 0.81300002 2
7.454 -2.448 0.82800001 2
7.4809999 -2.375 0.80699998 2
7.4530001 -2.421 0.79900002 2
7.473 -2.3889999 0.80500001 2
7.4530001 -2.448 0.82599998 2
7.4190001 -2.4779999 0.79000002 2
7.4349999 -2.4579999 0.801 2
7.4650002 -2.3929999 0.79299998 2
7.4450002 -2.4460001 0.80900002 2
7.4260001 -2.4679999 0.79299998 2
7.4749999 -2.3789999 0.79799998 2
7.4559999 -2.434 0.81800002 2
7.4629998 -2.4300001 0.82700002 2
7.4359999 -2.4619999 0.80599999 2
7.4439998 -2.45 0.81099999 2
7.4549999 -2.4159999 0.79799998 2
7.448 -2.431 0.79900002 2
7.461 -2.408 0.80000001 2
7.4749999 -2.391 0.81199998 2
7.4809999 -2.3610001 0.792 2
7.474 -2.388 0.80599999 2
7.487 -2.3640001 0.74299997 2
7.4809999 -2.3659999 0.77100003 2
7.4819999 -2.362 0.773 2
7.4749999 -2.3740001 0.78100002 2
7.4710002 -2.385 0.773 2
7.5009999 -2.3629999 0.667 2
7.454 -2.421 0.75700003 2
7.4450002 -2.431 0.77899998 2
7.4759998 -2.372 0.78100002 2
7.5 -2.3540001 0.70099998 2
7.4990001 -2.3310001 0.77200001 2
7.4949999 -2.3659999 0.68900001 2
7.4699998 -2.388 0.76800001 2
7.4949999 -2.3559999 0.72100002 2
7.4819999 -2.3629999 0.77399999 2
7.4819999 -2.369 0.75300002 2
7.4499998 -2.428 0.76099998 2
7.4590001 -2.408 0.76599997 2
7.494 -2.3469999 0.74900001 2
7.4699998 -2.3829999 0.78200001 2
7.5009999 -2.352 0.69599998 2
7.4910002 -2.3640001 0.71600002 2
7.4770002 -2.3800001 0.74800003 2
7.4770002 -2.3699999 0.77700001 2
7.4819999 -2.388 0.69999999 2
7.493 -2.368 0.69599998 2
7.4949999 -2.3570001 0.71899998 2
7.4619999 -2.4030001 0.76800001 2
7.493 -2.3640001 0.70999998 2
7.4380002 -2.4519999 0.75599998 2
7.4629998 -2.4070001 0.75 2
7.4390001 -2.4430001 0.77600002 2
7.461 -2.4170001 0.727 2
7.4809999 -2.3889999 0.70200002 2
7.4790001 -2.391 0.70700002 2
7.4949999 -2.3659999 0.69 2
7.4819999 -2.3670001 0.76200002 2
7.4949999 -2.3440001 0.75199997 2
7.493 -2.352 0.74199998 2
7.4499998 -2.431 0.75 2
7.4840002 -2.3640001 0.755 2
7.4770002 -2.3970001 0.70099998 2
7.4879999 -2.3659999 0.73199999 2
7.4710002 -2.3929999 0.74599999 2
7.4289999 -2.4630001 0.773 2
7.441 -2.4430001 0.76700002 2
7.467 -2.408 0.722 2
7.4629998 -2.4159999 0.72399998 2
7.4489999 -2.4260001 0.77499998 2
7.4359999 -2.4449999 0.78600001 2
7.4689999 -2.385 0.77899998 2
7.4860001 -2.3529999 0.778 2
7.4879999 -2.358 0.75099999 2
7.4530001 -2.428 0.74599999 2
7.4959998 -2.345 0.75 2
7.4450002 -2.4289999 0.78600001 2
7.4460001 -2.4300001 0.77600002 2
7.4619999 -2.4119999 0.73799998 2
7.4840002 -2.388 0.69 2
7.4510002 -2.431 0.74400002 2
7.454 -2.4189999 0.764 2
7.493 -2.3729999 0.68099999 2
7.4619999 -2.4119999 0.73699999 2
7.494 -2.3710001 0.67799997 2
7.4749999 -2.398 0.70899999 2
7.4850001 -2.3670001 0.74000001 2
7.4749999 -2.3800001 0.76300001 2
7.4569998 -2.4159999 0.755 2
7.4850001 -2.3610001 0.764 2
7.474 -2.388 0.741 2
7.4260001 -2.464 0.78500003 2
7.4840002 -2.3800001 0.71100003 2
7.474 -2.391 0.73699999 2
7.4840002 -2.3740001 0.73100001 2
7.4860001 -2.3510001 0.78799999 2
7.4619999 -2.415 0.73199999 2
7.493 -2.3429999 0.76999998 2
7.4829998 -2.3770001 0.72500002 2
7.427 -2.4630001 0.78600001 2
7.4990001 -2.3599999 0.68800002 2
7.46 -2.415 0.745 2
7.4910002 -2.349 0.76300001 2
7.473 -2.3829999 0.75999999 2
7.4770002 -2.3940001 0.70999998 2
7.4439998 -2.4430001 0.74699998 2
7.4569998 -2.418 0.75 2
7.467 -2.3970001 0.75599998 2
7.4759998 -2.3740001 0.77100003 2
7.4959998 -2.3670001 0.68099999 2
7.4879999 -2.3770001 0.69700003 2
7.4419999 -2.438 0.77200001 2
7.447 -2.4260001 0.78299999 2
7.4850001 -2.3789999 0.70899999 2
7.4359999 -2.45 0.77399999 2
7.4959998 -2.3629999 0.69300002 2
7.4809999 -2.375 0.74599999 2
7.4970002 -2.3369999 0.76499999 2
7.467 -2.395 0.764 2
7.4990001 -2.335 0.75599998 2
7.4889998 -2.3540001 0.75999999 2
7.4809999 -2.3859999 0.708 2
7.4879999 -2.382 0.68300003 2
7.4980001 -2.3380001 0.75700003 2
7.4809999 -2.358 0.78899997 2
7.4749999 -2.3929999 0.72299999 2
7.4549999 -2.418 0.76300001 2
7.5 -2.3559999 0.69300002 2
7.4460001 -2.4400001 0.74800003 2
7.4819999 -2.359 0.78100002 2
7.4720001 -2.3989999 0.72500002 2
7.474 -2.385 0.75099999 2
7.4780002 -2.369 0.77499998 2
7.4559999 -2.4260001 0.73100001 2
7.4790001 -2.3889999 0.713 2
7.428 -2.4660001 0.77200001 2
7.4720001 -2.395 0.73299998 2
7.4679999 -2.3889999 0.77399999 2
7.4499998 -2.428 0.75700003 2
7.5009999 -2.3570001 0.68300003 2
7.5029998 -2.8199999 0.38299999 2
7.4879999 -2.849 0.477 2
7.5040002 -2.8640001 0.46399999 2
7.4949999 -2.829 0.41999999 2
7.5100002 -2.8469999 0.41600001 2
7.5040002 -2.8169999 0.37200001 2
7.5089998 -2.852 0.428 2
7.494 -2.8640001 0.491 2
7.4829998 -2.859 0.509 2
7.507 -2.845 0.41800001 2
7.487 -2.8380001 0.461 2
7.4889998 -2.8540001 0.484 2
7.493 -2.8399999 0.44600001 2
7.5019999 -2.8510001 0.44499999 2
7.4899998 -2.846 0.46700001 2
7.4910002 -2.8529999 0.47600001 2
7.507 -2.848 0.42500001 2
7.4860001 -2.8599999 0.50400001 2
7.4840002 -2.8440001 0.47799999 2
7.4899998 -2.8340001 0.44499999 2
7.5040002 -2.862 0.461 2
7.4889998 -2.839 0.45500001 2
7.4840002 -2.855 0.5 2
7.5019999 -2.819 0.38299999 2
7.48 -2.849 0.5 2
7.5009999 -2.862 0.46799999 2
7.4819999 -2.8610001 0.51899999 2
7.4920001 -2.8540001 0.477 2
7.5040002 -2.8239999 0.38699999 2
7.4990001 -2.8510001 0.45300001 2
7.4759998 -2.8599999 0.53100002 2
7.4790001 -2.848 0.5 2
7.5029998 -2.858 0.45500001 2
7.5 -2.859 0.46599999 2
7.4959998 -2.8329999 0.426 2
7.5029998 -2.8570001 0.45500001 2
7.507 -2.8139999 0.361 2
7.5050001 -2.8429999 0.42199999 2
7.4949999 -2.852 0.465 2
7.4840002 -2.846 0.48300001 2
7.4640002 -2.832 0.78299999 2
7.4749999 -2.8329999 0.75999999 2
7.4780002 -2.8110001 0.77200001 2
7.4679999 -2.8050001 0.79699999 2
7.467 -2.826 0.78200001 2
7.4699998 -2.8239999 0.77600002 2
7.4710002 -2.8 0.796 2
7.48 -2.8199999 0.75999999 2
7.4699998 -2.8310001 0.76999998 2
7.4809999 -2.835 0.74599999 2
7.4759998 -2.79 0.79400003 2
7.4619999 -2.8299999 0.78899997 2
7.4590001 -2.8510001 0.778 2
7.46 -2.845 0.78100002 2
7.454 -2.852 0.78600001 2
7.4770002 -2.7939999 0.78899997 2
7.4829998 -2.822 0.75300002 2
7.4829998 -2.819 0.755 2
7.4710002 -2.7980001 0.79799998 2
7.4829998 -2.8169999 0.75599998 2
7.474 -2.802 0.78799999 2
7.4770002 -2.8210001 0.76499999 2
7.4860001 -2.8310001 0.73900002 2
7.48 -2.8099999 0.76899999 2
7.4640002 -2.848 0.76800001 2
7.4749999 -2.8169999 0.77200001 2
7.473 -2.8039999 0.78799999 2
7.4650002 -2.812 0.79699999 2
7.4790001 -2.802 0.77700001 2
7.4780002 -2.8239999 0.76099998 2
7.4850001 -2.8369999 0.736 2
7.4860001 -2.822 0.45100001 2
7.4749999 -2.842 0.51300001 2
7.454 -2.773 0.55599999 2
7.48 -2.835 0.484 2
7.4559999 -2.7780001 0.55000001 2
7.4679999 -2.796 0.51200002 2
7.4829998 -2.8080001 0.454 2
7.473 -2.7939999 0.48899999 2
7.4790001 -2.8099999 0.47099999 2
7.4489999 -2.7780001 0.58099997 2
7.4790001 -2.8340001 0.49200001 2
7.4530001 -2.7780001 0.56199998 2
7.48 -2.803 0.46399999 2
7.4699998 -2.8510001 0.54000002 2
7.4390001 -2.7479999 0.60000002 2
7.4660001 -2.832 0.542 2
7.4980001 -2.813 0.39300001 2
7.4809999 -2.819 0.47 2
7.4949999 -2.8099999 0.405 2
7.493 -2.8150001 0.41499999 2
7.461 -2.7950001 0.53899997 2
7.454 -2.776 0.55599999 2
7.4829998 -2.8399999 0.47600001 2
7.4780002 -2.8369999 0.495 2
7.4650002 -2.8099999 0.53500003 2
7.4819999 -2.796 0.44800001 2
7.461 -2.7750001 0.52499998 2
7.4660001 -2.8169999 0.53500003 2
7.48 -2.796 0.45699999 2
7.4780002 -2.8199999 0.48199999 2
7.4689999 -2.779 0.49399999 2
7.48 -2.8280001 0.48100001 2
7.4749999 -2.8199999 0.495 2
7.461 -2.766 0.51800001 2
7.474 -2.8280001 0.50800002 2
7.4390001 -2.7539999 0.60699999 2
7.4499998 -2.789 0.58099997 2
7.4629998 -2.789 0.528 2
7.4619999 -2.7950001 0.53600001 2
7.487 -2.829 0.45199999 2
7.4770002 -2.813 0.48199999 2
7.4920001 -2.8080001 0.41600001 2
7.4829998 -2.8299999 0.47 2
7.4569998 -2.7650001 0.53600001 2
7.487 -2.8099999 0.43799999 2
7.4840002 -2.7909999 0.43799999 2
7.5040002 -2.8069999 0.36300001 2
7.4959998 -2.8039999 0.396 2
7.4899998 -2.8150001 0.42699999 2
7.474 -2.839 0.514 2
7.4499998 -2.777 0.574 2
7.4499998 -2.7950001 0.58700001 2
7.4899998 -2.803 0.41999999 2
7.4860001 -2.802 0.43599999 2
7.4520001 -2.7720001 0.56400001 2
7.4429998 -2.7479999 0.58700001 2
7.474 -2.839 0.51300001 2
7.461 -2.789 0.53500003 2
7.4970002 -2.802 0.38800001 2
7.447 -2.7720001 0.58200002 2
7.4650002 -2.7980001 0.52399999 2
7.4949999 -2.819 0.41 2
7.4780002 -2.8399999 0.49599999 2
7.4699998 -2.8210001 0.51899999 2
7.4970002 -2.8099999 0.396 2
7.4899998 -2.8210001 0.43000001 2
7.4489999 -2.757 0.56400001 2
7.4720001 -2.803 0.49900001 2
7.4879999 -2.8269999 0.44600001 2
7.4910002 -2.8299999 0.433 2
7.5 -2.8050001 0.37900001 2
7.4879999 -2.826 0.44299999 2
7.4489999 -2.779 0.57999998 2
7.4650002 -2.806 0.52899998 2
7.4699998 -2.8069999 0.50700003 2
7.467 -2.835 0.54000002 2
7.4559999 -2.813 0.574 2
7.4829998 -2.8069999 0.45500001 2
7.5019999 -2.813 0.377 2
7.4840002 -2.825 0.461 2
7.4679999 -2.7850001 0.50300002 2
7.4619999 -2.79 0.53200001 2
7.4619999 -2.7709999 0.51899999 2
7.4889998 -2.8299999 0.44499999 2
7.4889998 -2.802 0.42199999 2
7.4770002 -2.846 0.505 2
7.4819999 -2.832 0.47499999 2
7.4910002 -2.7980001 0.41100001 2
7.4510002 -2.7869999 0.57599998 2
7.4980001 -2.819 0.396 2
7.5019999 -2.816 0.37799999 2
7.4759998 -2.8329999 0.50300002 2
7.4710002 -2.8340001 0.52200001 2
7.4559999 -2.7980001 0.565 2
7.4910002 -2.802 0.41600001 2
7.4860001 -2.829 0.456 2
7.4689999 -2.8169999 0.51999998 2
7.5029998 -2.8080001 0.36899999 2
7.46 -2.822 0.56199998 2
7.4419999 -2.7590001 0.59500003 2
7.4580002 -2.8069999 0.56 2
7.48 -2.7909999 0.456 2
7.467 -2.7809999 0.50300002 2
7.4920001 -2.8150001 0.41800001 2
7.4840002 -2.793 0.43799999 2
7.4530001 -2.7969999 0.57599998 2
7.4860001 -2.8150001 0.44400001 2
7.4559999 -2.78 0.55000001 2
7.467 -2.813 0.528 2
7.487 -2.793 0.42399999 2
7.4850001 -2.8310001 0.463 2
7.48 -2.7950001 0.45899999 2
7.473 -2.8080001 0.498 2
7.494 -2.7980001 0.39899999 2
7.4530001 -2.7750001 0.55900002 2
7.4530001 -2.786 0.56900001 2
7.4660001 -2.8310001 0.54500002 2
7.4840002 -2.835 0.46700001 2
7.4499998 -2.7579999 0.56 2
7.4619999 -2.7939999 0.53399998 2
7.4559999 -2.803 0.56699997 2
7.4949999 -2.816 0.40799999 2
7.4689999 -2.7950001 0.50300002 2
7.4850001 -2.8239999 0.458 2
7.4699998 -2.823 0.51999998 2
7.4879999 -2.8269999 0.44499999 2
7.4619999 -2.7850001 0.52899998 2
7.48 -2.836 0.486 2
7.4910002 -2.816 0.42699999 2
7.4920001 -2.8099999 0.41499999 2
7.4889998 -2.812 0.43099999 2
7.4499998 -2.767 0.56800002 2
7.4809999 -2.825 0.47400001 2
7.4840002 -2.8180001 0.458 2
7.4660001 -2.79 0.514 2
7.4770002 -2.8199999 0.48800001 2
7.4699998 -2.842 0.53399998 2
7.46 -2.7780001 0.53100002 2
7.4850001 -2.835 0.463 2
7.454 -2.7590001 0.54400003 2
7.4489999 -2.786 0.58700001 2
7.4949999 -2.8210001 0.40900001 2
7.4549999 -2.7709999 0.54900002 2
7.4689999 -2.835 0.53299999 2
7.4770002 -2.773 0.79500002 2
7.48 -2.7620001 0.78200001 2
7.5 -2.704 0.71200001 2
7.494 -2.717 0.73500001 2
7.494 -2.7449999 0.73000002 2
7.4840002 -2.78 0.76599997 2
7.4899998 -2.7809999 0.74000001 2
7.5050001 -2.724 0.68900001 2
7.4920001 -2.7939999 0.72799999 2
7.493 -2.753 0.73299998 2
7.4980001 -2.7609999 0.70999998 2
7.5029998 -2.7 0.70200002 2
7.4879999 -2.7420001 0.75599998 2
7.494 -2.734 0.73299998 2
7.4889998 -2.763 0.74599999 2
7.494 -2.8069999 0.71899998 2
7.5100002 -2.671 0.68099999 2
7.4949999 -2.7850001 0.71899998 2
7.5149999 -2.6700001 0.66000003 2
7.4990001 -2.7249999 0.71200001 2
7.4889998 -2.7679999 0.74800003 2
7.4860001 -2.7809999 0.755 2
7.507 -2.6849999 0.68699998 2
7.5 -2.757 0.704 2
7.4889998 -2.7880001 0.74400002 2
7.493 -2.7460001 0.73500001 2
7.494 -2.7739999 0.72600001 2
7.4910002 -2.779 0.73500001 2
7.4829998 -2.8010001 0.764 2
7.4860001 -2.7950001 0.75300002 2
7.5089998 -2.6760001 0.68199998 2
7.4819999 -2.7709999 0.773 2
7.4829998 -2.8 0.76599997 2
7.4860001 -2.7639999 0.75999999 2
7.5 -2.7509999 0.704 2
7.4850001 -2.7920001 0.759 2
7.4840002 -2.7679999 0.76800001 2
7.4949999 -2.7920001 0.71799999 2
7.5120001 -2.6730001 0.67000002 2
7.4899998 -2.8180001 0.73500001 2
7.4970002 -2.707 0.72500002 2
7.4899998 -2.756 0.74599999 2
7.5100002 -2.6919999 0.67400002 2
7.48 -2.7780001 0.78299999 2
7.5 -2.7119999 0.71399999 2
7.5040002 -2.7360001 0.69300002 2
7.493 -2.7320001 0.73799998 2
7.5050001 -2.711 0.69 2
7.4899998 -2.7750001 0.73900002 2
7.5110002 -2.7 0.67000002 2
7.5029998 -2.6930001 0.70499998 2
7.487 -2.819 0.74599999 2
7.4899998 -2.73 0.74800003 2
7.5019999 -2.757 0.69400001 2
7.493 -2.743 0.73400003 2
7.4959998 -2.7379999 0.722 2
7.5009999 -2.723 0.70599997 2
7.4790001 -2.78 0.787 2
7.513 -2.6619999 0.667 2
7.507 -2.6819999 0.69 2
7.5120001 -2.677 0.671 2
7.4879999 -2.789 0.745 2
7.4899998 -2.7379999 0.74800003 2
7.4910002 -2.79 0.736 2
7.4889998 -2.7420001 0.75199997 2
7.4829998 -2.7969999 0.76700002 2
7.4829998 -2.7920001 0.76599997 2
7.4910002 -2.7390001 0.74299997 2
7.5149999 -2.6670001 0.65799999 2
7.487 -2.756 0.75800002 2
7.4780002 -2.7709999 0.79000002 2
7.493 -2.8069999 0.72100002 2
7.4879999 -2.776 0.75099999 2
7.4889998 -2.8069999 0.73900002 2
7.493 -2.733 0.73699999 2
7.506 -2.7119999 0.68900001 2
7.4819999 -2.7679999 0.77600002 2
7.4959998 -2.7390001 0.72399998 2
7.4819999 -2.7980001 0.76700002 2
7.4899998 -2.8050001 0.73400003 2
7.5040002 -2.704 0.699 2
7.4889998 -2.8010001 0.74000001 2
7.494 -2.7290001 0.73199999 2
7.4889998 -2.7609999 0.74699998 2
7.5009999 -2.701 0.71100003 2
7.5100002 -2.6719999 0.68000001 2
7.5149999 -2.655 0.66100001 2
7.4840002 -2.7690001 0.76599997 2
7.4949999 -2.7820001 0.71799999 2
7.5009999 -2.7309999 0.70700002 2
7.5159998 -2.6559999 0.65600002 2
7.5009999 -2.7590001 0.70099998 2
7.5159998 -2.6559999 0.65600002 2
7.4850001 -2.7880001 0.759 2
7.4850001 -2.7690001 0.76099998 2
7.4910002 -2.7579999 0.74000001 2
7.487 -2.793 0.75099999 2
7.5159998 -2.6589999 0.65899998 2
7.5019999 -2.753 0.69499999 2
7.4910002 -2.7620001 0.73699999 2
7.4840002 -2.7869999 0.764 2
7.4910002 -2.7920001 0.73500001 2
7.4920001 -2.7320001 0.74000001 2
7.5009999 -2.74 0.704 2
7.4990001 -2.7190001 0.71499997 2
7.4980001 -2.727 0.71899998 2
7.4980001 -2.779 0.70999998 2
7.5019999 -2.73 0.699 2
7.5089998 -2.6849999 0.68099999 2
7.4780002 -2.7460001 0.46399999 2
7.5019999 -2.6289999 0.41 2
7.467 -2.7219999 0.50700003 2
7.4980001 -2.632 0.42300001 2
7.4689999 -2.688 0.50800002 2
7.4809999 -2.704 0.46399999 2
7.4359999 -2.7309999 0.611 2
7.474 -2.684 0.49200001 2
7.4489999 -2.727 0.56800002 2
7.4590001 -2.711 0.53799999 2
7.5 -2.6429999 0.41100001 2
7.4530001 -2.7279999 0.55400002 2
7.4949999 -2.6949999 0.419 2
7.5 -2.6500001 0.41100001 2
7.473 -2.6930001 0.495 2
7.4819999 -2.7449999 0.45100001 2
7.4710002 -2.6860001 0.50300002 2
7.4920001 -2.668 0.43399999 2
7.4809999 -2.675 0.46900001 2
7.4959998 -2.7390001 0.40599999 2
7.4899998 -2.664 0.44299999 2
7.5040002 -2.744 0.37599999 2
7.5019999 -2.7460001 0.38100001 2
7.467 -2.7149999 0.50800002 2
7.474 -2.658 0.49700001 2
7.447 -2.7390001 0.57099998 2
7.4569998 -2.743 0.53799999 2
7.4829998 -2.678 0.46200001 2
7.434 -2.7379999 0.61699998 2
7.4860001 -2.701 0.447 2
7.454 -2.7520001 0.546 2
7.4559999 -2.6930001 0.551 2
7.5019999 -2.7809999 0.373 2
7.4970002 -2.714 0.40700001 2
7.5009999 -2.6670001 0.40200001 2
7.4710002 -2.671 0.50400001 2
7.4489999 -2.7149999 0.57200003 2
7.5009999 -2.681 0.40099999 2
7.473 -2.74 0.48300001 2
7.4380002 -2.7349999 0.60399997 2
7.5029998 -2.71 0.38699999 2
7.48 -2.7539999 0.456 2
7.5029998 -2.618 0.40799999 2
7.4780002 -2.697 0.47600001 2
7.4829998 -2.6960001 0.458 2
7.46 -2.6889999 0.54000002 2
7.5040002 -2.7679999 0.36899999 2
7.4860001 -2.7379999 0.43799999 2
7.4720001 -2.677 0.49900001 2
7.447 -2.7219999 0.57700002 2
7.447 -2.721 0.57599998 2
7.441 -2.744 0.59200001 2
7.4439998 -2.7309999 0.58499998 2
7.4790001 -2.733 0.46599999 2
7.4840002 -2.7460001 0.44299999 2
7.4790001 -2.6849999 0.477 2
7.4569998 -2.6900001 0.54900002 2
7.507 -2.6440001 0.38800001 2
7.493 -2.6800001 0.42899999 2
7.4860001 -2.7609999 0.43399999 2
7.507 -2.7509999 0.36500001 2
7.5050001 -2.7520001 0.37 2
7.4559999 -2.7309999 0.542 2
7.4829998 -2.7839999 0.43900001 2
7.4920001 -2.6849999 0.42899999 2
7.4840002 -2.6400001 0.46700001 2
7.4850001 -2.7149999 0.44800001 2
7.4980001 -2.7360001 0.39899999 2
7.448 -2.7130001 0.57599998 2
7.4959998 -2.671 0.41999999 2
7.474 -2.6600001 0.498 2
7.5029998 -2.783 0.37099999 2
7.4499998 -2.7279999 0.56400001 2
7.4679999 -2.743 0.49900001 2
7.4959998 -2.618 0.43099999 2
7.4860001 -2.6489999 0.458 2
7.5029998 -2.707 0.38800001 2
7.4790001 -2.684 0.47299999 2
7.467 -2.7160001 0.50999999 2
7.4809999 -2.6659999 0.472 2
7.4949999 -2.776 0.40099999 2
7.5019999 -2.6589999 0.40200001 2
7.493 -2.6670001 0.43200001 2
7.4990001 -2.6500001 0.41299999 2
7.4629998 -2.72 0.52100003 2
7.5040002 -2.687 0.389 2
7.5050001 -2.743 0.37200001 2
7.474 -2.727 0.48300001 2
7.4860001 -2.6359999 0.461 2
7.46 -2.7520001 0.52399999 2
7.4809999 -2.6700001 0.472 2
7.4530001 -2.7160001 0.55699998 2
7.4400001 -2.7390001 0.597 2
7.4809999 -2.7160001 0.463 2
7.473 -2.7190001 0.486 2
7.4850001 -2.78 0.433 2
7.4990001 -2.615 0.42199999 2
7.5050001 -2.612 0.40000001 2
7.487 -2.645 0.456 2
7.4699998 -2.6830001 0.50800002 2
7.4860001 -2.704 0.44800001 2
7.5050001 -2.7190001 0.37900001 2
7.5040002 -2.645 0.39899999 2
7.4920001 -2.6949999 0.428 2
7.5009999 -2.71 0.39199999 2
7.5029998 -2.704 0.389 2
7.506 -2.6889999 0.38100001 2
7.4530001 -2.7219999 0.55400002 2
7.4710002 -2.7360001 0.49000001 2
7.4840002 -2.7049999 0.45199999 2
7.5029998 -2.678 0.39500001 2
7.4770002 -2.668 0.484 2
7.4629998 -2.711 0.52399999 2
7.4970002 -2.7179999 0.40700001 2
7.5029998 -2.6389999 0.40099999 2
7.4520001 -2.7079999 0.56099999 2
7.4949999 -2.7360001 0.41 2
7.4809999 -2.7590001 0.45300001 2
7.4619999 -2.707 0.52999997 2
7.4920001 -2.7520001 0.414 2
7.4580002 -2.73 0.53600001 2
7.4829998 -2.7620001 0.44400001 2
7.4990001 -2.7809999 0.38600001 2
7.5029998 -2.714 0.38699999 2
7.4840002 -2.681 0.46000001 2
7.4590001 -2.7290001 0.53299999 2
7.4450002 -2.7179999 0.583 2
7.4990001 -2.743 0.39199999 2
7.4860001 -2.777 0.43099999 2
7.4499998 -2.7360001 0.56199998 2
7.4959998 -2.7130001 0.41 2
7.474 -2.7149999 0.48500001 2
7.48 -2.767 0.45300001 2
7.4990001 -2.698 0.40400001 2
7.4920001 -2.6900001 0.42899999 2
7.4749999 -2.7149999 0.48199999 2
7.4819999 -2.777 0.44299999 2
7.5040002 -2.78 0.366 2
7.4359999 -2.7320001 0.61199999 2
7.4970002 -2.6400001 0.42399999 2
7.4959998 -2.7550001 0.40200001 2
7.4980001 -2.648 0.41800001 2
7.4679999 -2.7 0.50999999 2
7.467 -2.7420001 0.50400001 2
7.5 -2.6930001 0.40200001 2
7.5040002 -2.619 0.40400001 2
7.4980001 -2.793 0.38499999 2
7.4699998 -2.7690001 0.48699999 2
7.4829998 -2.757 0.44600001 2
7.4980001 -2.6389999 0.419 2
7.474 -2.7490001 0.47799999 2
7.506 -2.747 0.36700001 2
7.4759998 -2.687 0.486 2
7.4920001 -2.7030001 0.42699999 2
7.494 -2.7939999 0.39899999 2
7.494 -2.7090001 0.417 2
7.4819999 -2.734 0.45300001 2
7.448 -2.7509999 0.56800002 2
7.4699998 -2.7590001 0.48899999 2
7.506 -2.7539999 0.36500001 2
7.48 -2.6900001 0.472 2
7.467 -2.711 0.51099998 2
7.493 -2.75 0.41100001 2
7.5029998 -2.773 0.373 2
7.4920001 -2.6919999 0.428 2
7.4749999 -2.7260001 0.47799999 2
7.4889998 -2.7079999 0.435 2
7.5040002 -2.6659999 0.39300001 2
7.4450002 -2.717 0.58600003 2
7.4959998 -2.76 0.39899999 2
7.4899998 -2.655 0.44400001 2
7.4970002 -2.6359999 0.42399999 2
7.4809999 -2.661 0.472 2
7.5 -2.7550001 0.389 2
7.506 -2.7479999 0.36700001 2
7.4660001 -2.675 0.52100003 2
7.5029998 -2.8 0.366 2
7.4569998 -2.747 0.53799999 2
7.494 -2.6900001 0.42399999 2
7.4990001 -2.6849999 0.40599999 2
7.4400001 -2.7390001 0.597 2
7.4710002 -2.6689999 0.505 2
7.4860001 -2.677 0.45100001 2
7.4990001 -2.7179999 0.40000001 2
7.4749999 -2.7620001 0.472 2
7.4629998 -2.7409999 0.51800001 2
7.5050001 -2.704 0.38 2
7.4990001 -2.7590001 0.391 2
7.4910002 -2.665 0.43799999 2
7.4520001 -2.7179999 0.55900002 2
7.474 -2.7309999 0.48300001 2
7.4759998 -2.7290001 0.47499999 2
7.4980001 -2.6470001 0.417 2
7.4640002 -2.7290001 0.51599997 2
7.473 -2.723 0.486 2
7.4970002 -2.684 0.412 2
7.4619999 -2.7520001 0.51700002 2
7.5050001 -2.757 0.37 2
7.5040002 -2.7460001 0.37400001 2
7.46 -2.744 0.52700001 2
7.4629998 -2.7360001 0.51800001 2
7.4549999 -2.7060001 0.55199999 2
7.4819999 -2.7850001 0.442 2
7.441 -2.733 0.59600002 2
7.4990001 -2.7709999 0.389 2
7.5019999 -2.7969999 0.37 2
7.5050001 -2.6059999 0.40400001 2
7.441 -2.743 0.59200001 2
7.5019999 -2.648 0.405 2
7.4990001 -2.78 0.38600001 2
7.5 -2.7460001 0.38999999 2
7.4749999 -2.7539999 0.472 2
7.4840002 -2.7290001 0.44600001 2
7.48 -2.698 0.46799999 2
7.4650002 -2.767 0.50400001 2
7.506 -2.648 0.38999999 2
7.4569998 -2.707 0.54400003 2
7.461 -2.7360001 0.52499998 2
7.48 -2.6949999 0.46900001 2
7.441 -2.7390001 0.59200001 2
7.4899998 -2.6370001 0.449 2
7.46 -2.6960001 0.537 2
7.448 -2.711 0.57599998 2
7.493 -2.691 0.42699999 2
7.4770002 -2.7260001 0.47099999 2
7.4809999 -2.668 0.47299999 2
7.4860001 -2.7579999 0.433 2
7.4619999 -2.7609999 0.51700002 2
7.4660001 -2.6760001 0.52100003 2
7.4949999 -2.766 0.40099999 2
7.4749999 -2.756 0.472 2
7.4710002 -2.7420001 0.491 2
7.4650002 -2.72 0.51499999 2
7.4720001 -2.7490001 0.486 2
7.4720001 -2.714 0.491 2
7.4530001 -2.7030001 0.56 2
7.5019999 -2.6500001 0.405 2
7.4980001 -2.691 0.41 2
7.4970002 -2.7620001 0.396 2
7.4910002 -2.645 0.442 2
7.5029998 -2.733 0.38299999 2
7.4809999 -2.6789999 0.47 2
7.4790001 -2.7479999 0.461 2
7.48 -2.776 0.45199999 2
7.4759998 -2.7079999 0.47999999 2
7.4559999 -2.7160001 0.546 2
7.4439998 -2.7449999 0.58200002 2
7.5009999 -2.622 0.412 2
7.4990001 -2.6470001 0.414 2
7.4819999 -2.684 0.463 2
7.4910002 -2.7880001 0.41100001 2
7.4580002 -2.711 0.542 2
7.4640002 -2.694 0.52600002 2
7.493 -2.7320001 0.417 2
7.5009999 -2.687 0.398 2
7.5050001 -2.7049999 0.38100001 2
7.4840002 -2.6849999 0.45899999 2
7.5 -2.694 0.40200001 2
7.5029998 -2.655 0.40099999 2
7.4949999 -2.6400001 0.43000001 2
7.4959998 -2.654 0.42300001 2
7.4569998 -2.7160001 0.54400003 2
7.473 -2.743 0.484 2
7.4959998 -2.7780001 0.39500001 2
7.5040002 -2.767 0.37 2
7.4419999 -2.737 0.58999997 2
7.493 -2.6630001 0.43099999 2
7.4530001 -2.73 0.55299997 2
7.4959998 -2.7750001 0.396 2
7.506 -2.665 0.38699999 2
7.5019999 -2.608 0.414 2
7.4580002 -2.707 0.54100001 2
7.4920001 -2.6340001 0.44 2
7.5 -2.678 0.40400001 2
7.5050001 -2.7 0.382 2
7.4559999 -2.7360001 0.542 2
7.4759998 -2.681 0.48699999 2
7.4689999 -2.704 0.50599998 2
7.4679999 -2.7679999 0.49399999 2
7.5019999 -2.6129999 0.41100001 2
7.493 -2.7249999 0.417 2
7.4889998 -2.7260001 0.43200001 2
7.4689999 -2.7190001 0.50199997 2
7.4899998 -2.677 0.43900001 2
7.4910002 -2.631 0.44499999 2
7.4970002 -2.773 0.39500001 2
7.494 -2.6730001 0.42699999 2
7.4970002 -2.7869999 0.38999999 2
7.4899998 -2.5869999 0.77999997 2
7.5050001 -2.6300001 0.71100003 2
7.5029998 -2.674 0.70700002 2
7.4959998 -2.5610001 0.76200002 2
7.4889998 -2.5350001 0.79699999 2
7.4809999 -2.698 0.796 2
7.487 -2.6099999 0.787 2
7.4920001 -2.6930001 0.75099999 2
7.4970002 -2.638 0.73900002 2
7.4980001 -2.6029999 0.74199998 2
7.5 -2.5880001 0.73799998 2
7.4889998 -2.711 0.759 2
7.494 -2.552 0.77399999 2
7.4780002 -2.7090001 0.80299997 2
7.506 -2.5899999 0.713 2
7.4819999 -2.733 0.78399998 2
7.5100002 -2.6140001 0.69099998 2
7.5040002 -2.6029999 0.71799999 2
7.4899998 -2.7079999 0.75400001 2
7.4980001 -2.658 0.73100001 2
7.4829998 -2.642 0.79799998 2
7.4899998 -2.622 0.77200001 2
7.4829998 -2.6140001 0.80599999 2
7.4970002 -2.6129999 0.745 2
7.4860001 -2.549 0.80500001 2
7.5 -2.6270001 0.73299998 2
7.494 -2.586 0.76499999 2
7.4850001 -2.6110001 0.79799998 2
7.494 -2.658 0.74800003 2
7.4920001 -2.7060001 0.74599999 2
7.487 -2.6389999 0.78299999 2
7.4959998 -2.6389999 0.74699998 2
7.4980001 -2.5929999 0.74800003 2
7.5019999 -2.6659999 0.713 2
7.5100002 -2.612 0.69199997 2
7.5019999 -2.674 0.70999998 2
7.4990001 -2.628 0.736 2
7.5029998 -2.661 0.70899999 2
7.5029998 -2.6359999 0.71600002 2
7.5110002 -2.6470001 0.67799997 2
7.4840002 -2.7119999 0.778 2
7.4860001 -2.572 0.80000001 2
7.5050001 -2.586 0.71899998 2
7.4790001 -2.7079999 0.801 2
7.4920001 -2.6659999 0.755 2
7.5019999 -2.608 0.727 2
7.4819999 -2.6329999 0.80599999 2
7.4780002 -2.7360001 0.79900002 2
7.48 -2.668 0.80699998 2
7.5139999 -2.642 0.66799998 2
7.5009999 -2.6059999 0.73199999 2
7.4899998 -2.5339999 0.79400003 2
7.4850001 -2.6860001 0.778 2
7.4850001 -2.6210001 0.79699999 2
7.487 -2.5420001 0.80199999 2
7.487 -2.704 0.76599997 2
7.4970002 -2.6070001 0.74800003 2
7.5089998 -2.6489999 0.68699998 2
7.5 -2.6170001 0.73400003 2
7.5079999 -2.6289999 0.69800001 2
7.487 -2.573 0.79799998 2
7.5110002 -2.6470001 0.68099999 2
7.4850001 -2.6889999 0.78100002 2
7.4819999 -2.6830001 0.79400003 2
7.4850001 -2.694 0.778 2
7.4819999 -2.6889999 0.79100001 2
7.4990001 -2.6070001 0.741 2
7.4860001 -2.724 0.76800001 2
7.4959998 -2.691 0.73299998 2
7.4920001 -2.6789999 0.75400001 2
7.5139999 -2.615 0.67500001 2
7.4949999 -2.704 0.73500001 2
7.4920001 -2.566 0.778 2
7.4829998 -2.622 0.80299997 2
7.4840002 -2.7219999 0.77499998 2
7.4860001 -2.55 0.80599999 2
7.4850001 -2.6110001 0.796 2
7.4840002 -2.7130001 0.77999997 2
7.4899998 -2.71 0.75300002 2
7.4860001 -2.645 0.78500003 2
7.48 -2.7409999 0.787 2
7.5079999 -2.602 0.704 2
7.5019999 -2.5869999 0.73100001 2
7.5 -2.674 0.71899998 2
7.4850001 -2.6259999 0.79400003 2
7.4809999 -2.675 0.80000001 2
7.4860001 -2.563 0.80299997 2
7.4959998 -2.697 0.73000002 2
7.4809999 -2.6830001 0.796 2
7.4879999 -2.6400001 0.778 2
7.5100002 -2.631 0.68599999 2
7.4840002 -2.5869999 0.80699998 2
7.507 -2.6300001 0.70099998 2
7.4840002 -2.6760001 0.78600001 2
7.4840002 -2.7360001 0.77399999 2
7.493 -2.6889999 0.745 2
7.513 -2.638 0.67199999 2
7.4879999 -2.675 0.77100003 2
7.4850001 -2.572 0.80500001 2
7.4819999 -2.721 0.78500003 2
7.4899998 -2.529 0.79299998 2
7.493 -2.714 0.73900002 2
7.4829998 -2.6029999 0.80699998 2
7.4920001 -2.5420001 0.78500003 2
7.494 -2.6210001 0.759 2
7.4920001 -2.6919999 0.74900001 2
7.4879999 -2.5910001 0.78899997 2
7.5019999 -2.5869999 0.73100001 2
7.4850001 -2.638 0.79299998 2
7.5079999 -2.5910001 0.70700002 2
7.4889998 -2.6800001 0.76499999 2
7.5009999 -2.6470001 0.722 2
7.4949999 -2.6300001 0.75099999 2
7.4809999 -2.654 0.80500001 2
7.4819999 -2.75 0.77700001 2
7.4860001 -2.6570001 0.78200001 2
7.4790001 -2.7409999 0.79500002 2
7.4860001 -2.523 0.81199998 2
7.4910002 -2.6919999 0.75400001 2
7.5110002 -2.6070001 0.68800002 2
7.4949999 -2.546 0.76800001 2
7.4879999 -2.6270001 0.77999997 2
7.4899998 -2.628 0.77399999 2
7.493 -2.6689999 0.75099999 2
7.5050001 -2.678 0.699 2
7.4840002 -2.576 0.80699998 2
7.4949999 -2.7079999 0.73400003 2
7.4980001 -2.6159999 0.74000001 2
7.4879999 -2.7190001 0.759 2
7.4819999 -2.733 0.78299999 2
7.4889998 -2.55 0.79400003 2
7.4980001 -2.625 0.73900002 2
7.4860001 -2.7190001 0.76800001 2
7.5029998 -2.6849999 0.704 2
7.5029998 -2.661 0.71200001 2
7.4819999 -2.6689999 0.796 2
7.5110002 -2.615 0.68800002 2
7.493 -2.5669999 0.773 2
7.4949999 -2.642 0.74800003 2
7.4780002 -2.7520001 0.79299998 2
7.4780002 -2.766 0.79400003 2
7.4920001 -2.648 0.76099998 2
7.4889998 -2.6429999 0.77200001 2
7.4860001 -2.6760001 0.77899998 2
7.506 -2.651 0.699 2
7.4819999 -2.7360001 0.78200001 2
7.4860001 -2.635 0.787 2
7.4899998 -2.5969999 0.78100002 2
7.48 -2.6700001 0.80299997 2
7.506 -2.665 0.69599998 2
7.5 -2.5650001 0.74400002 2
7.4809999 -2.6359999 0.80699998 2
7.4889998 -2.6559999 0.76899999 2
7.5149999 -2.6340001 0.66399997 2
7.4819999 -2.74 0.78100002 2
7.4819999 -2.612 0.80699998 2
7.4780002 -2.7409999 0.79900002 2
7.4889998 -2.687 0.76200002 2
7.48 -2.681 0.80199999 2
7.4879999 -2.6900001 0.76599997 2
7.4860001 -2.6800001 0.77899998 2
7.5149999 -2.6270001 0.67000002 2
7.4829998 -2.658 0.79699999 2
7.507 -2.631 0.699 2
7.4790001 -2.688 0.80299997 2
7.4860001 -2.559 0.80500001 2
7.4990001 -2.602 0.74000001 2
7.4840002 -2.6489999 0.79299998 2
7.4829998 -2.678 0.792 2
7.4959998 -2.711 0.73000002 2
7.4970002 -2.6530001 0.73900002 2
7.4819999 -2.7379999 0.77899998 2
7.4899998 -2.645 0.76800001 2
7.4920001 -2.6059999 0.76999998 2
7.4850001 -2.645 0.79100001 2
7.5009999 -2.6600001 0.71899998 2
7.4819999 -2.6289999 0.80500001 2
7.4840002 -2.6659999 0.79000002 2
7.4850001 -2.7349999 0.76899999 2
7.4809999 -2.6470001 0.80599999 2
7.4809999 -2.723 0.787 2
7.4949999 -2.582 0.76200002 2
7.5029998 -2.6530001 0.71200001 2
7.487 -2.651 0.78100002 2
7.4899998 -2.6989999 0.75400001 2
7.4860001 -2.5799999 0.80199999 2
7.4920001 -2.572 0.778 2
7.487 -2.5239999 0.81 2
7.5029998 -2.5880001 0.727 2
7.4790001 -2.756 0.78899997 2
7.5019999 -2.6070001 0.72799999 2
7.487 -2.6500001 0.77999997 2
7.4910002 -2.5380001 0.78799999 2
7.4920001 -2.6730001 0.75199997 2
7.4860001 -2.6400001 0.78500003 2
7.4980001 -2.6600001 0.73100001 2
7.4840002 -2.6860001 0.78200001 2
7.4889998 -2.71 0.759 2
7.4860001 -2.6900001 0.77399999 2
7.4899998 -2.635 0.76999998 2
7.5019999 -2.6589999 0.71499997 2
7.513 -2.6270001 0.67799997 2
7.4879999 -2.6900001 0.76800001 2
7.4889998 -2.6010001 0.78100002 2
7.4819999 -2.714 0.78799999 2
7.4879999 -2.609 0.78600001 2
7.4850001 -2.599 0.79900002 2
7.494 -2.6800001 0.74400002 2
7.4980001 -2.632 0.74000001 2
7.4910002 -2.6059999 0.77499998 2
7.4879999 -2.5380001 0.801 2
7.4920001 -2.6300001 0.76200002 2
7.4770002 -2.7249999 0.80400002 2
7.494 -2.5450001 0.77499998 2
7.5009999 -2.572 0.73699999 2
7.4879999 -2.618 0.78299999 2
7.4879999 -2.7179999 0.75999999 2
7.4970002 -2.618 0.74400002 2
7.5089998 -2.622 0.69199997 2
7.4959998 -2.599 0.75300002 2
7.5159998 -2.6370001 0.66299999 2
7.4899998 -2.5480001 0.78899997 2
7.4889998 -2.707 0.75700003 2
7.5019999 -2.576 0.73500001 2
7.4889998 -2.586 0.78600001 2
7.4910002 -2.6429999 0.76300001 2
7.493 -2.674 0.74800003 2
7.4850001 -2.721 0.77399999 2
7.5100002 -2.608 0.69099998 2
7.4970002 -2.6099999 0.74800003 2
7.4920001 -2.4649999 0.56599998 2
7.5229998 -2.4400001 0.5 2
7.4910002 -2.5050001 0.52999997 2
7.4780002 -2.493 0.57800001 2
7.5219998 -2.451 0.49200001 2
7.5240002 -2.47 0.47099999 2
7.5100002 -2.4790001 0.5 2
7.5300002 -2.4189999 0.50199997 2
7.4770002 -2.484 0.58999997 2
7.5149999 -2.5250001 0.44100001 2
7.4850001 -2.4920001 0.55800003 2
7.4759998 -2.4779999 0.59899998 2
7.4980001 -2.527 0.48800001 2
7.5180001 -2.4990001 0.45699999 2
7.513 -2.506 0.465 2
7.5170002 -2.461 0.49599999 2
7.5300002 -2.401 0.51700002 2
7.4790001 -2.483 0.58600003 2
7.4860001 -2.434 0.61299998 2
7.5300002 -2.3900001 0.528 2
7.5029998 -2.4779999 0.52200001 2
7.5170002 -2.5079999 0.45300001 2
7.5100002 -2.424 0.55199999 2
7.494 -2.448 0.57599998 2
7.474 -2.4530001 0.62900001 2
7.5310001 -2.421 0.49599999 2
7.506 -2.5409999 0.454 2
7.5029998 -2.5020001 0.49900001 2
7.5089998 -2.477 0.50400001 2
7.5149999 -2.4130001 0.54900002 2
7.5019999 -2.5039999 0.49900001 2
7.4970002 -2.4449999 0.56999999 2
7.4970002 -2.513 0.50599998 2
7.5190001 -2.48 0.47499999 2
7.5149999 -2.47 0.49599999 2
7.493 -2.473 0.55500001 2
7.4910002 -2.4260001 0.60500002 2
7.4949999 -2.483 0.53799999 2
7.5180001 -2.4849999 0.472 2
7.4920001 -2.441 0.58999997 2
7.5180001 -2.467 0.48800001 2
7.5149999 -2.448 0.51599997 2
7.5110002 -2.5580001 0.421 2
7.5089998 -2.444 0.537 2
7.4920001 -2.427 0.60000002 2
7.4980001 -2.444 0.56800002 2
7.4829998 -2.4449999 0.61000001 2
7.4899998 -2.4890001 0.54900002 2
7.4980001 -2.4909999 0.52399999 2
7.5219998 -2.4719999 0.472 2
7.4959998 -2.552 0.472 2
7.474 -2.444 0.63499999 2
7.5079999 -2.4489999 0.53399998 2
7.4770002 -2.4400001 0.63200003 2
7.5019999 -2.4170001 0.583 2
7.4990001 -2.441 0.56699997 2
7.527 -2.448 0.48100001 2
7.4949999 -2.4660001 0.55599999 2
7.4809999 -2.4679999 0.59399998 2
7.5159998 -2.4070001 0.55199999 2
7.5149999 -2.402 0.56 2
7.5079999 -2.559 0.42899999 2
7.474 -2.4489999 0.63200003 2
7.5289998 -2.415 0.50599998 2
7.5219998 -2.464 0.48100001 2
7.506 -2.5009999 0.491 2
7.5009999 -2.424 0.57800001 2
7.467 -2.45 0.65200001 2
7.5320001 -2.4059999 0.50800002 2
7.5079999 -2.4760001 0.50800002 2
7.5089998 -2.573 0.41299999 2
7.5089998 -2.484 0.498 2
7.527 -2.45 0.47999999 2
7.4949999 -2.4979999 0.52399999 2
7.5190001 -2.4089999 0.54100001 2
7.5040002 -2.4920001 0.50599998 2
7.506 -2.4200001 0.56800002 2
7.4990001 -2.5039999 0.509 2
7.5209999 -2.4230001 0.523 2
7.4889998 -2.506 0.53399998 2
7.5159998 -2.4300001 0.52999997 2
7.4910002 -2.5369999 0.5 2
7.4899998 -2.437 0.59899998 2
7.4689999 -2.4460001 0.64999998 2
7.5349998 -2.391 0.51300001 2
7.5 -2.4809999 0.52600002 2
7.4650002 -2.45 0.65600002 2
7.4889998 -2.4879999 0.55199999 2
7.5159998 -2.4790001 0.48199999 2
7.526 -2.3959999 0.53399998 2
7.4829998 -2.4460001 0.60900003 2
7.4899998 -2.484 0.55199999 2
7.474 -2.4590001 0.62099999 2
7.5040002 -2.5569999 0.442 2
7.4829998 -2.4890001 0.56800002 2
7.5250001 -2.4660001 0.47099999 2
7.4860001 -2.483 0.565 2
7.4910002 -2.533 0.50300002 2
7.5079999 -2.438 0.54500002 2
7.5170002 -2.4649999 0.49599999 2
7.507 -2.5469999 0.44400001 2
7.5050001 -2.4860001 0.50700003 2
7.513 -2.4679999 0.50300002 2
7.4970002 -2.5420001 0.47799999 2
7.52 -2.4690001 0.48300001 2
7.4980001 -2.5309999 0.48500001 2
7.5 -2.428 0.57599998 2
7.5279999 -2.4389999 0.48800001 2
7.4860001 -2.434 0.61199999 2
7.5190001 -2.401 0.55000001 2
7.4809999 -2.473 0.588 2
7.5050001 -2.494 0.5 2
7.4840002 -2.4579999 0.59399998 2
7.5009999 -2.464 0.54100001 2
7.4990001 -2.543 0.46900001 2
7.4920001 -2.5139999 0.51800001 2
7.4790001 -2.471 0.59799999 2
7.48 -2.4860001 0.57800001 2
7.5320001 -2.3959999 0.51800001 2
7.4850001 -2.4449999 0.60500002 2
7.5149999 -2.4779999 0.48699999 2
7.5120001 -2.5569999 0.41999999 2
7.5029998 -2.415 0.58099997 2
7.4990001 -2.421 0.588 2
7.4920001 -2.487 0.546 2
7.4899998 -2.49 0.54699999 2
7.4959998 -2.503 0.51800001 2
7.5120001 -2.4790001 0.49599999 2
7.4850001 -2.4349999 0.61500001 2
7.4819999 -2.4579999 0.60000002 2
7.4699998 -2.4619999 0.63099998 2
7.5100002 -2.4860001 0.495 2
7.5190001 -2.4909999 0.46399999 2
7.4959998 -2.529 0.49200001 2
7.527 -2.438 0.49000001 2
7.5209999 -2.438 0.50800002 2
7.5139999 -2.4960001 0.47400001 2
7.5139999 -2.438 0.52899998 2
7.5240002 -2.457 0.48199999 2
7.5040002 -2.4400001 0.55599999 2
7.5050001 -2.4619999 0.53200001 2
7.5180001 -2.4990001 0.45699999 2
7.5149999 -2.4949999 0.47099999 2
7.5279999 -2.4230001 0.50300002 2
7.4920001 -2.471 0.56099999 2
7.4840002 -2.447 0.60500002 2
7.52 -2.427 0.52100003 2
7.5159998 -2.46 0.50300002 2
7.513 -2.47 0.50199997 2
7.4780002 -2.4690001 0.60000002 2
7.493 -2.5050001 0.523 2
7.5040002 -2.5109999 0.48899999 2
7.5159998 -2.415 0.54500002 2
7.4910002 -2.4489999 0.58399999 2
7.4980001 -2.5369999 0.48100001 2
7.4949999 -2.5209999 0.50300002 2
7.5110002 -2.467 0.50999999 2
7.5050001 -2.563 0.43399999 2
7.5149999 -2.473 0.493 2
7.533 -2.398 0.51200002 2
7.4829998 -2.4760001 0.57999998 2
7.507 -2.431 0.55599999 2
7.4879999 -2.513 0.53200001 2
7.5219998 -2.477 0.46799999 2
7.5029998 -2.5739999 0.42899999 2
7.5079999 -2.4820001 0.50199997 2
7.5110002 -2.434 0.53899997 2
7.5170002 -2.4200001 0.53600001 2
7.4860001 -2.4460001 0.60100001 2
7.5300002 -2.388 0.52899998 2
7.52 -2.4949999 0.45699999 2
7.487 -2.5039999 0.54400003 2
7.4749999 -2.4719999 0.60699999 2
7.5019999 -2.5109999 0.49399999 2
7.4970002 -2.529 0.491 2
7.507 -2.4860001 0.50300002 2
7.5250001 -2.46 0.47600001 2
7.4829998 -2.4909999 0.56599998 2
7.52 -2.405 0.542 2
7.5180001 -2.431 0.523 2
7.4720001 -2.4549999 0.63200003 2
7.4860001 -2.5150001 0.53600001 2
7.487 -2.503 0.54299998 2
7.4860001 -2.4960001 0.55199999 2
7.5110002 -2.5409999 0.43799999 2
7.5180001 -2.448 0.50800002 2
7.4990001 -2.4560001 0.55400002 2
7.4920001 -2.425 0.60500002 2
7.4949999 -2.4649999 0.55500001 2
7.5240002 -2.401 0.53399998 2
7.4850001 -2.517 0.53500003 2
7.4889998 -2.503 0.537 2
7.4749999 -2.46 0.61799997 2
7.4910002 -2.516 0.52100003 2
7.4959998 -2.493 0.52600002 2
7.4819999 -2.477 0.58200002 2
7.5120001 -2.4389999 0.53299999 2
7.5149999 -2.5339999 0.433 2
7.4899998 -2.5020001 0.537 2
7.5139999 -2.5090001 0.461 2
7.5050001 -2.5580001 0.44100001 2
7.507 -2.431 0.55500001 2
7.493 -2.4619999 0.56599998 2
7.4980001 -2.4360001 0.57499999 2
7.493 -2.457 0.56999999 2
7.5019999 -2.437 0.56400001 2
7.493 -2.4660001 0.56199998 2
7.5029998 -2.53 0.47099999 2
7.487 -2.4820001 0.56400001 2
7.5040002 -2.5539999 0.44600001 2
7.5050001 -2.5580001 0.43900001 2
7.4959998 -2.5569999 0.465 2
7.5159998 -2.414 0.546 2
7.52 -2.3740001 0.58499998 2
7.5029998 -2.3970001 0.60699999 2
7.5110002 -2.3940001 0.58600003 2
7.5159998 -2.3940001 0.56699997 2
7.4829998 -2.4200001 0.64099997 2
7.4949999 -2.3959999 0.63499999 2
7.5050001 -2.3859999 0.61900002 2
7.4889998 -2.4030001 0.64399999 2
7.5029998 -2.408 0.59100002 2
7.4959998 -2.4089999 0.61400002 2
7.5110002 -2.369 0.62099999 2
7.4850001 -2.428 0.62300003 2
7.487 -2.402 0.65399998 2
7.4899998 -2.4059999 0.63800001 2
7.5 -2.4100001 0.59799999 2
7.5159998 -2.3789999 0.58899999 2
7.4829998 -2.4070001 0.66100001 2
7.4980001 -2.378 0.65200001 2
7.4829998 -2.4070001 0.66000003 2
7.48 -2.421 0.64899999 2
7.5089998 -2.3870001 0.60100001 2
7.5120001 -2.3829999 0.597 2
7.5289998 -2.3829999 0.54100001 2
7.4860001 -2.404 0.65200001 2
7.4980001 -2.372 0.66000003 2
7.5100002 -2.381 0.60600001 2
7.5019999 -2.382 0.634 2
7.5310001 -2.3800001 0.54100001 2
7.507 -2.3959999 0.59399998 2
7.5009999 -2.3970001 0.61500001 2
7.4889998 -2.421 0.61699998 2
7.5050001 -2.3729999 0.63499999 2
7.5089998 -2.3770001 0.61699998 2
7.473 -2.4389999 0.64499998 2
7.5209999 -2.385 0.56599998 2
7.4809999 -2.411 0.66100001 2
7.4879999 -2.405 0.64499998 2
7.494 -2.3840001 0.65600002 2
7.5009999 -2.4070001 0.59799999 2
7.5050001 -2.3959999 0.60100001 2
7.4990001 -2.3900001 0.63 2
7.52 -2.3929999 0.55400002 2
7.4949999 -2.4070001 0.61799997 2
7.5110002 -2.3889999 0.59200001 2
7.4959998 -2.402 0.62400001 2
7.493 -2.408 0.62400001 2
7.4689999 -2.4430001 0.65200001 2
7.4790001 -2.4349999 0.63099998 2
7.4959998 -2.404 0.61900002 2
7.5279999 -2.385 0.54299998 2
7.4990001 -2.3959999 0.62300003 2
7.5219998 -2.385 0.56199998 2
7.507 -2.3759999 0.62400001 2
7.5029998 -2.3900001 0.616 2
7.5209999 -2.3940001 0.55000001 2
7.4920001 -2.398 0.64099997 2
7.5050001 -2.3940001 0.60500002 2
7.5279999 -2.3870001 0.53899997 2
7.5139999 -2.395 0.57300001 2
7.5079999 -2.381 0.61500001 2
7.4860001 -2.401 0.65799999 2
7.4889998 -2.401 0.64700001 2
7.4860001 -2.4130001 0.63999999 2
7.4829998 -2.4130001 0.64999998 2
7.5180001 -2.388 0.56999999 2
7.5040002 -2.3710001 0.64300001 2
7.493 -2.3929999 0.648 2
7.4819999 -2.4130001 0.65200001 2
7.5100002 -2.3789999 0.61199999 2
7.4910002 -2.4170001 0.61699998 2
7.5149999 -2.385 0.58399999 2
7.5089998 -2.7449999 0.36399999 2
7.52 -2.7160001 0.36199999 2
7.533 -2.73 0.34900001 2
7.533 -2.7460001 0.34599999 2
7.5089998 -2.773 0.35800001 2
7.513 -2.7509999 0.359 2
7.5170002 -2.664 0.37599999 2
7.5149999 -2.72 0.36500001 2
7.5079999 -2.6659999 0.38299999 2
7.513 -2.688 0.373 2
7.5159998 -2.783 0.34999999 2
7.513 -2.724 0.36500001 2
7.5079999 -2.6949999 0.37599999 2
7.5100002 -2.6719999 0.37900001 2
7.5159998 -2.6440001 0.38100001 2
7.5089998 -2.6860001 0.377 2
7.5089998 -2.717 0.37 2
7.5149999 -2.7379999 0.361 2
7.5240002 -2.7349999 0.35499999 2
7.52 -2.694 0.36700001 2
7.5190001 -2.7219999 0.36199999 2
7.507 -2.714 0.37200001 2
7.5229998 -2.767 0.34799999 2
7.5209999 -2.777 0.34799999 2
7.5279999 -2.743 0.34999999 2
7.526 -2.7590001 0.34799999 2
7.5229998 -2.6989999 0.36399999 2
7.5110002 -2.777 0.35499999 2
7.5100002 -2.7 0.373 2
7.5159998 -2.652 0.37900001 2
7.5120001 -2.7490001 0.361 2
7.507 -2.8050001 0.352 2
7.5209999 -2.7420001 0.35600001 2
7.513 -2.711 0.368 2
7.5250001 -2.7420001 0.352 2
7.5159998 -2.76 0.35499999 2
7.5100002 -2.665 0.38100001 2
7.5209999 -2.678 0.37 2
7.5229998 -2.698 0.36399999 2
7.5180001 -2.72 0.36300001 2
7.5229998 -2.7190001 0.62400001 2
7.5089998 -2.74 0.67199999 2
7.5110002 -2.7539999 0.66000003 2
7.5190001 -2.7609999 0.63300002 2
7.5159998 -2.7850001 0.63800001 2
7.5159998 -2.7279999 0.648 2
7.5159998 -2.7520001 0.64300001 2
7.507 -2.8299999 0.66600001 2
7.5209999 -2.668 0.63800001 2
7.5149999 -2.7679999 0.64399999 2
7.5120001 -2.7219999 0.662 2
7.5120001 -2.7079999 0.66399997 2
7.5120001 -2.7880001 0.65399998 2
7.5209999 -2.832 0.61500001 2
7.527 -2.8299999 0.58999997 2
7.5159998 -2.684 0.65399998 2
7.5110002 -2.793 0.65600002 2
7.5159998 -2.8069999 0.634 2
7.5219998 -2.8299999 0.611 2
7.5300002 -2.826 0.58099997 2
7.5170002 -2.767 0.63800001 2
7.5159998 -2.737 0.64399999 2
7.5120001 -2.826 0.648 2
7.5209999 -2.707 0.63200003 2
7.5320001 -2.816 0.57200003 2
7.5190001 -2.6989999 0.63800001 2
7.5100002 -2.777 0.66299999 2
7.5139999 -2.7590001 0.648 2
7.5219998 -2.7750001 0.61799997 2
7.5139999 -2.7579999 0.648 2
7.5250001 -2.7349999 0.61000001 2
7.5180001 -2.8039999 0.62900001 2
7.5120001 -2.763 0.65600002 2
7.5110002 -2.7290001 0.66399997 2
7.5110002 -2.7939999 0.65499997 2
7.5289998 -2.8110001 0.58700001 2
7.513 -2.7520001 0.653 2
7.506 -2.7479999 0.68199998 2
7.5120001 -2.812 0.65100002 2
7.5219998 -2.668 0.63200003 2
7.5050001 -2.7920001 0.67799997 2
7.494 -2.822 0.71499997 2
7.5089998 -2.73 0.67400002 2
7.5170002 -2.697 0.64899999 2
7.5229998 -2.7880001 0.61400002 2
7.52 -2.8299999 0.61799997 2
7.5 -2.835 0.69199997 2
7.513 -2.747 0.65399998 2
7.5219998 -2.7550001 0.62199998 2
7.5279999 -2.823 0.58899999 2
7.527 -2.757 0.60100001 2
7.5170002 -2.7420001 0.64099997 2
7.5159998 -2.717 0.648 2
7.506 -2.7750001 0.67699999 2
7.5170002 -2.826 0.62800002 2
7.526 -2.766 0.60299999 2
7.5009999 -2.812 0.69099998 2
7.5120001 -2.7030001 0.66500002 2
7.5250001 -2.7409999 0.61000001 2
7.5180001 -2.7379999 0.63800001 2
7.5229998 -2.7490001 0.61900002 2
7.52 -2.6470001 0.64399999 2
7.4970002 -2.802 0.70599997 2
7.5209999 -2.8239999 0.61500001 2
7.5149999 -2.7409999 0.64999998 2
7.513 -2.737 0.65700001 2
7.5300002 -2.819 0.58200002 2
7.5050001 -2.7539999 0.68599999 2
7.5209999 -2.8110001 0.61699998 2
7.5310001 -2.836 0.57499999 2
7.5110002 -2.826 0.65100002 2
7.5149999 -2.756 0.64600003 2
7.5289998 -2.802 0.588 2
7.5310001 -2.819 0.57800001 2
7.5050001 -2.819 0.67299998 2
7.5180001 -2.825 0.62599999 2
7.5019999 -2.8329999 0.68400002 2
7.5180001 -2.7290001 0.63999999 2
7.5079999 -2.786 0.66799998 2
7.5089998 -2.7620001 0.66799998 2
7.513 -2.8380001 0.64200002 2
7.5029998 -2.823 0.68199998 2
7.526 -2.8139999 0.597 2
7.5209999 -2.7249999 0.62900001 2
7.5219998 -2.7539999 0.62 2
7.5139999 -2.711 0.65700001 2
7.5180001 -2.793 0.62800002 2
7.5149999 -2.747 0.64600003 2
7.533 -2.8310001 0.56800002 2
7.506 -2.776 0.67900002 2
7.5139999 -2.7620001 0.64899999 2
7.52 -2.7149999 0.63499999 2
7.5149999 -2.6700001 0.65799999 2
7.5190001 -2.6659999 0.64399999 2
7.5250001 -2.723 0.61400002 2
7.5139999 -2.7320001 0.65200001 2
7.5300002 -2.809 0.58399999 2
7.5219998 -2.7390001 0.62400001 2
7.5219998 -2.661 0.63499999 2
7.5209999 -2.7909999 0.62 2
7.526 -2.73 0.60799998 2
7.5180001 -2.7520001 0.634 2
7.5180001 -2.8099999 0.62900001 2
7.4949999 -2.819 0.71200001 2
7.5170002 -2.7609999 0.63700002 2
7.5050001 -2.744 0.68599999 2
7.4970002 -2.8169999 0.704 2
7.4970002 -2.8150001 0.70499998 2
7.5159998 -2.78 0.63800001 2
7.5209999 -2.836 0.611 2
7.5149999 -2.7709999 0.64300001 2
7.5279999 -2.819 0.58899999 2
7.5250001 -2.7969999 0.602 2
7.5139999 -2.727 0.65399998 2
7.5100002 -2.7780001 0.66100001 2
7.5159998 -2.766 0.64099997 2
7.5089998 -2.714 0.67500001 2
7.5149999 -2.737 0.64899999 2
7.5139999 -2.799 0.64499998 2
7.5079999 -2.809 0.66500002 2
7.5149999 -2.711 0.653 2
7.5229998 -2.747 0.61699998 2
7.5190001 -2.7460001 0.63300002 2
7.5040002 -2.7709999 0.68400002 2
7.4990001 -2.8169999 0.699 2
7.5229998 -2.835 0.60399997 2
7.4970002 -2.8110001 0.70599997 2
7.5050001 -2.8239999 0.676 2
7.5079999 -2.7290001 0.67500001 2
7.5289998 -2.7690001 0.59299999 2
7.5139999 -2.8050001 0.64399999 2
7.5240002 -2.7980001 0.60699999 2
7.526 -2.8039999 0.60000002 2
7.5170002 -2.6930001 0.648 2
7.5100002 -2.8269999 0.65399998 2
7.5250001 -2.7379999 0.61299998 2
7.5149999 -2.757 0.648 2
7.506 -2.7809999 0.67699999 2
7.5 -2.813 0.69400001 2
7.5149999 -2.8169999 0.63800001 2
7.4970002 -2.8210001 0.70499998 2
7.5009999 -2.786 0.69599998 2
7.5089998 -2.767 0.66600001 2
7.52 -2.7060001 0.63599998 2
7.5110002 -2.777 0.65799999 2
7.5029998 -2.7550001 0.69 2
7.507 -2.8099999 0.66900003 2
7.5229998 -2.7060001 0.62199998 2
7.5170002 -2.6819999 0.64999998 2
7.5240002 -2.776 0.60799998 2
7.513 -2.7880001 0.64899999 2
7.513 -2.786 0.648 2
7.5219998 -2.8069999 0.611 2
7.5019999 -2.7709999 0.69199997 2
7.5149999 -2.6830001 0.65799999 2
7.5110002 -2.8110001 0.65499997 2
7.5089998 -2.802 0.66299999 2
