# .PCD v0.7 - Point Cloud Data file format
VERSION 0.7
FIELDS x y z label
SIZE 4 4 4 4
TYPE F F F U
COUNT 1 1 1 1
WIDTH 1590
HEIGHT 1
VIEWPOINT 0 0 0 1 0 0 0
POINTS 1590
DATA ascii
5.566 -7.8130002 1.112 9
5.5339999 -7.8049998 1.158 9
5.5430002 -7.802 1.125 9
5.5469999 -7.8119998 1.158 9
5.5289998 -7.803 1.16 9
5.5359998 -7.8039999 1.15 9
5.5359998 -7.8060002 1.156 9
5.5469999 -7.802 1.118 9
5.546 -7.8049998 1.135 9
5.539 -7.8099999 1.166 9
5.5320001 -7.8010001 1.147 9
5.5819998 -7.8260002 1.146 9
5.552 -7.8179998 1.174 9
5.5279999 -7.803 1.1619999 9
5.5289998 -7.8039999 1.163 9
5.5300002 -7.8039999 1.159 9
5.5739999 -7.823 1.15 9
5.527 -7.8099999 1.193 9
5.5430002 -7.8109999 1.163 9
5.546 -7.8039999 1.13 9
5.5300002 -7.8119998 1.194 9
5.5440001 -7.8109999 1.1619999 9
5.5380001 -7.802 1.1390001 9
5.5349998 -7.8010001 1.137 9
5.5440001 -7.8099999 1.159 9
5.552 -7.8140001 1.159 9
5.5469999 -7.816 1.175 9
5.54 -7.8119998 1.174 9
5.539 -7.8099999 1.1670001 9
5.5560002 -7.8109999 1.138 9
5.5580001 -7.8150001 1.149 9
5.5689998 -7.8239999 1.164 9
5.5380001 -7.802 1.137 9
5.5279999 -7.809 1.1849999 9
5.5650001 -7.8169999 1.142 9
5.5489998 -7.8169999 1.176 9
5.5479999 -7.8039999 1.127 9
5.5279999 -7.8049998 1.1670001 9
5.5500002 -7.8039999 1.123 9
5.552 -7.8109999 1.145 9
5.5609999 -7.816 1.15 9
5.5949998 -7.9299998 0.99299997 9
5.5890002 -7.9190001 1 9
5.6100001 -7.9330001 1.033 9
5.6040001 -7.928 1.025 9
5.5949998 -7.941 0.97500002 9
5.5900002 -7.914 1.012 9
5.5939999 -7.9109998 1.027 9
5.5970001 -7.921 1.018 9
5.598 -7.921 1.021 9
5.5960002 -7.9159999 1.024 9
5.5869999 -7.9050002 1.0190001 9
5.6069999 -7.9400001 1.01 9
5.6030002 -7.9239998 1.028 9
5.5890002 -7.9159999 1.005 9
5.6129999 -7.9380002 1.03 9
5.6020002 -7.9400001 0.99599999 9
5.6069999 -7.9320002 1.027 9
5.5929999 -7.9229999 1.002 9
5.5999999 -7.9159999 1.0369999 9
5.592 -7.908 1.028 9
5.5970001 -7.9159999 1.028 9
5.592 -7.9219999 1.003 9
5.5939999 -7.9190001 1.0140001 9
5.612 -7.934 1.036 9
5.6139998 -7.9429998 1.024 9
5.5970001 -7.9390001 0.98400003 9
5.598 -7.928 1.006 9
5.6040001 -7.9359999 1.0089999 9
5.619 -7.9419999 1.04 9
5.6069999 -7.9229999 1.0420001 9
5.5970001 -7.902 0.903 9
5.5999999 -7.8800001 0.82499999 9
5.6100001 -7.9130001 0.861 9
5.6269999 -7.9359999 0.83099997 9
5.5970001 -7.8850002 0.85799998 9
5.6170001 -7.915 0.82700002 9
5.6009998 -7.881 0.824 9
5.6030002 -7.9029999 0.87099999 9
5.5970001 -7.9000001 0.89499998 9
5.5949998 -7.8969998 0.90100002 9
5.605 -7.901 0.85600001 9
5.605 -7.8870001 0.81900001 9
5.618 -7.9219999 0.84100002 9
5.6079998 -7.901 0.84100002 9
5.598 -7.901 0.89200002 9
5.6069999 -7.8979998 0.83700001 9
5.6139998 -7.9229999 0.86299998 9
5.6059999 -7.8979998 0.84399998 9
5.6059999 -7.9070001 0.86799997 9
5.6059999 -7.9130001 0.87900001 9
5.5970001 -7.8899999 0.86799997 9
5.619 -7.927 0.84799999 9
5.6020002 -7.8909998 0.84600002 9
5.6209998 -7.9219999 0.824 9
5.6020002 -7.8899999 0.84500003 9
5.5999999 -7.9029999 0.88800001 9
5.6209998 -7.9289999 0.847 9
5.605 -7.902 0.85799998 9
5.6149998 -7.9120002 0.82999998 9
5.605 -7.9099998 0.87900001 9
5.6020002 -7.9060001 0.88700002 9
5.6269999 -7.9390001 0.83700001 9
5.6040001 -7.895 0.84399998 9
5.5949998 -7.8920002 0.884 9
5.618 -7.9219999 0.83999997 9
5.6079998 -7.8899999 0.81400001 9
5.618 -7.927 0.85500002 9
5.6090002 -7.9000001 0.833 9
5.598 -7.882 0.84299999 9
5.6110001 -7.9000001 0.82200003 9
5.6129999 -7.9050002 0.82300001 9
5.605 -7.908 0.87400001 9
5.5960002 -7.8899999 0.87300003 9
5.573 -7.8709998 0.85000002 9
5.5650001 -7.8610001 0.83099997 9
5.5739999 -7.8699999 0.847 9
5.559 -7.8670001 0.85699999 9
5.5830002 -7.888 0.88999999 9
5.573 -7.8759999 0.86400002 9
5.5890002 -7.8769999 0.847 9
5.5710001 -7.8779998 0.875 9
5.5739999 -7.868 0.84200001 9
5.5929999 -7.8969998 0.90600002 9
5.572 -7.8800001 0.88099998 9
5.5780001 -7.8670001 0.83099997 9
5.572 -7.8629999 0.82800001 9
5.559 -7.868 0.85699999 9
5.585 -7.8720002 0.83899999 9
5.5869999 -7.8829999 0.87099999 9
5.5910001 -7.8909998 0.88999999 9
5.5640001 -7.8740001 0.86900002 9
5.5939999 -7.8979998 0.90799999 9
5.5879998 -7.8920002 0.89499998 9
5.5609999 -7.8720002 0.86699998 9
5.5819998 -7.8779998 0.85799998 9
5.5960002 -7.875 0.83200002 9
5.5510001 -7.8579998 0.838 9
5.586 -7.8800001 0.861 9
5.5669999 -7.8709998 0.85799998 9
5.5799999 -7.8779998 0.86400002 9
5.5430002 -7.8569999 0.84399998 9
5.552 -7.8569999 0.83499998 9
5.5489998 -7.8579998 0.84100002 9
5.5830002 -7.868 0.82999998 9
5.552 -7.8579998 0.838 9
5.599 -7.7410002 0.322 9
5.592 -7.7410002 0.32800001 9
5.5409999 -7.7410002 0.32300001 9
5.6090002 -7.7420001 0.278 9
5.5599999 -7.7420001 0.29699999 9
5.5840001 -7.7420001 0.289 9
5.605 -7.7410002 0.296 9
5.5240002 -7.7410002 0.315 9
5.5619998 -7.7420001 0.29800001 9
5.6040001 -7.7420001 0.26300001 9
5.5710001 -7.7420001 0.285 9
5.559 -7.7410002 0.308 9
5.4980001 -7.7410002 0.32300001 9
5.5830002 -7.7420001 0.29100001 9
5.5939999 -7.7420001 0.25999999 9
5.5190001 -7.7410002 0.322 9
5.5159998 -7.7410002 0.31900001 9
5.5949998 -7.7420001 0.266 9
5.5110002 -7.7410002 0.331 9
5.5279999 -7.7420001 0.303 9
5.6149998 -7.7399998 0.322 9
5.5809999 -7.7420001 0.27500001 9
5.5879998 -7.7410002 0.29100001 9
5.6230001 -7.7410002 0.28099999 9
5.6350002 -7.7399998 0.32699999 9
5.6110001 -7.7410002 0.289 9
5.6009998 -7.7420001 0.25799999 9
5.5890002 -7.7420001 0.26800001 9
5.6279998 -7.7410002 0.29899999 9
5.552 -7.7410002 0.30899999 9
5.5970001 -7.7410002 0.30899999 9
5.5939999 -7.7420001 0.278 9
5.6399999 -7.7399998 0.329 9
5.5500002 -7.7410002 0.32100001 9
5.6259999 -7.7410002 0.29300001 9
5.612 -7.7420001 0.25299999 9
5.605 -7.7420001 0.257 9
5.6199999 -7.7410002 0.285 9
5.5580001 -7.7410002 0.32600001 9
5.5770001 -7.7410002 0.30500001 9
5.5640001 -7.7410002 0.329 9
5.612 -7.7420001 0.248 9
5.6209998 -7.7410002 0.29699999 9
5.6079998 -7.7420001 0.27500001 9
5.5830002 -7.7410002 0.29800001 9
5.5180001 -7.7420001 0.31200001 9
5.6170001 -7.7420001 0.264 9
5.5770001 -7.7410002 0.29499999 9
5.612 -7.7399998 0.331 9
5.5970001 -7.7420001 0.26499999 9
5.6149998 -7.7410002 0.28299999 9
5.546 -7.7420001 0.301 9
5.526 -7.7410002 0.32600001 9
5.4959998 -7.7410002 0.322 9
5.5830002 -7.7410002 0.29499999 9
5.5689998 -7.7420001 0.27700001 9
5.5320001 -7.7420001 0.30000001 9
5.5609999 -7.7420001 0.287 9
5.5780001 -7.7410002 0.29899999 9
5.507 -7.7410002 0.31999999 9
5.4899998 -7.7410002 0.32699999 9
5.6160002 -7.7420001 0.273 9
5.5229998 -7.7420001 0.303 9
5.612 -7.7420001 0.26300001 9
5.5180001 -7.7410002 0.31999999 9
5.5910001 -7.7410002 0.29499999 9
5.5409999 -7.7410002 0.324 9
5.6079998 -7.7420001 0.26199999 9
5.5489998 -7.7410002 0.32100001 9
5.5749998 -7.7420001 0.278 9
5.6339998 -7.7399998 0.32499999 9
5.5619998 -7.7410002 0.308 9
5.5120001 -7.7420001 0.31299999 9
5.5359998 -7.7420001 0.296 9
5.6040001 -7.7399998 0.331 9
5.5840001 -7.7420001 0.28400001 9
5.612 -7.7410002 0.28400001 9
5.5510001 -7.7410002 0.31799999 9
5.5159998 -7.7410002 0.324 9
5.6290002 -7.9549999 0.77700001 9
5.6030002 -7.9180002 0.77399999 9
5.6290002 -7.9510002 0.79400003 9
5.605 -7.921 0.77399999 9
5.5949998 -7.9050002 0.78399998 9
5.6199999 -7.9380002 0.79100001 9
5.6209998 -7.9359999 0.80199999 9
5.6240001 -7.9460001 0.78399998 9
5.631 -7.9619999 0.76200002 9
5.6149998 -7.9289999 0.79400003 9
5.6199999 -7.9439998 0.76800001 9
5.6279998 -7.9510002 0.78500003 9
5.6279998 -7.9499998 0.78600001 9
5.6199999 -7.9390001 0.79100001 9
5.6110001 -7.9260001 0.79100001 9
5.631 -7.9520001 0.79699999 9
5.5890002 -7.8990002 0.76999998 9
5.632 -7.948 0.815 9
5.586 -7.8940001 0.77399999 9
5.6290002 -7.9549999 0.77600002 9
5.6009998 -7.9169998 0.76899999 9
5.6259999 -7.941 0.81199998 9
5.6339998 -7.9530001 0.80699998 9
5.6059999 -7.9180002 0.79100001 9
5.6240001 -7.9489999 0.77399999 9
5.6220002 -7.9489999 0.76099998 9
5.6009998 -7.915 0.77499998 9
5.5890002 -7.8990002 0.76999998 9
5.605 -7.9200001 0.77899998 9
5.6100001 -7.9250002 0.78899997 9
5.6100001 -7.9200001 0.75599998 9
5.6240001 -7.9200001 0.73799998 9
5.5939999 -7.8979998 0.75999999 9
5.6149998 -7.928 0.755 9
5.6009998 -7.915 0.76300001 9
5.612 -7.9289999 0.759 9
5.6009998 -7.915 0.76300001 9
5.598 -7.9029999 0.759 9
5.6129999 -7.9000001 0.73900002 9
5.612 -7.9050002 0.74299997 9
5.632 -7.9359999 0.73900002 9
5.612 -7.9050002 0.74299997 9
5.6290002 -7.9289999 0.73900002 9
5.6269999 -7.9120002 0.73000002 9
5.6420002 -7.9369998 0.727 9
5.592 -7.9039998 0.76599997 9
5.6209998 -7.941 0.75700003 9
5.6459999 -7.914 0.708 9
5.6329999 -7.9429998 0.74299997 9
5.605 -7.9039998 0.75099999 9
5.6209998 -7.9439998 0.759 9
5.638 -7.9460001 0.73900002 9
5.6290002 -7.9229999 0.73500001 9
5.6300001 -7.9349999 0.74199998 9
5.6440001 -7.9190001 0.71399999 9
5.6139998 -7.9260001 0.755 9
5.6339998 -7.9510002 0.74699998 9
5.6360002 -7.9260001 0.72799999 9
5.599 -7.9039998 0.75800002 9
5.6339998 -7.9580002 0.75199997 9
5.625 -7.9190001 0.73699999 9
5.638 -7.9429998 0.73699999 9
5.6350002 -7.9219999 0.727 9
5.632 -7.9219999 0.73000002 9
5.6110001 -7.908 0.80800003 9
5.5939999 -7.9000001 0.78500003 9
5.599 -7.8829999 0.801 9
5.6149998 -7.9099998 0.81300002 9
5.6100001 -7.9120002 0.80500001 9
5.6160002 -7.914 0.81300002 9
5.6040001 -7.888 0.80699998 9
5.6009998 -7.9029999 0.79400003 9
5.5929999 -7.8839998 0.792 9
5.5840001 -7.8909998 0.773 9
5.605 -7.9039998 0.80000001 9
5.6230001 -7.9359999 0.81300002 9
5.5970001 -7.8969998 0.79000002 9
5.586 -7.8829999 0.77999997 9
5.6079998 -7.9099998 0.80299997 9
5.5900002 -7.8850002 0.78600001 9
5.5830002 -7.8850002 0.77399999 9
5.6139998 -7.9239998 0.80500001 9
5.6069999 -7.8889999 0.81199998 9
5.586 -7.8889999 0.778 9
5.6040001 -7.9060001 0.79900002 9
5.619 -7.8839998 1.2359999 9
5.6360002 -7.8979998 1.23 9
5.6079998 -7.8759999 1.24 9
5.631 -7.8940001 1.229 9
5.5999999 -7.8699999 1.244 9
5.645 -7.9039998 1.224 9
5.618 -7.8839998 1.2309999 9
5.6259999 -7.8899999 1.209 9
5.6139998 -7.881 1.22 9
5.6020002 -7.8720002 1.242 9
5.6100001 -7.8779998 1.223 9
5.6199999 -7.8850002 1.23 9
5.6300001 -7.8930001 1.211 9
5.6339998 -7.8959999 1.214 9
5.6069999 -7.8670001 1.2079999 9
5.6030002 -7.8429999 1.163 9
5.6020002 -7.8590002 1.209 9
5.6139998 -7.8670001 1.181 9
5.605 -7.8720002 1.225 9
5.6079998 -7.8579998 1.181 9
5.6040001 -7.8439999 1.166 9
5.612 -7.8730001 1.204 9
5.6069999 -7.8740001 1.222 9
5.6139998 -7.8730001 1.196 9
5.5970001 -7.8600001 1.228 9
5.6020002 -7.8439999 1.173 9
5.599 -7.869 1.2410001 9
5.618 -7.8769999 1.1900001 9
5.6059999 -7.8559999 1.187 9
5.6100001 -7.8660002 1.197 9
5.6009998 -7.8629999 1.22 9
5.6110001 -7.8740001 1.212 9
5.6100001 -7.8559999 1.1720001 9
5.605 -7.869 1.2180001 9
5.6079998 -7.8709998 1.215 9
5.592 -7.8740001 1.059 9
5.6030002 -7.8720002 1.081 9
5.612 -7.8720002 1.1 9
5.599 -7.8800001 1.0700001 9
5.6009998 -7.8769999 1.076 9
5.5890002 -7.8670001 1.058 9
5.5890002 -7.8870001 1.046 9
5.6020002 -7.8699999 1.082 9
5.5910001 -7.8579998 1.068 9
5.5949998 -7.881 1.061 9
5.6090002 -7.8639998 1.099 9
5.5890002 -7.8499999 1.068 9
5.5960002 -7.8600001 1.075 9
5.6129999 -7.868 1.104 9
5.5900002 -7.8470001 1.073 9
5.6040001 -7.8520002 1.096 9
5.598 -7.8730001 1.071 9
5.6020002 -7.8709998 1.081 9
5.605 -7.8649998 1.09 9
5.5929999 -7.8299999 1.089 9
5.6009998 -7.8740001 1.076 9
5.5960002 -7.8390002 1.0880001 9
5.5819998 -7.8889999 1.031 9
5.605 -7.8470001 1.125 9
5.6020002 -7.8449998 1.099 9
5.598 -7.836 1.115 9
5.599 -7.8379998 1.119 9
5.6059999 -7.8509998 1.117 9
5.6040001 -7.848 1.102 9
5.6030002 -7.8460002 1.1109999 9
5.6009998 -7.8390002 1.145 9
5.6030002 -7.8460002 1.107 9
5.612 -7.8629999 1.119 9
5.6040001 -7.8470001 1.12 9
5.6100001 -7.8569999 1.119 9
5.6079998 -7.8540001 1.122 9
5.605 -7.8460002 1.1339999 9
5.599 -7.8400002 1.101 9
5.6020002 -7.8429999 1.1210001 9
5.6110001 -7.9050002 1.066 9
5.6139998 -7.9169998 1.0599999 9
5.605 -7.914 1.048 9
5.5949998 -7.9000001 1.045 9
5.6009998 -7.8899999 1.064 9
5.6170001 -7.882 1.099 9
5.6040001 -7.8889999 1.0700001 9
5.6160002 -7.8909998 1.0880001 9
5.6139998 -7.9109998 1.0650001 9
5.605 -7.902 1.059 9
5.6209998 -7.9099998 1.0779999 9
5.6020002 -7.908 1.0470001 9
5.612 -7.908 1.0650001 9
5.6139998 -7.9159999 1.061 9
5.6079998 -7.901 1.0650001 9
5.625 -7.9419999 1.0549999 9
5.625 -7.9439998 1.054 9
5.598 -7.8979998 1.051 9
5.6110001 -7.888 1.082 9
5.6090002 -7.9229999 1.046 9
5.6209998 -7.9089999 1.079 9
5.605 -7.8790002 1.081 9
5.6160002 -7.8940001 1.086 9
5.6129999 -7.8909998 1.0829999 9
5.6209998 -7.9190001 1.0700001 9
5.6149998 -7.8889999 1.0880001 9
5.6240001 -7.9390001 1.0549999 9
5.6149998 -7.9219999 1.057 9
5.6199999 -7.9120002 1.074 9
5.5939999 -7.9060001 1.0369999 9
5.6139998 -7.8649998 1.148 9
5.6170001 -7.8720002 1.143 9
5.6090002 -7.8530002 1.153 9
5.6160002 -7.869 1.173 9
5.6209998 -7.8800001 1.183 9
5.612 -7.8610001 1.154 9
5.618 -7.875 1.1390001 9
5.6240001 -7.8860002 1.186 9
5.6100001 -7.8569999 1.169 9
5.6110001 -7.8590002 1.1670001 9
5.6139998 -7.8660002 1.164 9
5.6139998 -7.8639998 1.173 9
5.6170001 -7.8730001 1.176 9
5.6139998 -7.8649998 1.141 9
5.6090002 -7.855 1.149 9
5.619 -7.8759999 1.1720001 9
5.6199999 -7.8790002 1.187 9
5.6139998 -7.8660002 1.176 9
5.6220002 -7.8829999 1.1720001 9
5.6259999 -7.8839998 1.158 9
5.6350002 -7.8959999 1.207 9
5.6230001 -7.8829999 1.16 9
5.6170001 -7.8709998 1.11 9
5.6329999 -7.8940001 1.197 9
5.6259999 -7.8870001 1.178 9
5.6399999 -7.9000001 1.21 9
5.6259999 -7.8850002 1.165 9
5.625 -7.8839998 1.163 9
5.2820001 -8.0150003 1.399 9
5.2820001 -7.9770002 1.377 9
5.289 -8.0010004 1.376 9
5.2849998 -7.9990001 1.383 9
5.2859998 -8.0019999 1.381 9
5.2870002 -8.0129995 1.388 9
5.2870002 -8.0129995 1.388 9
5.289 -8.0050001 1.378 9
5.2880001 -7.98 1.3660001 9
5.2820001 -7.9569998 1.364 9
5.2820001 -7.9660001 1.369 9
5.2880001 -7.9990001 1.377 9
5.283 -8.0159998 1.398 9
5.2870002 -7.9910002 1.373 9
5.2849998 -7.9949999 1.381 9
5.2820001 -7.9699998 1.372 9
5.289 -8.0100002 1.38 9
5.2839999 -8.0159998 1.395 9
5.283 -7.9640002 1.365 9
5.2849998 -7.9699998 1.365 9
5.2859998 -7.8860002 1.347 9
5.2849998 -7.8629999 1.345 9
5.2849998 -7.901 1.349 9
5.3080001 -7.8629999 1.335 9
5.2919998 -7.9060001 1.346 9
5.323 -7.8610001 1.327 9
5.3150001 -7.8870001 1.332 9
5.2849998 -7.9070001 1.349 9
5.3299999 -7.8639998 1.323 9
5.2969999 -7.8540001 1.34 9
5.29 -7.9099998 1.347 9
5.3010001 -7.862 1.3380001 9
5.2950001 -7.9060001 1.344 9
5.3280001 -7.869 1.325 9
5.309 -7.8860002 1.335 9
5.2930002 -7.9109998 1.345 9
5.3000002 -7.862 1.339 9
5.3130002 -7.8870001 1.3329999 9
5.3060002 -7.8790002 1.337 9
5.2870002 -7.8839998 1.347 9
5.3099999 -7.8649998 1.334 9
5.2930002 -7.882 1.344 9
5.283 -7.9169998 1.351 9
5.3150001 -7.8759999 1.332 9
5.355 -7.7930002 0.34599999 9
5.3730001 -7.777 0.34099999 9
5.2870002 -7.8010001 0.34799999 9
5.342 -7.8249998 0.35499999 9
5.4489999 -7.7610002 0.33700001 9
5.3909998 -7.8109999 0.35100001 9
5.4569998 -7.7449999 0.33199999 9
5.3400002 -7.8239999 0.354 9
5.302 -7.7950001 0.34599999 9
5.3369999 -7.8270001 0.35499999 9
5.3260002 -7.8080001 0.34999999 9
5.4000001 -7.7849998 0.34299999 9
5.3070002 -7.8099999 0.35100001 9
5.448 -7.75 0.333 9
5.3730001 -7.7940001 0.34599999 9
5.3410001 -7.7779999 0.34200001 9
5.348 -7.7859998 0.34400001 9
5.3850002 -7.8049998 0.34900001 9
5.4099998 -7.7919998 0.345 9
5.302 -7.7820001 0.34299999 9
5.4039998 -7.7670002 0.338 9
5.368 -7.8319998 0.35699999 9
5.3270001 -7.802 0.34799999 9
5.3979998 -7.7610002 0.33700001 9
5.3740001 -7.7690001 0.33899999 9
5.322 -7.789 0.345 9
5.3249998 -7.776 0.34099999 9
5.3439999 -7.8270001 0.35499999 9
5.3940001 -7.7800002 0.34200001 9
5.3080001 -7.8039999 0.34900001 9
5.473 -7.7449999 0.33199999 9
5.401 -7.777 0.34099999 9
5.3569999 -7.79 0.345 9
5.421 -7.7529998 0.33399999 9
5.3569999 -7.829 0.35600001 9
5.3590002 -7.829 0.35600001 9
5.3460002 -7.8260002 0.35499999 9
5.362 -7.7680001 0.33899999 9
5.283 -7.7849998 0.34400001 9
5.323 -7.796 0.34599999 9
5.3899999 -7.7849998 0.34299999 9
5.3829999 -7.7690001 0.33899999 9
5.3460002 -7.8010001 0.34799999 9
5.4250002 -7.7800002 0.34200001 9
5.467 -7.7490001 0.333 9
5.3319998 -7.7800002 0.34200001 9
5.3969998 -7.8039999 0.34900001 9
5.3759999 -7.7940001 0.34599999 9
5.3010001 -7.7690001 0.33899999 9
5.3649998 -7.7659998 0.338 9
5.461 -7.744 0.33199999 9
5.3400002 -7.8140001 0.35100001 9
5.3569999 -7.7940001 0.34599999 9
5.3610001 -7.803 0.34799999 9
5.3699999 -7.8060002 0.34900001 9
5.355 -7.8070002 0.34999999 9
5.3530002 -7.8319998 0.35699999 9
5.4190001 -7.763 0.33700001 9
5.3499999 -7.7969999 0.347 9
5.427 -7.7729998 0.34 9
5.349 -7.7740002 0.34 9
5.3119998 -7.809 0.34999999 9
5.3940001 -7.7740002 0.34 9
5.336 -7.783 0.34299999 9
5.3530002 -7.8060002 0.34900001 9
5.3249998 -7.7950001 0.34599999 9
5.3060002 -7.8060002 0.34900001 9
5.3330002 -7.7820001 0.34299999 9
5.3049998 -7.7930002 0.34599999 9
5.3189998 -7.7989998 0.34799999 9
5.4650002 -7.75 0.33399999 9
5.3070002 -7.8169999 0.35299999 9
5.329 -7.8150001 0.352 9
5.3379998 -7.836 0.35800001 9
5.3800001 -7.822 0.354 9
5.3319998 -7.822 0.354 9
5.309 -7.7859998 0.34400001 9
5.3920002 -7.796 0.34599999 9
5.3899999 -7.8000002 0.34799999 9
5.3379998 -7.7709999 0.33899999 9
5.382 -7.7969999 0.347 9
5.3390002 -7.783 0.34299999 9
5.362 -7.7979999 0.347 9
5.3109999 -7.8119998 0.35100001 9
5.3049998 -7.7979999 0.347 9
5.3540001 -7.8150001 0.352 9
5.3340001 -7.8080001 0.34999999 9
5.447 -7.757 0.33500001 9
5.3769999 -7.763 0.33700001 9
5.4530001 -7.7600002 0.336 9
5.3390002 -7.7659998 0.338 9
5.322 -7.8169999 0.352 9
5.3210001 -7.7789998 0.34200001 9
5.3730001 -7.796 0.34599999 9
5.3540001 -7.7680001 0.33899999 9
5.3579998 -7.836 0.35800001 9
5.3299999 -7.8340001 0.35699999 9
5.408 -7.7670002 0.338 9
5.3429999 -7.7639999 0.33700001 9
5.335 -7.7690001 0.33899999 9
5.382 -7.7810001 0.34200001 9
5.3779998 -7.8270001 0.35499999 9
5.3959999 -7.7589998 0.336 9
5.3439999 -7.8410001 0.359 9
5.3730001 -7.789 0.345 9
5.4289999 -7.8969998 0.34999999 9
5.4229999 -7.8909998 0.34900001 9
5.4219999 -7.8940001 0.35100001 9
5.454 -7.8899999 0.33199999 9
5.434 -7.9130001 0.35800001 9
5.3699999 -7.8629999 0.35800001 9
5.4369998 -7.875 0.331 9
5.4419999 -7.8979998 0.34299999 9
5.4229999 -7.882 0.34299999 9
5.4219999 -7.8889999 0.34799999 9
5.3909998 -7.8639998 0.34799999 9
5.4190001 -7.895 0.354 9
5.4029999 -7.8889999 0.35800001 9
5.3959999 -7.8860002 0.359 9
5.401 -7.875 0.34999999 9
5.3909998 -7.8769999 0.35600001 9
5.4039998 -7.868 0.34400001 9
5.4390001 -7.901 0.34799999 9
5.3990002 -7.8709998 0.34799999 9
5.4520001 -7.8850002 0.33000001 9
5.4130001 -7.8740001 0.34299999 9
5.4460001 -7.9190001 0.35600001 9
5.369 -7.862 0.35699999 9
5.4320002 -7.915 0.36000001 9
5.381 -7.8629999 0.352 9
5.4380002 -7.9060001 0.35100001 9
5.375 -7.869 0.359 9
5.4239998 -7.8870001 0.34599999 9
5.4299998 -7.9109998 0.359 9
5.4070001 -7.888 0.35499999 9
5.447 -7.8889999 0.33500001 9
5.4320002 -7.9089999 0.35699999 9
5.4489999 -7.8860002 0.33199999 9
5.4330001 -7.9159999 0.36000001 9
5.4450002 -7.9200001 0.35699999 9
5.4530001 -7.8959999 0.33700001 9
5.4239998 -7.8829999 0.34299999 9
5.4239998 -7.9120002 0.36199999 9
5.4200001 -7.9099998 0.36300001 9
5.3959999 -7.8759999 0.35299999 9
5.4460001 -7.7849998 0.33700001 9
5.4130001 -7.8670001 0.33899999 9
5.3850002 -7.8280001 0.35299999 9
5.4400001 -7.7750001 0.34 9
5.461 -7.7740002 0.333 9
5.4229999 -7.8140001 0.34099999 9
5.4390001 -7.8000002 0.33700001 9
5.4530001 -7.8429999 0.32800001 9
5.395 -7.8189998 0.34999999 9
5.4549999 -7.8340001 0.32800001 9
5.4219999 -7.8449998 0.338 9
5.4580002 -7.7680001 0.33500001 9
5.4569998 -7.7930002 0.33199999 9
5.4130001 -7.8210001 0.34400001 9
5.4629998 -7.8200002 0.32699999 9
5.4349999 -7.8470001 0.333 9
5.4749999 -7.7529998 0.33000001 9
5.4099998 -7.8530002 0.34099999 9
5.3979998 -7.8610001 0.345 9
5.4330001 -7.8439999 0.33500001 9
5.4580002 -7.8119998 0.33000001 9
5.401 -7.8590002 0.34400001 9
5.4380002 -7.8119998 0.33700001 9
5.4559999 -7.7789998 0.33399999 9
5.4549999 -7.8499999 0.32600001 9
5.4530001 -7.8759999 0.324 9
5.369 -7.8470001 0.35600001 9
5.4359999 -7.8039999 0.338 9
5.454 -7.8410001 0.32800001 9
5.3959999 -7.8499999 0.347 9
5.4390001 -7.8049998 0.33700001 9
5.408 -7.8449998 0.34299999 9
5.3979998 -7.8270001 0.34900001 9
5.4710002 -7.7740002 0.33000001 9
5.3959999 -7.8330002 0.34799999 9
5.427 -7.8639998 0.33399999 9
5.4180002 -7.8309999 0.34099999 9
5.3839998 -7.8369999 0.352 9
5.4530001 -7.8379998 0.32800001 9
5.4029999 -7.8140001 0.34799999 9
5.401 -7.829 0.347 9
5.4530001 -7.8150001 0.331 9
5.4710002 -7.7880001 0.32800001 9
5.402 -7.8559999 0.34400001 9
5.4050002 -7.8260002 0.34599999 9
5.4569998 -7.783 0.333 9
5.4689999 -7.79 0.32800001 9
5.4710002 -7.757 0.331 9
5.441 -7.8600001 0.33000001 9
5.4580002 -7.823 0.329 9
5.4590001 -7.8569999 0.324 9
5.4530001 -7.8699999 0.32499999 9
5.4450002 -7.8439999 0.33000001 9
5.4260001 -7.7880001 0.34299999 9
5.428 -7.7909999 0.34200001 9
5.4660001 -7.7519999 0.33399999 9
5.46 -7.7649999 0.33399999 9
5.4310002 -7.8130002 0.33899999 9
5.4169998 -7.8169999 0.34299999 9
5.4390001 -7.8200002 0.33500001 9
5.4109998 -7.835 0.34299999 9
5.4219999 -7.7989998 0.34299999 9
5.4619999 -7.8119998 0.32800001 9
5.4419999 -7.8569999 0.33000001 9
5.3959999 -7.8600001 0.345 9
5.4369998 -7.8470001 0.333 9
5.4320002 -7.8039999 0.34 9
5.3649998 -7.8470001 0.35699999 9
5.427 -7.8330002 0.338 9
5.4380002 -7.8699999 0.33000001 9
5.4250002 -7.8080001 0.34099999 9
5.415 -7.8660002 0.338 9
5.4039998 -7.8299999 0.34599999 9
5.4660001 -7.7550001 0.33399999 9
5.4359999 -7.802 0.338 9
5.408 -7.8210001 0.34599999 9
5.454 -7.8639998 0.32499999 9
5.3969998 -7.8460002 0.347 9
5.3839998 -7.8610001 0.34900001 9
5.3660002 -7.8470001 0.35699999 9
5.3969998 -7.8390002 0.347 9
5.408 -7.823 0.34599999 9
5.441 -7.8590002 0.33000001 9
5.4780002 -7.8720002 0.32499999 9
5.4850001 -7.7909999 0.33000001 9
5.461 -7.869 0.322 9
5.4850001 -7.8759999 0.32600001 9
5.513 -7.8639998 0.33000001 9
5.4809999 -7.7639999 0.33000001 9
5.4720001 -7.8319998 0.32600001 9
5.4720001 -7.8499999 0.32499999 9
5.494 -7.848 0.32800001 9
5.487 -7.7800002 0.331 9
5.4689999 -7.8759999 0.32300001 9
5.507 -7.8649998 0.329 9
5.4809999 -7.7620001 0.331 9
5.4990001 -7.8140001 0.331 9
5.4749999 -7.7810001 0.329 9
5.4910002 -7.8769999 0.32699999 9
5.5339999 -7.8569999 0.33399999 9
5.4970002 -7.8649998 0.32800001 9
5.4699998 -7.8060002 0.32699999 9
5.5229998 -7.8779998 0.331 9
5.4949999 -7.7859998 0.331 9
5.4980001 -7.7870002 0.33199999 9
5.4790001 -7.8140001 0.32800001 9
5.4780002 -7.8309999 0.32699999 9
5.4749999 -7.7919998 0.32800001 9
5.5229998 -7.8449998 0.333 9
5.5 -7.8169999 0.331 9
5.507 -7.8460002 0.33000001 9
5.487 -7.7859998 0.33000001 9
5.5120001 -7.835 0.33199999 9
5.5409999 -7.8759999 0.33399999 9
5.513 -7.8470001 0.331 9
5.5229998 -7.8540001 0.33199999 9
5.4809999 -7.7620001 0.33000001 9
5.493 -7.8140001 0.33000001 9
5.4829998 -7.8400002 0.32699999 9
5.5159998 -7.8200002 0.333 9
5.467 -7.8670001 0.32300001 9
5.507 -7.8249998 0.331 9
5.487 -7.8049998 0.329 9
5.5180001 -7.8280001 0.333 9
5.494 -7.777 0.33199999 9
5.5079999 -7.8470001 0.331 9
5.5050001 -7.835 0.331 9
5.5349998 -7.869 0.33399999 9
5.4920001 -7.8039999 0.33000001 9
5.52 -7.8319998 0.333 9
5.4850001 -7.763 0.331 9
5.473 -7.8319998 0.32600001 9
5.4759998 -7.8629999 0.32499999 9
5.4699998 -7.848 0.32499999 9
5.5240002 -7.8790002 0.331 9
5.48 -7.777 0.33000001 9
5.4790001 -7.789 0.329 9
5.4699998 -7.8179998 0.32600001 9
5.506 -7.7979999 0.333 9
5.487 -7.7690001 0.331 9
5.4689999 -7.8249998 0.32600001 9
5.4679999 -7.836 0.32499999 9
5.4699998 -7.8130002 0.32600001 9
5.487 -7.8200002 0.329 9
5.4970002 -7.8569999 0.32800001 9
5.467 -7.8509998 0.324 9
5.6329999 -8.0220003 0.333 9
5.6129999 -8.0150003 0.34099999 9
5.5609999 -7.9239998 0.34 9
5.546 -7.9489999 0.35499999 9
5.5489998 -7.9720001 0.36000001 9
5.631 -8.0150003 0.33199999 9
5.6149998 -8.0229998 0.34200001 9
5.6739998 -8.0810003 0.329 9
5.5500002 -7.8889999 0.33500001 9
5.5939999 -7.9819999 0.34099999 9
5.6240001 -8.0290003 0.33899999 9
5.553 -7.9710002 0.35800001 9
5.6160002 -8.0340004 0.345 9
5.5689998 -7.9419999 0.34099999 9
5.5910001 -7.9710002 0.33899999 9
5.5419998 -7.948 0.35699999 9
5.553 -7.973 0.35800001 9
5.5749998 -7.9489999 0.34 9
5.553 -7.8990002 0.33700001 9
5.5510001 -7.9089999 0.34099999 9
5.553 -7.8959999 0.336 9
5.5500002 -7.8899999 0.336 9
5.618 -8.0050001 0.33500001 9
5.605 -7.98 0.33500001 9
5.5549998 -7.9349999 0.34599999 9
5.6100001 -8.007 0.34 9
5.5630002 -7.941 0.34400001 9
5.6259999 -8.0190001 0.336 9
5.5479999 -7.9510002 0.35499999 9
5.6360002 -8.0220003 0.33199999 9
5.6149998 -8.0229998 0.34200001 9
5.6149998 -7.994 0.33399999 9
5.5830002 -8.0019999 0.352 9
5.5749998 -7.947 0.34 9
5.579 -7.9429998 0.33700001 9
5.619 -8.0240002 0.34 9
5.54 -7.9520001 0.359 9
5.605 -7.9790001 0.33399999 9
5.586 -7.973 0.34200001 9
5.6059999 -8.0229998 0.347 9
5.6020002 -7.98 0.336 9
5.573 -7.9840002 0.35100001 9
5.5869999 -7.9759998 0.34200001 9
5.5539999 -7.9089999 0.33899999 9
5.6459999 -8.059 0.33700001 9
5.6160002 -8.0290003 0.34299999 9
5.618 -8.0310001 0.34299999 9
5.5869999 -7.993 0.347 9
5.5409999 -7.9499998 0.35800001 9
5.6220002 -8.0240002 0.33899999 9
5.6609998 -8.066 0.33199999 9
5.5650001 -7.9809999 0.35499999 9
5.5749998 -7.9980001 0.35499999 9
5.6030002 -7.9840002 0.33700001 9
5.5809999 -7.9949999 0.35100001 9
5.6300001 -8.0310001 0.33700001 9
5.5570002 -7.954 0.35100001 9
5.5879998 -7.973 0.34099999 9
5.6329999 -8.0439997 0.33899999 9
5.5570002 -7.9369998 0.34599999 9
5.5960002 -7.96 0.333 9
5.5710001 -7.9629998 0.34599999 9
5.5479999 -7.948 0.35299999 9
5.6290002 -8.0279999 0.33700001 9
5.6059999 -8.0129995 0.34299999 9
5.658 -8.0649996 0.333 9
5.6329999 -8.0229998 0.333 9
5.5479999 -7.9310002 0.34799999 9
5.5739999 -7.9239998 0.33399999 9
5.651 -8.0640001 0.336 9
5.5539999 -7.9439998 0.34900001 9
5.5489998 -7.9390001 0.35100001 9
5.5760002 -7.9650002 0.345 9
5.6389999 -8.0270004 0.331 9
5.5710001 -7.921 0.33399999 9
5.5949998 -7.994 0.34400001 9
5.6620002 -8.0679998 0.33199999 9
5.6539998 -8.0629997 0.33500001 9
5.5560002 -7.7449999 0.33199999 9
5.598 -7.789 0.33399999 9
5.5549998 -7.8559999 0.33399999 9
5.5700002 -7.7950001 0.333 9
5.5739999 -7.7800002 0.333 9
5.5209999 -7.7969999 0.333 9
5.585 -7.8150001 0.33399999 9
5.6040001 -7.8070002 0.33399999 9
5.5479999 -7.8499999 0.33399999 9
5.552 -7.8759999 0.33500001 9
5.5149999 -7.7919998 0.333 9
5.599 -7.757 0.333 9
5.5430002 -7.8299999 0.33399999 9
5.605 -7.7789998 0.33399999 9
5.5939999 -7.7810001 0.33399999 9
5.5190001 -7.7979999 0.333 9
5.5079999 -7.7859998 0.33199999 9
5.5619998 -7.7849998 0.333 9
5.54 -7.8080001 0.333 9
5.5640001 -7.7779999 0.333 9
5.507 -7.7690001 0.33199999 9
5.598 -7.7410002 0.333 9
5.5409999 -7.816 0.333 9
5.6129999 -7.777 0.33399999 9
5.5900002 -7.756 0.333 9
5.493 -7.7480001 0.331 9
5.6139998 -7.7410002 0.333 9
5.4790001 -7.743 0.331 9
5.573 -7.8449998 0.33399999 9
5.5929999 -7.7789998 0.33399999 9
5.618 -7.7579999 0.33399999 9
5.5599999 -7.8530002 0.33399999 9
5.5190001 -7.7740002 0.33199999 9
5.507 -7.7940001 0.33199999 9
5.6389999 -7.7490001 0.33399999 9
5.5229998 -7.823 0.333 9
5.5970001 -7.7600002 0.333 9
5.5430002 -7.7649999 0.33199999 9
5.5440001 -7.8610001 0.33399999 9
5.6329999 -7.7420001 0.333 9
5.4840002 -7.75 0.331 9
5.5409999 -7.8210001 0.33399999 9
5.605 -7.7540002 0.333 9
5.5120001 -7.777 0.33199999 9
5.6030002 -7.7670002 0.333 9
5.559 -7.8369999 0.33399999 9
5.5120001 -7.79 0.33199999 9
5.5599999 -7.8379998 0.33399999 9
5.592 -7.8210001 0.33399999 9
5.6100001 -7.7950001 0.33399999 9
5.559 -7.8660002 0.33500001 9
5.6069999 -7.75 0.333 9
5.6129999 -7.7849998 0.33399999 9
5.5489998 -7.7620001 0.333 9
5.5159998 -7.8099999 0.333 9
5.5380001 -7.8210001 0.333 9
5.5630002 -7.8039999 0.33399999 9
5.5819998 -7.8000002 0.33399999 9
5.592 -7.7610002 0.333 9
5.5209999 -7.8169999 0.333 9
5.5019999 -7.7600002 0.33199999 9
5.5830002 -7.8179998 0.33399999 9
5.5599999 -7.7859998 0.333 9
5.6329999 -7.7600002 0.33399999 9
5.559 -7.79 0.333 9
5.6230001 -7.7750001 0.33399999 9
5.5349998 -7.8039999 0.333 9
5.553 -7.869 0.33500001 9
5.5599999 -7.7459998 0.33199999 9
5.5970001 -7.7470002 0.333 9
5.6079998 -7.79 0.33399999 9
5.5619998 -7.8559999 0.33500001 9
5.6110001 -7.7480001 0.333 9
5.566 -7.757 0.333 9
5.6009998 -7.7930002 0.33399999 9
5.4850001 -7.744 0.331 9
5.6409998 -7.7490001 0.33399999 9
5.5760002 -7.8060002 0.33399999 9
5.6300001 -7.77 0.33399999 9
5.5510001 -7.842 0.33399999 9
5.553 -7.803 0.333 9
5.6139998 -7.7690001 0.33399999 9
5.5710001 -7.7950001 0.33399999 9
5.619 -7.7719998 0.33399999 9
5.539 -7.7820001 0.333 9
5.6079998 -7.7610002 0.333 9
5.513 -7.79 0.33199999 9
5.54 -7.7740002 0.333 9
5.5689998 -7.809 0.33399999 9
5.5749998 -7.8039999 0.33399999 9
5.553 -7.823 0.33399999 9
5.5250001 -7.8340001 0.33399999 9
5.5640001 -7.763 0.333 9
5.533 -7.7459998 0.33199999 9
5.5279999 -7.8130002 0.333 9
5.6329999 -7.7620001 0.33399999 9
5.4910002 -7.7519999 0.331 9
5.5640001 -7.7740002 0.333 9
5.5630002 -7.7839999 0.333 9
5.5580001 -7.7639999 0.333 9
5.5549998 -7.7729998 0.333 9
5.553 -7.8179998 0.33399999 9
5.572 -7.7600002 0.333 9
5.4980001 -7.743 0.331 9
5.5240002 -7.8099999 0.333 9
5.5040002 -7.7870002 0.33199999 9
5.619 -7.75 0.333 9
5.5159998 -7.7979999 0.333 9
5.5089998 -7.7740002 0.33199999 9
5.6329999 -7.7480001 0.33399999 9
5.5320001 -7.7600002 0.33199999 9
5.5669999 -7.849 0.33399999 9
5.6030002 -7.744 0.333 9
5.6129999 -7.7839999 0.33399999 9
5.5180001 -7.7490001 0.33199999 9
5.5380001 -7.8400002 0.33399999 9
5.513 -7.7729998 0.33199999 9
5.5409999 -7.7709999 0.333 9
5.5149999 -7.789 0.33199999 9
5.552 -7.7820001 0.333 9
5.5089998 -7.7909999 0.33199999 9
5.5619998 -7.848 0.33399999 9
5.5149999 -7.7600002 0.33199999 9
5.5630002 -7.8070002 0.33399999 9
5.5949998 -7.7729998 0.333 9
5.5879998 -7.7420001 0.333 9
5.5019999 -7.7870002 0.33199999 9
5.6500001 -7.7969999 0.333 9
5.6230001 -7.882 0.333 9
5.5819998 -7.9330001 0.333 9
5.6420002 -8.0030003 0.331 9
5.6440001 -7.9070001 0.33199999 9
5.5890002 -7.8979998 0.33399999 9
5.6279998 -7.9710002 0.33199999 9
5.652 -7.869 0.33199999 9
5.6339998 -8.0030003 0.331 9
5.6069999 -7.8499999 0.33399999 9
5.6360002 -7.7820001 0.33399999 9
5.6570001 -7.9260001 0.331 9
5.6350002 -7.8379998 0.333 9
5.6469998 -7.875 0.33199999 9
5.6350002 -7.8439999 0.333 9
5.5739999 -7.8740001 0.33399999 9
5.6079998 -7.9229999 0.333 9
5.6149998 -7.8920002 0.333 9
5.5910001 -7.8610001 0.33399999 9
5.6490002 -8.0310001 0.33000001 9
5.6760001 -8.026 0.329 9
5.6009998 -7.9400001 0.333 9
5.6329999 -7.9679999 0.331 9
5.6090002 -7.848 0.33399999 9
5.6160002 -7.9330001 0.33199999 9
5.5999999 -7.921 0.333 9
5.6290002 -7.842 0.333 9
5.5700002 -7.8909998 0.33399999 9
5.6430001 -7.8720002 0.33199999 9
5.6110001 -7.8410001 0.33399999 9
5.6560001 -7.8740001 0.33199999 9
5.599 -7.9229999 0.333 9
5.619 -7.9229999 0.33199999 9
5.671 -8.0550003 0.329 9
5.6230001 -7.8930001 0.333 9
5.6560001 -8.0270004 0.33000001 9
5.5949998 -7.8990002 0.333 9
5.6209998 -7.96 0.33199999 9
5.5700002 -7.8699999 0.33500001 9
5.6259999 -7.9250002 0.33199999 9
5.5869999 -7.9089999 0.33399999 9
5.6719999 -8.0629997 0.329 9
5.6630001 -7.993 0.33000001 9
5.6570001 -7.8959999 0.33199999 9
5.645 -7.829 0.333 9
5.665 -7.8800001 0.33199999 9
5.6300001 -7.8839998 0.333 9
5.6830001 -8.0509996 0.329 9
5.579 -7.902 0.33399999 9
5.6630001 -7.9829998 0.33000001 9
5.6560001 -8.0319996 0.33000001 9
5.6279998 -7.8629999 0.333 9
5.6560001 -7.9050002 0.33199999 9
5.6560001 -7.9759998 0.331 9
5.5910001 -7.8720002 0.33399999 9
5.6199999 -7.9380002 0.33199999 9
5.6490002 -7.9060001 0.33199999 9
5.665 -7.9299998 0.331 9
5.6500001 -7.8210001 0.333 9
5.638 -7.9229999 0.33199999 9
5.6090002 -7.9419999 0.33199999 9
5.5929999 -7.9109998 0.333 9
5.599 -7.8829999 0.33399999 9
5.5970001 -7.9590001 0.333 9
5.6399999 -7.901 0.33199999 9
5.6059999 -7.9239998 0.333 9
5.6550002 -7.9990001 0.33000001 9
5.664 -7.9990001 0.33000001 9
5.6440001 -7.9910002 0.331 9
5.632 -7.8000002 0.33399999 9
5.6170001 -7.8239999 0.33399999 9
5.6220002 -7.9349999 0.33199999 9
5.6389999 -7.882 0.33199999 9
5.6760001 -8.0530005 0.329 9
5.631 -7.8720002 0.333 9
5.586 -7.8610001 0.33399999 9
5.6609998 -8.0089998 0.33000001 9
5.6700001 -8.0410004 0.329 9
5.6630001 -7.8889999 0.33199999 9
5.6259999 -7.9200001 0.33199999 9
5.6100001 -7.9489999 0.33199999 9
5.6550002 -7.7859998 0.333 9
5.6009998 -7.8639998 0.33399999 9
5.6810002 -8.033 0.329 9
5.6129999 -7.8800001 0.333 9
5.6550002 -7.9619999 0.331 9
5.6750002 -8.0559998 0.329 9
5.6300001 -7.9190001 0.33199999 9
5.5970001 -7.9580002 0.333 9
5.598 -7.9380002 0.333 9
5.6069999 -7.895 0.333 9
5.6220002 -7.8839998 0.333 9
5.631 -7.921 0.33199999 9
5.5960002 -7.8759999 0.33399999 9
5.6589999 -7.8130002 0.333 9
5.5650001 -7.875 0.33500001 9
5.6560001 -7.9949999 0.33000001 9
5.6620002 -7.9749999 0.33000001 9
5.664 -7.9650002 0.331 9
5.6339998 -7.9549999 0.33199999 9
5.6680002 -7.9780002 0.33000001 9
5.6560001 -7.9130001 0.331 9
5.6500001 -8.0380001 0.33000001 9
5.6589999 -7.823 0.33199999 9
5.6440001 -7.9039998 0.33199999 9
5.605 -7.9250002 0.333 9
5.6350002 -7.8449998 0.333 9
5.599 -7.9380002 0.333 9
5.6199999 -7.882 0.333 9
5.631 -7.9200001 0.33199999 9
5.6599998 -8.0039997 0.33000001 9
5.6240001 -7.928 0.33199999 9
5.6240001 -7.9689999 0.33199999 9
5.5910001 -7.9050002 0.333 9
5.618 -7.8530002 0.333 9
5.6820002 -8.0749998 0.329 9
5.6430001 -7.9780002 0.331 9
5.6490002 -7.803 0.333 9
5.645 -8.0299997 0.33000001 9
5.6459999 -7.881 0.33199999 9
5.652 -7.744 0.33399999 9
5.6599998 -7.8779998 0.33199999 9
5.5999999 -7.9640002 0.33199999 9
5.6469998 -7.756 0.33399999 9
5.6420002 -7.875 0.33199999 9
5.665 -7.9130001 0.331 9
5.612 -7.9689999 0.33199999 9
5.6199999 -7.8969998 0.333 9
5.6659999 -7.927 0.331 9
5.6279998 -7.9990001 0.331 9
5.6009998 -7.9250002 0.333 9
5.6589999 -7.9109998 0.331 9
5.625 -7.9169998 0.33199999 9
5.6719999 -8.0649996 0.329 9
5.586 -7.8379998 0.33399999 9
5.5890002 -7.8909998 0.33399999 9
5.6409998 -7.7820001 0.33399999 9
5.6069999 -7.836 0.33399999 9
5.665 -8.0609999 0.329 9
5.671 -7.9879999 0.33000001 9
5.6370001 -7.8769999 0.33199999 9
5.592 -7.8569999 0.33399999 9
5.5949998 -7.8720002 0.33399999 9
5.625 -7.7909999 0.33399999 9
5.605 -7.8189998 0.33399999 9
5.6040001 -7.9070001 0.333 9
5.599 -7.895 0.333 9
5.6570001 -7.96 0.331 9
5.6589999 -8.0220003 0.33000001 9
5.585 -7.8860002 0.33399999 9
5.6500001 -7.9109998 0.33199999 9
5.6659999 -7.9569998 0.331 9
5.665 -7.9250002 0.331 9
5.678 -8.0089998 0.33000001 9
5.6370001 -7.9650002 0.331 9
5.6490002 -7.9109998 0.33199999 9
5.6729999 -8.0600004 0.329 9
5.651 -7.8959999 0.33199999 9
5.6350002 -7.8080001 0.333 9
5.6760001 -8.0059996 0.33000001 9
5.6589999 -7.8099999 0.333 9
5.5679998 -7.875 0.33500001 9
5.6609998 -8.0530005 0.33000001 9
5.6409998 -7.7670002 0.33399999 9
5.6630001 -7.9039998 0.331 9
5.6420002 -7.9679999 0.331 9
5.652 -8.0080004 0.33000001 9
5.6339998 -7.934 0.33199999 9
5.586 -7.9130001 0.33399999 9
5.6469998 -7.961 0.331 9
5.6479998 -7.868 0.33199999 9
5.6389999 -7.9390001 0.33199999 9
5.6529999 -7.973 0.331 9
5.6669998 -8.0570002 0.329 9
5.6350002 -7.9650002 0.331 9
5.6550002 -7.8829999 0.33199999 9
5.6209998 -7.9000001 0.333 9
5.6329999 -8.0019999 0.331 9
5.599 -7.848 0.33399999 9
5.619 -7.823 0.33399999 9
5.677 -8.0120001 0.33000001 9
5.6069999 -7.8130002 0.33399999 9
5.638 -7.9369998 0.33199999 9
5.6360002 -7.7870002 0.33399999 9
5.664 -7.8899999 0.33199999 9
5.6409998 -7.914 0.33199999 9
5.5770001 -7.9250002 0.33399999 9
5.6230001 -7.8369999 0.333 9
5.5739999 -7.8850002 0.33399999 9
5.618 -7.934 0.33199999 9
5.6240001 -7.9250002 0.33199999 9
5.6479998 -7.8210001 0.333 9
5.6059999 -7.9510002 0.33199999 9
5.6009998 -7.9299998 0.333 9
5.5739999 -7.8660002 0.33399999 9
5.6199999 -7.967 0.33199999 9
5.6599998 -7.8369999 0.33199999 9
5.5809999 -7.9130001 0.33399999 9
5.6459999 -7.8070002 0.333 9
5.6799998 -8.0100002 0.33000001 9
5.599 -7.836 0.33399999 9
5.671 -7.9299998 0.331 9
5.5939999 -7.8930001 0.33399999 9
5.6680002 -8.0469999 0.329 9
5.619 -7.8839998 0.333 9
5.6469998 -7.8590002 0.33199999 9
5.6500001 -7.809 0.333 9
5.6170001 -7.8449998 0.333 9
5.6399999 -7.7729998 0.33399999 9
5.5999999 -7.921 0.333 9
5.6680002 -7.9749999 0.33000001 9
5.2969999 -8.092 0.21600001 9
5.3119998 -8.0749998 0.142 9
5.329 -8.0950003 0.189 9
5.2940001 -8.0880003 0.205 9
5.3299999 -8.1000004 0.205 9
5.2950001 -8.0959997 0.228 9
5.3010001 -8.0860004 0.192 9
5.3099999 -8.0769997 0.15000001 9
5.3189998 -8.099 0.214 9
5.3179998 -8.0970001 0.208 9
5.2820001 -8.0839996 0.205 9
5.3460002 -8.1099997 0.221 9
5.3390002 -8.1009998 0.20200001 9
5.323 -8.0900002 0.182 9
5.303 -8.0939999 0.21600001 9
5.3340001 -8.1049995 0.219 9
5.3049998 -8.0900002 0.198 9
5.3470001 -8.1099997 0.221 9
5.3080001 -8.0839996 0.177 9
5.283 -8.0810003 0.193 9
5.336 -8.0979996 0.19400001 9
5.323 -8.1029997 0.222 9
5.289 -8.092 0.223 9
5.335 -8.1000004 0.2 9
5.3449998 -8.1040001 0.204 9
5.3130002 -8.0979996 0.21799999 9
5.3260002 -8.0900002 0.178 9
5.2909999 -8.0860004 0.20100001 9
5.309 -8.0749998 0.145 9
5.3210001 -8.0740004 0.131 9
5.309 -8.0769997 0.153 9
5.3200002 -8.0839996 0.164 9
5.3200002 -8.0799999 0.148 9
5.3309999 -8.1040001 0.219 9
5.3140001 -8.0830002 0.16599999 9
5.309 -8.0790005 0.15899999 9
5.3179998 -8.1029997 0.229 9
5.3099999 -8.0930004 0.205 9
5.309 -8.0799999 0.161 9
5.2979999 -8.0939999 0.219 9
5.323 -8.0860004 0.167 9
5.3319998 -8.1070004 0.228 9
5.316 -8.1000004 0.221 9
5.3179998 -8.0889997 0.184 9
5.323 -8.0819998 0.152 9
5.29 -8.0780001 0.177 9
5.3060002 -8.0880003 0.193 9
5.3439999 -8.1020002 0.199 9
5.316 -8.0819998 0.16 9
5.3410001 -8.1020002 0.2 9
5.2859998 -8.0950003 0.237 9
5.316 -8.0710001 0.12 9
5.2930002 -8.0600004 0.082999997 9
5.3010001 -8.066 0.106 9
5.3039999 -8.066 0.103 9
5.3150001 -8.0719995 0.12899999 9
5.2940001 -8.0760002 0.16 9
5.302 -8.0690002 0.119 9
5.2820001 -8.0679998 0.132 9
5.3000002 -8.0710001 0.131 9
5.2989998 -8.0670004 0.114 9
5.2820001 -8.0539999 0.059 9
5.283 -8.0570002 0.071000002 9
5.289 -8.0579996 0.072999999 9
5.2979999 -8.0620003 0.088 9
5.2870002 -8.0550003 0.061000001 9
5.2849998 -8.0570002 0.071000002 9
5.2820001 -8.0649996 0.116 9
5.2820001 -8.066 0.121 9
5.2839999 -8.059 0.082999997 9
5.29 -8.0749998 0.15800001 9
5.29 -8.0579996 0.075000003 9
5.289 -8.059 0.079999998 9
5.283 -8.0649996 0.114 9
5.2950001 -8.0670004 0.118 9
5.2859998 -8.0719995 0.15000001 9
5.2909999 -8.0609999 0.090000004 9
5.302 -8.066 0.106 9
5.3649998 -8.0970001 0.094999999 9
5.3369999 -8.0790005 0.096000001 9
5.3629999 -8.085 0.035999998 9
5.3649998 -8.0970001 0.096000001 9
5.3390002 -8.0880003 0.14300001 9
5.336 -8.0790005 0.105 9
5.368 -8.0860004 0.022 9
5.3390002 -8.0830002 0.116 9
5.336 -8.0790005 0.102 9
5.3429999 -8.0900002 0.13600001 9
5.342 -8.0799999 0.082000002 9
5.362 -8.0909996 0.072999999 9
5.329 -8.0810003 0.138 9
5.3540001 -8.0869999 0.079999998 9
5.3520002 -8.1059999 0.19400001 9
5.3400002 -8.0939999 0.169 9
5.3610001 -8.0979996 0.116 9
5.362 -8.099 0.118 9
5.348 -8.0860004 0.094999999 9
5.3569999 -8.1070004 0.18099999 9
5.3470001 -8.0839996 0.090999998 9
5.3559999 -8.0959997 0.124 9
5.3379998 -8.0839996 0.123 9
5.3390002 -8.0950003 0.176 9
5.3610001 -8.099 0.122 9
5.3509998 -8.0810003 0.057999998 9
5.355 -8.099 0.141 9
5.3600001 -8.0839996 0.044 9
5.3520002 -8.1029997 0.17299999 9
5.3559999 -8.085 0.064000003 9
5.3590002 -8.0909996 0.083999999 9
5.348 -8.0939999 0.139 9
5.336 -8.0780001 0.097999997 9
5.3309999 -8.085 0.152 9
5.355 -8.1020002 0.15899999 9
5.3530002 -8.1049995 0.185 9
5.3639998 -8.0939999 0.085000001 9
5.3520002 -8.0869999 0.090000004 9
5.3610001 -8.0839996 0.037 9
5.3569999 -8.1049995 0.171 9
5.3649998 -8.0939999 0.079000004 9
5.3520002 -8.0860004 0.079999998 9
5.3460002 -8.0939999 0.145 9
5.3540001 -8.0959997 0.13 9
5.3330002 -8.0780001 0.109 9
5.3280001 -8.0819998 0.149 9
5.3260002 -8.0769997 0.127 9
5.342 -8.0869999 0.124 9
5.3509998 -8.0880003 0.097999997 9
5.3590002 -8.0869999 0.061000001 9
5.3559999 -8.1120005 0.212 9
5.3520002 -8.0959997 0.13600001 9
5.329 -8.0819998 0.145 9
5.3340001 -8.0860004 0.149 9
5.369 -8.0900002 0.044 9
5.3569999 -8.1079998 0.189 9
5.4229999 -8.1090002 0.19400001 9
5.4120002 -8.1020002 0.14399999 9
5.3889999 -8.1129999 0.223 9
5.4710002 -8.1120005 0.229 9
5.5339999 -8.1090002 0.21600001 9
5.494 -8.1070004 0.18799999 9
5.5359998 -8.1079998 0.207 9
5.4510002 -8.1099997 0.20999999 9
5.4349999 -8.0979996 0.108 9
5.3990002 -8.1140003 0.23199999 9
5.3759999 -8.0979996 0.104 9
5.3759999 -8.0970001 0.093999997 9
5.461 -8.1070004 0.18799999 9
5.3559999 -8.1129999 0.221 9
5.3829999 -8.0930004 0.064999998 9
5.4310002 -8.1079998 0.191 9
5.552 -8.1120005 0.23899999 9
5.5619998 -8.1140003 0.25600001 9
5.408 -8.0939999 0.074000001 9
5.461 -8.1129999 0.23199999 9
5.3889999 -8.1029997 0.142 9
5.3839998 -8.0939999 0.075999998 9
5.414 -8.1029997 0.145 9
5.434 -8.1070004 0.182 9
5.4829998 -8.1020002 0.15099999 9
5.4390001 -8.1049995 0.17 9
5.552 -8.1110001 0.228 9
5.4039998 -8.1020002 0.142 9
5.421 -8.099 0.12 9
5.3769999 -8.0970001 0.096000001 9
5.467 -8.1110001 0.219 9
5.4720001 -8.1110001 0.22 9
5.4289999 -8.1120005 0.219 9
5.3629999 -8.1040001 0.15000001 9
5.3829999 -8.1070004 0.178 9
5.4710002 -8.1009998 0.141 9
5.5209999 -8.1120005 0.23199999 9
5.4710002 -8.1099997 0.214 9
5.4250002 -8.0950003 0.082999997 9
5.3769999 -8.1049995 0.155 9
5.3800001 -8.0869999 0.018999999 9
5.4499998 -8.0959997 0.102 9
5.3860002 -8.1079998 0.186 9
5.5019999 -8.1090002 0.207 9
5.5430002 -8.1090002 0.214 9
5.3660002 -8.1120005 0.21699999 9
5.454 -8.0970001 0.11 9
5.3959999 -8.0959997 0.090000004 9
5.395 -8.099 0.117 9
5.4970002 -8.1090002 0.205 9
5.4099998 -8.1009998 0.13600001 9
5.375 -8.0900002 0.044 9
5.474 -8.1040001 0.163 9
5.4840002 -8.1129999 0.236 9
5.4390001 -8.1120005 0.223 9
5.3720002 -8.1009998 0.13 9
5.4530001 -8.1059999 0.17900001 9
5.414 -8.1029997 0.149 9
5.4910002 -8.1129999 0.23800001 9
5.395 -8.0979996 0.107 9
5.3649998 -8.1020002 0.13600001 9
5.4000001 -8.1049995 0.15899999 9
5.5079999 -8.1070004 0.193 9
5.467 -8.1020002 0.145 9
5.441 -8.0950003 0.090999998 9
5.4260001 -8.1120005 0.21799999 9
5.4219999 -8.1009998 0.133 9
5.4660001 -8.1059999 0.17900001 9
5.4000001 -8.0950003 0.086000003 9
5.3759999 -8.1029997 0.14 9
5.4840002 -8.1040001 0.168 9
5.4710002 -8.1029997 0.15700001 9
5.427 -8.1140003 0.234 9
5.4640002 -8.1090002 0.204 9
5.3850002 -8.0930004 0.068999998 9
5.4310002 -8.1129999 0.23199999 9
5.4720001 -8.1009998 0.138 9
5.5809999 -8.1140003 0.26100001 9
5.494 -8.1020002 0.155 9
5.381 -8.0939999 0.071999997 9
5.4260001 -8.1079998 0.192 9
5.527 -8.1090002 0.20999999 9
5.362 -8.1059999 0.16500001 9
5.5539999 -8.1120005 0.243 9
5.447 -8.1099997 0.208 9
5.421 -8.1110001 0.212 9
5.4770002 -8.1120005 0.229 9
5.4289999 -8.0950003 0.088 9
5.3860002 -8.1000004 0.118 9
5.441 -8.1020002 0.146 9
5.3839998 -8.0970001 0.093999997 9
5.4910002 -8.1129999 0.241 9
5.5510001 -8.1099997 0.226 9
5.4099998 -8.1090002 0.193 9
5.54 -8.1120005 0.241 9
5.5500002 -8.1120005 0.23999999 9
5.4109998 -8.1099997 0.2 9
5.3930001 -8.1079998 0.189 9
5.4720001 -8.1029997 0.16 9
5.4699998 -8.1000004 0.13600001 9
5.4949999 -8.1040001 0.164 9
5.3779998 -8.1090002 0.193 9
5.4780002 -8.1049995 0.17200001 9
5.5219998 -8.1099997 0.21799999 9
5.4629998 -8.1070004 0.18799999 9
5.4970002 -8.1079998 0.20299999 9
5.494 -8.1129999 0.243 9
5.3990002 -8.1059999 0.17 9
5.4109998 -8.1110001 0.215 9
5.4000001 -8.1020002 0.14 9
5.415 -8.1090002 0.2 9
5.3899999 -8.1079998 0.185 9
5.4990001 -8.1090002 0.208 9
5.5159998 -8.1129999 0.242 9
5.4840002 -8.1040001 0.16599999 9
5.4860001 -8.1120005 0.23199999 9
5.3940001 -8.0889997 0.035999998 9
5.4390001 -8.1120005 0.223 9
5.3740001 -8.1110001 0.204 9
5.4629998 -8.1059999 0.176 9
5.4299998 -8.1040001 0.15700001 9
5.395 -8.092 0.056000002 9
5.4489999 -8.1029997 0.15099999 9
5.4349999 -8.1120005 0.219 9
5.4419999 -8.1079998 0.19 9
5.4250002 -8.1120005 0.223 9
5.4749999 -8.1129999 0.23899999 9
5.3870001 -8.0889997 0.030999999 9
5.4089999 -8.1000004 0.125 9
5.4180002 -8.0970001 0.104 9
5.4239998 -8.0950003 0.083999999 9
5.5419998 -8.1120005 0.235 9
5.4000001 -8.1049995 0.161 9
5.4390001 -8.1140003 0.235 9
5.4679999 -8.1009998 0.13699999 9
5.4949999 -8.1079998 0.20299999 9
5.4720001 -8.1079998 0.19499999 9
5.4549999 -8.1020002 0.14399999 9
5.4720001 -8.1059999 0.178 9
5.3920002 -8.1059999 0.171 9
5.4770002 -8.1110001 0.21699999 9
5.4029999 -8.0979996 0.109 9
5.5669999 -8.1140003 0.257 9
5.5240002 -8.1110001 0.226 9
5.4000001 -8.1000004 0.12 9
5.4689999 -8.1009998 0.14 9
5.4260001 -8.1049995 0.163 9
5.3769999 -8.1099997 0.197 9
5.4580002 -8.1059999 0.18099999 9
5.4330001 -8.0959997 0.098999999 9
5.4070001 -8.1079998 0.184 9
5.4050002 -8.1140003 0.234 9
5.3730001 -8.1009998 0.131 9
5.4169998 -8.1059999 0.175 9
5.4169998 -8.1009998 0.132 9
5.3579998 -8.1140003 0.22400001 9
5.4359999 -8.1070004 0.184 9
5.4819999 -8.1129999 0.235 9
5.3730001 -8.0889997 0.033 9
5.4310002 -8.0959997 0.096000001 9
5.4499998 -8.1020002 0.15000001 9
5.5279999 -8.1140003 0.25400001 9
5.3590002 -8.1079998 0.17900001 9
5.3909998 -8.0950003 0.082999997 9
5.4159999 -8.1049995 0.168 9
5.4050002 -8.1059999 0.17299999 9
5.5770001 -8.1160002 0.271 9
5.5689998 -8.1149998 0.264 9
5.4749999 -8.1129999 0.235 9
5.4390001 -8.099 0.124 9
5.4530001 -8.1020002 0.146 9
5.381 -8.1099997 0.20299999 9
5.441 -8.1090002 0.199 9
5.3699999 -8.1090002 0.19 9
5.4000001 -8.0970001 0.1 9
5.3889999 -8.0950003 0.079999998 9
5.46 -8.1110001 0.219 9
5.4219999 -8.1029997 0.15000001 9
5.3800001 -8.0900002 0.039999999 9
5.3990002 -8.1009998 0.12800001 9
5.368 -8.1059999 0.16500001 9
5.4520001 -8.1020002 0.14300001 9
5.4029999 -8.1070004 0.18099999 9
5.4039998 -8.1029997 0.148 9
5.533 -8.1129999 0.241 9
5.382 -8.1029997 0.14300001 9
5.4699998 -8.099 0.125 9
5.448 -8.1009998 0.134 9
5.4050002 -8.1049995 0.16500001 9
5.3860002 -8.0939999 0.07 9
5.388 -8.099 0.116 9
5.3850002 -8.1059999 0.16599999 9
5.4000001 -8.1129999 0.226 9
5.461 -8.1029997 0.156 9
5.4759998 -8.1049995 0.17200001 9
5.526 -8.1129999 0.245 9
5.4749999 -8.1099997 0.20999999 9
5.4260001 -8.1079998 0.189 9
5.414 -8.1020002 0.14399999 9
5.4860001 -8.1020002 0.153 9
5.4250002 -8.099 0.119 9
5.4050002 -8.0950003 0.086999997 9
5.3759999 -8.1079998 0.185 9
5.4780002 -8.1020002 0.15099999 9
5.48 -8.1129999 0.235 9
5.441 -8.1029997 0.156 9
5.369 -8.0970001 0.092 9
5.4419999 -8.1140003 0.23999999 9
5.533 -8.1140003 0.25 9
5.494 -8.1079998 0.2 9
5.3899999 -8.0909996 0.050000001 9
5.4050002 -8.0930004 0.064999998 9
5.4219999 -8.0950003 0.085000001 9
5.4419999 -8.1120005 0.227 9
5.3889999 -8.1029997 0.14399999 9
5.421 -8.0930004 0.068999998 9
5.4959998 -8.1040001 0.16599999 9
5.4559999 -8.1099997 0.207 9
5.3990002 -8.0930004 0.064999998 9
5.4000001 -8.0939999 0.078000002 9
5.388 -8.0900002 0.041000001 9
5.5120001 -8.1099997 0.215 9
5.3920002 -8.1070004 0.17399999 9
5.5349998 -8.1140003 0.25099999 9
5.5539999 -8.1149998 0.26100001 9
5.4099998 -8.0950003 0.086000003 9
5.5219998 -8.1149998 0.25799999 9
5.4580002 -8.1009998 0.139 9
5.4320002 -8.0979996 0.113 9
5.5120001 -8.1120005 0.23199999 9
5.4990001 -8.1070004 0.19599999 9
5.5240002 -8.1079998 0.2 9
5.493 -8.1120005 0.227 9
5.5380001 -8.1110001 0.228 9
5.4200001 -8.1059999 0.175 9
5.4580002 -8.1009998 0.13699999 9
5.4619999 -8.099 0.127 9
5.402 -8.1070004 0.18099999 9
5.447 -8.1009998 0.139 9
5.4530001 -8.1120005 0.22499999 9
5.4250002 -8.1009998 0.13 9
5.4330001 -8.1049995 0.168 9
5.4569998 -8.1090002 0.204 9
5.3769999 -8.1079998 0.182 9
5.527 -8.1140003 0.25099999 9
5.3790002 -8.1110001 0.20299999 9
5.4039998 -8.1070004 0.178 9
5.4679999 -8.1140003 0.242 9
5.5190001 -8.1070004 0.197 9
5.4559999 -8.1000004 0.127 9
5.3790002 -8.1000004 0.122 9
5.3769999 -8.0939999 0.071000002 9
5.533 -8.1129999 0.24699999 9
5.3839998 -8.0930004 0.067000002 9
5.4499998 -8.1129999 0.233 9
5.3959999 -8.0900002 0.043000001 9
5.5079999 -8.1059999 0.186 9
5.3909998 -8.1140003 0.229 9
5.4559999 -8.0979996 0.112 9
5.4299998 -8.1040001 0.155 9
5.4990001 -8.1110001 0.223 9
5.3579998 -8.1129999 0.21600001 9
5.4590001 -8.1020002 0.147 9
