# .PCD v0.7 - Point Cloud Data file format
VERSION 0.7
FIELDS x y z label
SIZE 4 4 4 4
TYPE F F F U
COUNT 1 1 1 1
WIDTH 1635
HEIGHT 1
VIEWPOINT 0 0 0 1 0 0 0
POINTS 1635
DATA ascii
9.7939997 -3.8529999 1.387 9
9.7840004 -3.8369999 1.374 9
9.8000002 -3.8239999 1.364 9
9.8030005 -3.852 1.386 9
9.7980003 -3.8529999 1.387 9
9.7790003 -3.8269999 1.367 9
9.7779999 -3.8399999 1.377 9
9.7910004 -3.846 1.381 9
9.7700005 -3.8310001 1.37 9
9.7530003 -3.845 1.381 9
9.7659998 -3.852 1.386 9
9.7939997 -3.8340001 1.372 9
9.8009996 -3.819 1.36 9
9.7869997 -3.845 1.381 9
9.7550001 -3.846 1.382 9
9.7790003 -3.849 1.3839999 9
9.802 -3.8239999 1.364 9
9.7950001 -3.862 1.3940001 9
9.7589998 -3.8380001 1.376 9
9.802 -3.8659999 1.398 9
9.7969999 -3.836 1.374 9
9.3050003 -3.8180001 0.99000001 9
9.2939997 -3.8110001 0.98199999 9
9.2510004 -3.7950001 0.94800001 9
9.2639999 -3.796 0.95899999 9
9.2819996 -3.79 0.97299999 9
9.2659998 -3.777 0.95999998 9
9.2799997 -3.8110001 0.97100002 9
9.3000002 -3.8069999 0.98699999 9
9.2639999 -3.8239999 0.958 9
9.2480001 -3.7909999 0.94599998 9
9.2860003 -3.8080001 0.97600001 9
9.2559996 -3.8199999 0.95200002 9
9.2609997 -3.825 0.95599997 9
9.2690001 -3.7969999 0.963 9
9.2510004 -3.7479999 0.949 9
9.2629995 -3.806 0.958 9
9.2609997 -3.8039999 0.95599997 9
9.2559996 -3.767 0.95300001 9
9.2720003 -3.812 0.96399999 9
9.29 -3.806 0.97899997 9
9.2849998 -3.816 0.97500002 9
9.2930002 -3.8099999 0.98199999 9
9.2950001 -3.8139999 0.98299998 9
9.2600002 -3.8280001 0.95499998 9
9.2519999 -3.822 0.94800001 9
9.2709999 -3.8150001 0.96399999 9
9.283 -3.7880001 0.97399998 9
9.276 -3.7820001 0.96799999 9
9.2589998 -3.766 0.95499998 9
9.2880001 -3.8180001 0.977 9
9.2519999 -3.809 0.949 9
9.2629995 -3.7950001 0.958 9
9.2480001 -3.8099999 0.94599998 9
9.2659998 -3.7709999 0.95999998 9
9.2600002 -3.832 0.95499998 9
9.2539997 -3.757 0.95099998 9
9.2709999 -3.786 0.96399999 9
9.276 -3.72 0.95899999 9
9.2510004 -3.678 0.92900002 9
9.2889996 -3.711 0.96499997 9
9.3120003 -3.724 0.98400003 9
9.2460003 -3.642 0.91500002 9
9.2530003 -3.6819999 0.93199998 9
9.2589998 -3.694 0.94 9
9.2510004 -3.71 0.93900001 9
9.3030005 -3.711 0.97399998 9
9.2629995 -3.6789999 0.93800002 9
9.25 -3.6500001 0.92000002 9
9.2860003 -3.71 0.963 9
9.2720003 -3.7130001 0.954 9
9.2589998 -3.6459999 0.92500001 9
9.2589998 -3.638 0.92199999 9
9.257 -3.641 0.92199999 9
9.2639999 -3.654 0.93099999 9
9.3079996 -3.723 0.98100001 9
9.2550001 -3.724 0.94599998 9
9.2589998 -3.671 0.93300003 9
9.2779999 -3.711 0.958 9
9.25 -3.652 0.92000002 9
9.2810001 -3.6960001 0.95499998 9
9.283 -3.7320001 0.96700001 9
9.2959995 -3.6989999 0.96600002 9
9.2510004 -3.6960001 0.935 9
9.3030005 -3.7119999 0.97500002 9
9.2659998 -3.727 0.95499998 9
9.2650003 -3.6589999 0.93300003 9
9.2620001 -3.7379999 0.95499998 9
9.2679996 -3.6819999 0.94199997 9
9.2650003 -3.7060001 0.94800001 9
9.2779999 -3.7090001 0.95700002 9
9.2609997 -3.7390001 0.954 9
9.2609997 -3.6440001 0.926 9
9.2700005 -3.737 0.95999998 9
9.2740002 -3.701 0.95200002 9
9.2770004 -3.737 0.96499997 9
9.2869997 -3.6960001 0.95899999 9
9.3120003 -3.7320001 0.98699999 9
9.29 -3.701 0.963 9
9.2650003 -3.6930001 0.94300002 9
9.2889996 -3.6949999 0.95999998 9
9.2720003 -3.7019999 0.95099998 9
9.2629995 -3.7090001 0.94700003 9
9.2939997 -3.7030001 0.96600002 9
9.2600002 -3.7249999 0.949 9
9.3129997 -3.724 0.98500001 9
9.2869997 -3.7019999 0.96100003 9
9.2559996 -3.7160001 0.94400001 9
9.2480001 -3.6289999 0.912 9
9.2480001 -3.6760001 0.92699999 9
9.2530003 -3.6600001 0.92500001 9
9.2740002 -3.723 0.958 9
9.2519999 -3.7179999 0.94199997 9
9.25 -3.6259999 0.91299999 9
9.2989998 -3.7030001 0.97000003 9
9.3030005 -3.674 0.98400003 9
9.2959995 -3.675 0.972 9
9.2720003 -3.6570001 0.93699998 9
9.2659998 -3.635 0.93699998 9
9.2919998 -3.684 0.96100003 9
9.2989998 -3.6900001 0.97100002 9
9.3170004 -3.723 0.98900002 9
9.2679996 -3.6359999 0.93800002 9
9.2810001 -3.652 0.95499998 9
9.3050003 -3.6860001 0.98299998 9
9.3079996 -3.6900001 0.98699999 9
9.2709999 -3.6530001 0.93800002 9
9.3000002 -3.6819999 0.97600001 9
9.2799997 -3.6429999 0.95700002 9
9.309 -3.7090001 0.98199999 9
9.3059998 -3.675 0.98900002 9
9.3140001 -3.7130001 0.98900002 9
9.2989998 -3.6589999 0.98400003 9
9.3030005 -3.6989999 0.97399998 9
9.2980003 -3.664 0.97899997 9
9.3030005 -3.691 0.97799999 9
9.2639999 -3.6340001 0.93300003 9
9.2919998 -3.684 0.96200001 9
9.3039999 -3.678 0.98400003 9
9.2589998 -3.6370001 0.92299998 9
9.283 -3.674 0.94999999 9
9.2650003 -3.6370001 0.93300003 9
9.3050003 -3.668 0.99000001 9
9.2729998 -3.6459999 0.94400001 9
9.3120003 -3.697 0.991 9
9.3079996 -3.7060001 0.98100001 9
9.3120003 -3.701 0.99000001 9
9.2799997 -3.651 0.954 9
9.2880001 -3.661 0.963 9
9.2799997 -3.665 0.949 9
9.283 -3.7690001 0.29800001 9
9.2779999 -3.7820001 0.33500001 9
9.3129997 -3.8380001 0.308 9
9.2969999 -3.7869999 0.27900001 9
9.2989998 -3.7880001 0.27500001 9
9.3030005 -3.8239999 0.31900001 9
9.2840004 -3.7620001 0.28299999 9
9.2860003 -3.76 0.27200001 9
9.2969999 -3.7909999 0.285 9
9.2790003 -3.776 0.32100001 9
9.3050003 -3.812 0.29100001 9
9.2720003 -3.7720001 0.34 9
9.2930002 -3.777 0.27599999 9
9.3059998 -3.8069999 0.28099999 9
9.2880001 -3.773 0.28600001 9
9.2770004 -3.77 0.31999999 9
9.3120003 -3.8399999 0.31400001 9
9.2790003 -3.7650001 0.303 9
9.2770004 -3.766 0.31200001 9
9.2819996 -3.786 0.32800001 9
9.2889996 -3.763 0.26899999 9
9.2959995 -3.8050001 0.31 9
9.2980003 -3.7909999 0.28299999 9
9.2969999 -3.799 0.30000001 9
9.2849998 -3.7809999 0.31099999 9
9.2919998 -3.77 0.26899999 9
9.2790003 -3.773 0.31799999 9
9.3120003 -3.829 0.296 9
9.2930002 -3.78 0.28299999 9
9.3030005 -3.8039999 0.287 9
9.302 -3.8069999 0.296 9
9.2950001 -3.8010001 0.308 9
9.2919998 -3.783 0.29100001 9
9.2869997 -3.796 0.32600001 9
9.3109999 -3.829 0.30000001 9
9.3039999 -3.8 0.27900001 9
9.2860003 -3.7880001 0.317 9
9.3070002 -3.8110001 0.28600001 9
9.2969999 -3.7939999 0.28999999 9
9.2969999 -3.789 0.28099999 9
9.2950001 -3.786 0.28400001 9
9.2860003 -3.76 0.27399999 9
9.3030005 -3.8069999 0.292 9
9.2930002 -3.806 0.322 9
9.2930002 -3.786 0.29100001 9
9.2869997 -3.7690001 0.28299999 9
9.3140001 -3.8380001 0.30500001 9
9.3050003 -3.8239999 0.31 9
9.29 -3.78 0.28999999 9
9.2969999 -3.793 0.28999999 9
9.3170004 -3.763 0.99299997 9
9.2980003 -3.776 0.98199999 9
9.3000002 -3.789 0.98500001 9
9.3009996 -3.7639999 0.98400003 9
9.3070002 -3.7449999 0.98500001 9
9.2959995 -3.79 0.98299998 9
9.2930002 -3.7939999 0.98100001 9
9.2550001 -3.74 0.95099998 9
9.2799997 -3.743 0.96700001 9
9.2749996 -3.743 0.96499997 9
9.2880001 -3.737 0.972 9
9.2889996 -3.7839999 0.977 9
9.2749996 -3.77 0.96700001 9
9.2950001 -3.777 0.98100001 9
9.2989998 -3.7780001 0.98400003 9
9.2720003 -3.7650001 0.96399999 9
9.3059998 -3.79 0.98900002 9
9.309 -3.7409999 0.986 9
9.2930002 -3.7780001 0.98000002 9
9.3140001 -3.7850001 0.99400002 9
9.29 -3.773 0.977 9
9.3039999 -3.76 0.98500001 9
9.3199997 -3.7479999 0.99400002 9
9.2729998 -3.74 0.963 9
9.2930002 -3.776 0.98000002 9
9.29 -3.777 0.977 9
9.3100004 -3.7679999 0.98900002 9
9.3059998 -3.8069999 0.991 9
9.2950001 -3.7820001 0.98100001 9
9.2989998 -3.7579999 0.98199999 9
9.3059998 -3.813 0.991 9
9.3149996 -3.777 0.99400002 9
9.3109999 -3.7390001 0.98699999 9
9.2510004 -3.7409999 0.94800001 9
9.2939997 -3.7620001 0.97899997 9
9.2629995 -3.7520001 0.95700002 9
9.3179998 -3.743 0.99199998 9
9.302 -3.7750001 0.98500001 9
9.3610001 -3.904 0.336 9
9.3360004 -3.868 0.331 9
9.3710003 -3.914 0.347 9
9.342 -3.8800001 0.32300001 9
9.3400002 -3.8710001 0.34099999 9
9.3800001 -3.9230001 0.35499999 9
9.309 -3.836 0.317 9
9.323 -3.848 0.33700001 9
9.3149996 -3.842 0.322 9
9.2840004 -3.7909999 0.33899999 9
9.3760004 -3.9200001 0.35100001 9
9.3660002 -3.908 0.34200001 9
9.3470001 -3.8870001 0.324 9
9.3330002 -3.8659999 0.32800001 9
9.3219995 -3.8429999 0.34799999 9
9.3249998 -3.8499999 0.33899999 9
9.3710003 -3.9130001 0.34900001 9
9.3459997 -3.8859999 0.32499999 9
9.3199997 -3.8499999 0.31999999 9
9.3459997 -3.8829999 0.333 9
9.3070002 -3.829 0.32800001 9
9.3039999 -3.8180001 0.34599999 9
9.3380003 -3.8770001 0.31799999 9
9.2889996 -3.799 0.33899999 9
9.3219995 -3.855 0.31299999 9
9.3380003 -3.872 0.33199999 9
9.2989998 -3.812 0.34099999 9
9.3439999 -3.8729999 0.35299999 9
9.3339996 -3.8599999 0.34999999 9
9.3330002 -3.858 0.34900001 9
9.3070002 -3.8269999 0.329 9
9.3369999 -3.8699999 0.33000001 9
9.302 -3.822 0.32600001 9
9.335 -3.8629999 0.34299999 9
9.3109999 -3.832 0.33199999 9
9.3079996 -3.8269999 0.33399999 9
9.3529997 -3.8940001 0.32699999 9
9.3690004 -3.911 0.34799999 9
9.3310003 -3.862 0.33199999 9
9.3710003 -3.915 0.34400001 9
9.3439999 -3.8829999 0.32300001 9
9.2869997 -3.7980001 0.33399999 9
9.3450003 -3.878 0.34 9
9.29 -3.8010001 0.33399999 9
9.3100004 -3.8269999 0.34299999 9
9.3570004 -3.892 0.354 9
9.3599997 -3.9000001 0.34200001 9
9.3479996 -3.888 0.32800001 9
9.302 -3.8150001 0.345 9
9.3030005 -3.793 0.199 9
9.3280001 -3.813 0.18000001 9
9.3339996 -3.816 0.17399999 9
9.3260002 -3.8280001 0.22 9
9.3290005 -3.8310001 0.21799999 9
9.3269997 -3.8010001 0.155 9
9.3219995 -3.802 0.171 9
9.3210001 -3.8399999 0.25799999 9
9.3269997 -3.835 0.23199999 9
9.3050003 -3.8069999 0.227 9
9.323 -3.799 0.163 9
9.2939997 -3.7880001 0.212 9
9.3310003 -3.7839999 0.108 9
9.3179998 -3.7920001 0.16 9
9.3219995 -3.829 0.23199999 9
9.3109999 -3.8139999 0.228 9
9.2969999 -3.7939999 0.215 9
9.3360004 -3.7920001 0.114 9
9.3059998 -3.8039999 0.214 9
9.3050003 -3.8110001 0.234 9
9.302 -3.8039999 0.22499999 9
9.302 -3.8050001 0.227 9
9.3100004 -3.8080001 0.21699999 9
9.3210001 -3.832 0.242 9
9.302 -3.7939999 0.205 9
9.3330002 -3.8150001 0.17399999 9
9.3269997 -3.845 0.255 9
9.3129997 -3.8039999 0.2 9
9.3190002 -3.809 0.19499999 9
9.3249998 -3.8050001 0.171 9
9.3179998 -3.826 0.236 9
9.316 -3.802 0.185 9
9.3260002 -3.79 0.134 9
9.3290005 -3.8329999 0.222 9
9.3179998 -3.8050001 0.18700001 9
9.3149996 -3.803 0.19 9
9.3280001 -3.803 0.16 9
9.3179998 -3.8299999 0.245 9
9.3269997 -3.8 0.152 9
9.3249998 -3.809 0.18000001 9
9.3280001 -3.8559999 0.278 9
9.3290005 -3.8570001 0.27700001 9
9.3050003 -3.8110001 0.234 9
9.3109999 -3.7969999 0.18799999 9
9.3219995 -3.793 0.15000001 9
9.3339996 -3.799 0.133 9
9.3310003 -3.786 0.114 9
9.3219995 -3.8010001 0.168 9
9.3170004 -3.7880001 0.152 9
9.3039999 -3.806 0.226 9
9.3330002 -3.7909999 0.117 9
9.3260002 -3.822 0.205 9
9.3260002 -3.7850001 0.122 9
9.3039999 -3.7880001 0.184 9
9.3009996 -3.789 0.19499999 9
9.3319998 -3.809 0.162 9
9.3079996 -3.789 0.177 9
9.3299999 -3.8329999 0.22 9
9.3190002 -3.8469999 0.278 9
9.302 -3.8050001 0.229 9
9.3290005 -3.8280001 0.211 9
9.3059998 -3.809 0.229 9
9.3100004 -3.7850001 0.163 9
9.3219995 -3.8510001 0.28200001 9
9.3260002 -3.8069999 0.171 9
9.3100004 -3.802 0.20299999 9
9.3260002 -3.8080001 0.176 9
9.3179998 -3.803 0.184 9
9.2930002 -3.7720001 0.26100001 9
9.2969999 -3.7909999 0.243 9
9.3039999 -3.809 0.248 9
9.2950001 -3.78 0.25999999 9
9.3100004 -3.8210001 0.27399999 9
9.2910004 -3.7739999 0.242 9
9.2910004 -3.779 0.22 9
9.3170004 -3.8369999 0.292 9
9.3070002 -3.816 0.266 9
9.2969999 -3.786 0.25999999 9
9.2969999 -3.789 0.24699999 9
9.3269997 -3.865 0.30199999 9
9.316 -3.8340001 0.289 9
9.2919998 -3.7750001 0.24600001 9
9.2930002 -3.7869999 0.21799999 9
9.2980003 -3.7939999 0.244 9
9.3079996 -3.822 0.255 9
9.2939997 -3.7839999 0.241 9
9.2889996 -3.76 0.26199999 9
9.2980003 -3.7839999 0.27000001 9
9.3039999 -3.806 0.259 9
9.3120003 -3.8280001 0.26800001 9
9.2889996 -3.763 0.255 9
9.3109999 -3.8280001 0.26499999 9
9.323 -3.8559999 0.29100001 9
9.2989998 -3.7939999 0.252 9
9.2980003 -3.7920001 0.25 9
9.3050003 -3.806 0.27599999 9
9.2889996 -3.763 0.25299999 9
9.2980003 -3.7939999 0.242 9
9.2939997 -3.7909999 0.21699999 9
9.2969999 -3.7939999 0.229 9
9.3030005 -3.8050001 0.259 9
9.3120003 -3.8269999 0.27000001 9
9.2889996 -3.7709999 0.23100001 9
9.2930002 -3.78 0.235 9
9.2969999 -3.7869999 0.25400001 9
9.2989998 -3.7939999 0.25799999 9
9.3690004 -3.595 1.007 9
9.3730001 -3.5840001 1.002 9
9.3369999 -3.631 1.002 9
9.3290005 -3.6459999 1.005 9
9.3479996 -3.6199999 1.005 9
9.3710003 -3.625 1.0319999 9
9.3570004 -3.6040001 1.002 9
9.3500004 -3.635 1.018 9
9.3710003 -3.573 0.99199998 9
9.3330002 -3.645 1.008 9
9.3559999 -3.6010001 0.99800003 9
9.3599997 -3.5940001 0.99800003 9
9.3450003 -3.6099999 0.99400002 9
9.3699999 -3.6270001 1.0319999 9
9.3649998 -3.5710001 0.98400003 9
9.3520002 -3.631 1.017 9
9.3649998 -3.599 1.007 9
9.3479996 -3.6040001 0.99299997 9
9.3549995 -3.6389999 1.026 9
9.3739996 -3.586 1.006 9
9.3769999 -3.5539999 0.98500001 9
9.3450003 -3.6159999 0.99900001 9
9.3610001 -3.6070001 1.0089999 9
9.3640003 -3.608 1.012 9
9.3409996 -3.615 0.99400002 9
9.3830004 -3.5699999 1.003 9
9.3760004 -3.5780001 1.001 9
9.3690004 -3.598 1.01 9
9.3520002 -3.618 1.008 9
9.3190002 -3.6470001 0.99599999 9
9.3570004 -3.6359999 1.026 9
9.3529997 -3.589 0.98699999 9
9.3509998 -3.632 1.017 9
9.3450003 -3.6289999 1.0089999 9
9.3710003 -3.612 1.023 9
9.3789997 -3.6199999 1.0369999 9
9.3339996 -3.6389999 1.005 9
9.3269997 -3.628 0.99000001 9
9.3280001 -3.6329999 0.995 9
9.3789997 -3.6340001 1.0470001 9
9.382 -3.5810001 1.0089999 9
9.3739996 -3.619 1.03 9
9.3629999 -3.6389999 1.035 9
9.368 -3.6389999 1.039 9
9.3660002 -3.628 1.029 9
9.3739996 -3.5769999 0.99900001 9
9.3620005 -3.5910001 0.99699998 9
9.3339996 -3.6329999 1 9
9.3579998 -3.6289999 1.022 9
9.3640003 -3.5739999 0.986 9
9.3780003 -3.6300001 1.043 9
9.3369999 -3.6459999 1.013 9
9.3780003 -3.569 0.99699998 9
9.3459997 -3.6140001 0.99900001 9
9.375 -3.6159999 1.03 9
9.3660002 -3.619 1.023 9
9.3570004 -3.6210001 1.015 9
9.3649998 -3.632 1.0319999 9
9.3769999 -3.589 1.011 9
9.3620005 -3.915 0.31999999 9
9.3640003 -3.924 0.31200001 9
9.3509998 -3.8929999 0.324 9
9.3649998 -3.9100001 0.33700001 9
9.3809996 -3.9360001 0.338 9
9.4200001 -4.0120001 0.324 9
9.3929996 -3.9719999 0.315 9
9.375 -3.9319999 0.329 9
9.4189997 -4.02 0.31099999 9
9.3719997 -3.941 0.30500001 9
9.3529997 -3.9059999 0.31200001 9
9.3959999 -3.957 0.345 9
9.4069996 -3.9949999 0.31600001 9
9.4110003 -4.0040002 0.31200001 9
9.3959999 -3.974 0.31900001 9
9.3900003 -3.95 0.34 9
9.4370003 -4.0510001 0.308 9
9.3830004 -3.9419999 0.33199999 9
9.3719997 -3.924 0.333 9
9.427 -4.027 0.31900001 9
9.3669996 -3.928 0.31299999 9
9.3889999 -3.9449999 0.34599999 9
9.368 -3.9300001 0.31099999 9
9.3879995 -3.9590001 0.32100001 9
9.3389997 -3.8859999 0.30500001 9
9.3959999 -3.9649999 0.33399999 9
9.4250002 -4.0289998 0.31099999 9
9.3699999 -3.9389999 0.30500001 9
9.3940001 -3.967 0.32600001 9
9.3809996 -3.9460001 0.32300001 9
9.3929996 -3.9719999 0.315 9
9.3599997 -3.9130001 0.31600001 9
9.4370003 -4.0510001 0.30899999 9
9.3540001 -3.9070001 0.31200001 9
9.4060001 -3.9979999 0.30899999 9
9.3649998 -3.918 0.324 9
9.3859997 -3.9590001 0.315 9
9.4029999 -3.9809999 0.32600001 9
9.3500004 -3.9030001 0.30700001 9
9.3809996 -3.931 0.345 9
9.3760004 -3.9419999 0.315 9
9.3950005 -3.9630001 0.33399999 9
9.3769999 -3.927 0.34099999 9
9.375 -3.925 0.33700001 9
9.3839998 -3.9549999 0.315 9
9.4110003 -3.997 0.32300001 9
9.3830004 -3.948 0.32600001 9
9.3610001 -3.9170001 0.315 9
9.3690004 -3.9200001 0.33000001 9
9.3789997 -3.9349999 0.33399999 9
9.3409996 -3.8840001 0.31299999 9
9.3889999 -3.9460001 0.34299999 9
9.415 -4.0050001 0.322 9
9.4090004 -3.9860001 0.33399999 9
9.4069996 -3.98 0.33899999 9
9.3789997 -3.927 0.345 9
9.3620005 -3.9130001 0.32100001 9
9.3859997 -3.9330001 0.35600001 9
9.4060001 -3.9979999 0.31099999 9
9.4069996 -3.9960001 0.31400001 9
9.4099998 -3.9890001 0.33500001 9
9.3800001 -3.934 0.338 9
9.3879995 -3.9419999 0.34599999 9
9.3540001 -3.902 0.31900001 9
9.3529997 -3.9030001 0.31400001 9
9.3699999 -3.698 1.023 9
9.3479996 -3.6889999 1.012 9
9.3260002 -3.6789999 1.001 9
9.3500004 -3.71 1.011 9
9.3660002 -3.7019999 1.021 9
9.3219995 -3.7219999 0.995 9
9.3290005 -3.7249999 0.99900001 9
9.3299999 -3.7119999 1 9
9.3479996 -3.6860001 1.012 9
9.3369999 -3.687 1.006 9
9.3360004 -3.7160001 1.003 9
9.3500004 -3.6889999 1.013 9
9.3269997 -3.675 1.002 9
9.335 -3.6849999 1.005 9
9.3319998 -3.714 1.001 9
9.3430004 -3.7090001 1.008 9
9.3509998 -3.701 1.013 9
9.3269997 -3.6800001 1.002 9
9.3339996 -3.72 1.002 9
9.3070002 -3.665 0.99199998 9
9.3140001 -3.701 0.99199998 9
9.3339996 -3.7149999 1.002 9
9.3479996 -3.7179999 1.0089999 9
9.3369999 -3.701 1.005 9
9.335 -3.6949999 1.0039999 9
9.3100004 -3.6800001 0.99199998 9
9.3809996 -3.6619999 1.0420001 9
9.3739996 -3.681 1.031 9
9.3590002 -3.6459999 1.0319999 9
9.3400002 -3.6789999 1.0089999 9
9.3249998 -3.6589999 1.006 9
9.3760004 -3.642 1.045 9
9.3380003 -3.665 1.012 9
9.3500004 -3.668 1.02 9
9.3500004 -3.6559999 1.023 9
9.3730001 -3.6400001 1.044 9
9.3800001 -3.664 1.041 9
9.3730001 -3.6619999 1.0369999 9
9.3509998 -3.684 1.015 9
9.3739996 -3.6989999 1.025 9
9.3660002 -3.661 1.033 9
9.3409996 -3.6500001 1.0190001 9
9.3330002 -3.6700001 1.007 9
9.3610001 -3.678 1.024 9
9.3590002 -3.687 1.0190001 9
9.382 -3.645 1.048 9
9.3629999 -3.671 1.027 9
9.3789997 -3.6370001 1.049 9
9.3730001 -3.6489999 1.041 9
9.3789997 -3.6429999 1.0470001 9
9.3459997 -3.6689999 1.016 9
9.3319998 -3.654 1.012 9
9.3450003 -3.6760001 1.013 9
9.3190002 -3.6659999 0.99900001 9
9.3260002 -3.664 1.0039999 9
9.3400002 -3.6489999 1.0190001 9
9.3739996 -3.6659999 1.036 9
9.3690004 -3.6919999 1.024 9
9.4250002 -3.96 0.16 9
9.3509998 -3.8180001 0.116 9
9.3760004 -3.859 0.114 9
9.4090004 -3.9260001 0.14300001 9
9.3909998 -3.8970001 0.14300001 9
9.4160004 -3.9289999 0.126 9
9.4379997 -3.9990001 0.198 9
9.3760004 -3.9000001 0.204 9
9.3940001 -3.8889999 0.118 9
9.4650002 -4.0300002 0.17 9
9.3400002 -3.816 0.15000001 9
9.441 -3.9949999 0.18000001 9
9.4469995 -4.007 0.182 9
9.3929996 -3.911 0.168 9
9.335 -3.862 0.26800001 9
9.3940001 -3.8970001 0.13600001 9
9.342 -3.8010001 0.11 9
9.3940001 -3.9200001 0.184 9
9.3599997 -3.845 0.141 9
9.3380003 -3.806 0.13600001 9
9.3430004 -3.862 0.23800001 9
9.3769999 -3.8829999 0.164 9
9.4280005 -3.9530001 0.134 9
9.408 -3.9389999 0.176 9
9.349 -3.891 0.27900001 9
9.3479996 -3.816 0.123 9
9.3739996 -3.885 0.177 9
9.342 -3.872 0.266 9
9.3889999 -3.918 0.197 9
9.3739996 -3.885 0.18099999 9
9.4130001 -3.934 0.147 9
9.4090004 -3.948 0.19 9
9.3690004 -3.908 0.245 9
9.3479996 -3.839 0.17399999 9
9.3920002 -3.924 0.20100001 9
9.4110003 -3.9400001 0.168 9
9.342 -3.7939999 0.094999999 9
9.3559999 -3.859 0.18799999 9
9.3760004 -3.8889999 0.182 9
9.3959999 -3.9059999 0.147 9
9.3760004 -3.869 0.139 9
9.4069996 -3.9579999 0.21699999 9
9.3800001 -3.927 0.249 9
9.3979998 -3.925 0.18000001 9
9.4460001 -3.9949999 0.162 9
9.4110003 -3.9400001 0.164 9
9.3389997 -3.8469999 0.221 9
9.3959999 -3.908 0.15099999 9
9.3660002 -3.9030001 0.248 9
9.3479996 -3.8199999 0.131 9
9.4530001 -4.0120001 0.17399999 9
9.4399996 -3.987 0.16599999 9
9.3509998 -3.8829999 0.257 9
9.3380003 -3.79 0.103 9
9.3640003 -3.846 0.131 9
9.3719997 -3.8710001 0.155 9
9.3330002 -3.829 0.20299999 9
9.375 -3.8829999 0.17200001 9
9.3809996 -3.908 0.20299999 9
9.3389997 -3.7920001 0.102 9
9.3459997 -3.858 0.22 9
9.335 -3.8210001 0.18000001 9
9.3760004 -3.891 0.182 9
9.3959999 -3.9000001 0.13500001 9
9.3870001 -3.9000001 0.16599999 9
9.3940001 -3.908 0.156 9
9.3870001 -3.9100001 0.18700001 9
9.3690004 -3.845 0.111 9
9.3769999 -3.8629999 0.123 9
9.448 -4.0079999 0.18000001 9
9.3649998 -3.858 0.153 9
9.3400002 -3.8210001 0.161 9
9.3889999 -3.885 0.126 9
9.4160004 -3.961 0.193 9
9.3470001 -3.8410001 0.18099999 9
9.4610004 -4.0180001 0.15700001 9
9.3579998 -3.832 0.123 9
9.382 -3.8870001 0.154 9
9.4160004 -3.97 0.214 9
9.3640003 -3.9100001 0.26699999 9
9.4160004 -3.9430001 0.154 9
9.335 -3.8740001 0.29300001 9
9.3479996 -3.8670001 0.23199999 9
9.4119997 -3.9419999 0.16599999 9
9.3330002 -3.836 0.219 9
9.3780003 -3.882 0.15800001 9
9.3780003 -3.8959999 0.19 9
9.3940001 -3.8970001 0.13500001 9
9.342 -3.875 0.27000001 9
9.3660002 -3.8840001 0.206 9
9.3529997 -3.845 0.169 9
9.3730001 -3.848 0.106 9
9.3409996 -3.832 0.183 9
9.4209995 -3.9679999 0.19 9
9.3830004 -3.891 0.16 9
9.3549995 -3.8280001 0.124 9
9.3509998 -3.829 0.14 9
9.3339996 -3.835 0.214 9
9.4020004 -3.948 0.214 9
9.3730001 -3.895 0.205 9
9.3620005 -3.888 0.228 9
9.3360004 -3.8299999 0.193 9
9.3559999 -3.8800001 0.23199999 9
9.3409996 -3.8499999 0.221 9
9.3660002 -3.885 0.207 9
9.3909998 -3.931 0.21699999 9
9.3909998 -3.9130001 0.17900001 9
9.3620005 -3.8440001 0.133 9
9.3599997 -3.839 0.13 9
9.3459997 -3.881 0.27000001 9
9.4420004 -3.993 0.171 9
9.434 -3.983 0.177 9
9.3789997 -3.914 0.223 9
9.3940001 -3.9289999 0.20200001 9
9.3929996 -3.911 0.168 9
9.3789997 -3.8800001 0.152 9
9.415 -3.9289999 0.13 9
9.4399996 -3.9990001 0.193 9
9.3360004 -3.803 0.138 9
9.3529997 -3.8210001 0.115 9
9.3599997 -3.8840001 0.228 9
9.4180002 -3.9360001 0.13500001 9
9.3570004 -3.8340001 0.12800001 9
9.4499998 -4.006 0.17200001 9
9.3839998 -3.911 0.2 9
9.4490004 -4 0.16 9
9.3909998 -3.9349999 0.228 9
9.3330002 -3.842 0.23100001 9
9.3509998 -3.8629999 0.213 9
9.3950005 -3.904 0.146 9
9.3710003 -3.892 0.204 9
9.4200001 -3.938 0.12899999 9
9.3559999 -3.8559999 0.17900001 9
9.3999996 -3.9330001 0.19 9
9.3500004 -3.8789999 0.252 9
9.4230003 -3.9760001 0.20100001 9
9.4429998 -3.9949999 0.17200001 9
9.4189997 -3.9549999 0.169 9
9.3669996 -3.882 0.197 9
9.3310003 -3.846 0.249 9
9.3660002 -3.8970001 0.23100001 9
9.3439999 -3.8800001 0.273 9
9.3430004 -3.8069999 0.123 9
9.3950005 -3.8929999 0.122 9
9.3450003 -3.8710001 0.25099999 9
9.3599997 -3.902 0.264 9
9.4639997 -4.0229998 0.15899999 9
9.3459997 -3.8740001 0.25299999 9
9.3839998 -3.8759999 0.124 9
9.3780003 -3.8729999 0.139 9
9.4219999 -3.967 0.186 9
9.3559999 -3.823 0.109 9
9.4440002 -4 0.178 9
9.415 -3.9679999 0.211 9
9.3459997 -3.8870001 0.28299999 9
9.3640003 -3.8499999 0.14 9
9.3660002 -3.869 0.17399999 9
9.3479996 -3.8039999 0.097999997 9
9.3730001 -3.8499999 0.109 9
9.4110003 -3.9360001 0.15700001 9
9.4040003 -3.934 0.177 9
9.4259996 -3.98 0.20100001 9
9.368 -3.8699999 0.167 9
9.4209995 -3.977 0.20999999 9
9.4560003 -4.0180001 0.177 9
9.3360004 -3.809 0.149 9
9.4049997 -3.9389999 0.185 9
9.3950005 -3.947 0.23899999 9
9.4119997 -3.928 0.13600001 9
9.4139996 -3.9549999 0.189 9
9.3549995 -3.8299999 0.12800001 9
9.3649998 -3.8959999 0.234 9
9.3909998 -3.911 0.175 9
9.3660002 -3.8800001 0.19499999 9
9.3590002 -3.901 0.26499999 9
9.3479996 -3.836 0.16599999 9
9.3400002 -3.852 0.229 9
9.4370003 -3.997 0.198 9
9.3540001 -3.8239999 0.118 9
9.3599997 -3.878 0.213 9
9.3959999 -3.9159999 0.167 9
9.3979998 -3.921 0.17200001 9
9.3809996 -3.918 0.22499999 9
9.4440002 -3.9920001 0.162 9
9.4169998 -3.9579999 0.183 9
9.3389997 -3.8800001 0.29100001 9
9.4200001 -3.973 0.205 9
9.3549995 -3.839 0.148 9
9.3640003 -3.8640001 0.169 9
9.368 -3.8440001 0.113 9
9.3979998 -3.947 0.229 9
9.3389997 -3.839 0.206 9
9.3830004 -3.9000001 0.177 9
9.3669996 -3.882 0.198 9
9.4250002 -3.9660001 0.17299999 9
9.3690004 -3.845 0.11 9
9.3999996 -3.9000001 0.121 9
9.4209995 -3.95 0.152 9
9.3540001 -3.888 0.25799999 9
9.3450003 -3.869 0.24600001 9
9.434 -3.967 0.14399999 9
9.4040003 -3.951 0.21699999 9
9.3590002 -3.859 0.178 9
9.335 -3.8369999 0.213 9
9.3879995 -3.9360001 0.23800001 9
9.3669996 -3.8570001 0.145 9
9.3479996 -3.8239999 0.14 9
9.4020004 -3.9230001 0.162 9
9.3830004 -3.8889999 0.15700001 9
9.4020004 -3.9449999 0.20900001 9
9.3990002 -3.904 0.131 9
9.3479996 -3.8629999 0.22400001 9
9.3590002 -3.8410001 0.13699999 9
9.3360004 -3.7969999 0.123 9
9.4049997 -3.931 0.168 9
9.3870001 -3.934 0.23800001 9
9.349 -3.868 0.23199999 9
9.3579998 -3.822 0.098999999 9
9.4110003 -3.947 0.18099999 9
9.3699999 -3.901 0.228 9
9.3389997 -3.8410001 0.207 9
9.3360004 -3.796 0.121 9
9.4119997 -3.9660001 0.221 9
9.4069996 -3.9519999 0.206 9
9.3570004 -3.881 0.23199999 9
9.4420004 -3.9849999 0.154 9
9.4250002 -3.9660001 0.175 9
9.3450003 -3.8099999 0.12 9
9.4219999 -3.95 0.147 9
9.3540001 -3.845 0.162 9
9.4029999 -3.931 0.176 9
9.3940001 -3.9200001 0.183 9
9.3500004 -3.8570001 0.20299999 9
9.3990002 -3.9030001 0.12800001 9
9.3450003 -3.8310001 0.16500001 9
9.3310003 -3.8540001 0.266 9
9.4320002 -3.987 0.19599999 9
9.4189997 -3.95 0.16 9
9.349 -3.852 0.198 9
9.3929996 -3.9349999 0.21699999 9
9.3479996 -3.8629999 0.22499999 9
9.3360004 -3.872 0.285 9
9.4139996 -3.931 0.138 9
9.3500004 -3.842 0.17 9
9.3889999 -3.881 0.119 9
9.3769999 -3.869 0.134 9
9.3990002 -3.947 0.223 9
9.3409996 -3.7950001 0.102 9
9.3599997 -3.8440001 0.14 9
9.4309998 -3.984 0.189 9
9.4169998 -3.9549999 0.177 9
9.3520002 -3.8610001 0.205 9
9.4250002 -3.951 0.14 9
9.4099998 -3.9289999 0.146 9
9.3789997 -3.905 0.20299999 9
9.3950005 -3.8900001 0.118 9
9.474 -4.04 0.15800001 9
9.3769999 -3.8829999 0.162 9
9.4469995 -3.9949999 0.15700001 9
9.4110003 -3.9619999 0.214 9
9.3649998 -3.8540001 0.145 9
9.3889999 -3.9300001 0.22400001 9
9.3839998 -3.9170001 0.212 9
9.4110003 -3.9579999 0.204 9
9.349 -3.862 0.21799999 9
9.335 -3.8369999 0.215 9
9.3369999 -3.8529999 0.241 9
9.4069996 -3.9560001 0.214 9
9.3889999 -3.881 0.119 9
9.335 -3.8210001 0.18099999 9
9.3629999 -3.895 0.23999999 9
9.4180002 -3.9660001 0.198 9
9.3690004 -3.915 0.25999999 9
9.3520002 -3.8139999 0.104 9
9.3920002 -3.921 0.193 9
9.368 -3.878 0.183 9
9.3439999 -3.855 0.22 9
9.3809996 -3.9260001 0.241 9
9.3409996 -3.8399999 0.198 9
9.4490004 -3.9979999 0.156 9
9.4029999 -3.957 0.23 9
9.3909998 -3.924 0.20200001 9
9.4429998 -3.994 0.168 9
9.427 -3.9690001 0.17 9
9.3859997 -3.895 0.156 9
9.3800001 -3.928 0.252 9
9.3590002 -3.8380001 0.131 9
9.4219999 -3.941 0.131 9
9.401 -3.941 0.205 9
9.3730001 -3.8740001 0.161 9
9.3599997 -3.902 0.266 9
9.4029999 -3.9070001 0.125 9
9.382 -3.9119999 0.20999999 9
9.3830004 -3.8929999 0.164 9
9.3470001 -3.8740001 0.252 9
9.3730001 -3.8599999 0.131 9
9.3339996 -3.862 0.271 9
9.3570004 -3.8599999 0.186 9
9.3879995 -3.8889999 0.139 9
9.3789997 -3.928 0.252 9
9.3500004 -3.8199999 0.124 9
9.3669996 -3.902 0.241 9
9.3610001 -3.878 0.212 9
9.3620005 -3.872 0.19499999 9
9.3760004 -3.8710001 0.142 9
9.4209995 -3.944 0.139 9
9.4099998 -3.9360001 0.162 9
9.4099998 -3.9319999 0.15099999 9
9.4329996 -3.974 0.161 9
9.3590002 -3.835 0.124 9
9.349 -3.8399999 0.171 9
9.3769999 -3.872 0.142 9
9.4209995 -3.973 0.20200001 9
9.3540001 -3.8180001 0.079000004 9
9.4049997 -3.9119999 0.11 9
9.3570004 -3.822 0.086999997 9
9.368 -3.8440001 0.088 9
9.3559999 -3.8269999 0.066 9
9.3430004 -3.8 0.068000004 9
9.342 -3.806 0.043000001 9
9.3909998 -3.8859999 0.105 9
9.3479996 -3.812 0.061000001 9
9.3839998 -3.8710001 0.107 9
9.467 -4.026 0.147 9
9.3500004 -3.8110001 0.077 9
9.4560003 -4.006 0.14 9
9.3360004 -3.7950001 0.041000001 9
9.3570004 -3.825 0.081 9
9.3579998 -3.8380001 0.045000002 9
9.3450003 -3.806 0.059999999 9
9.401 -3.9119999 0.085000001 9
9.3570004 -3.819 0.097000003 9
9.3730001 -3.859 0.074000001 9
9.3950005 -3.8889999 0.115 9
9.3940001 -3.898 0.086999997 9
9.3610001 -3.8429999 0.050000001 9
9.3409996 -3.809 0.028999999 9
9.3549995 -3.825 0.061999999 9
9.4729996 -4.0370002 0.152 9
9.4060001 -3.9130001 0.114 9
9.4750004 -4.039 0.153 9
9.4069996 -3.9130001 0.117 9
9.4530001 -4 0.13699999 9
9.3640003 -3.832 0.097999997 9
9.4040003 -3.9159999 0.088 9
9.3870001 -3.8770001 0.103 9
9.4399996 -3.977 0.12800001 9
9.4560003 -4.0050001 0.141 9
9.3719997 -3.849 0.096000001 9
9.4130001 -3.924 0.124 9
9.3800001 -3.872 0.078000002 9
9.4250002 -3.9519999 0.111 9
9.3620005 -3.845 0.048 9
9.4130001 -3.927 0.111 9
9.3950005 -3.9000001 0.082000002 9
9.3739996 -3.8640001 0.064999998 9
9.3439999 -3.8139999 0.030999999 9
9.349 -3.819 0.045000002 9
9.3540001 -3.8310001 0.041999999 9
9.3380003 -3.799 0.039000001 9
9.3780003 -3.8599999 0.105 9
9.3660002 -3.849 0.057 9
9.4569998 -4.007 0.146 9
9.3450003 -3.7969999 0.090000004 9
9.3920002 -3.892 0.088 9
9.3830004 -3.875 0.086000003 9
9.4130001 -3.9319999 0.097999997 9
9.3649998 -3.845 0.068000004 9
9.3920002 -3.888 0.102 9
9.4429998 -3.98 0.13500001 9
9.3649998 -3.839 0.086000003 9
9.4329996 -3.9679999 0.115 9
9.4329996 -3.9619999 0.133 9
9.375 -3.8599999 0.081 9
9.4020004 -3.915 0.083999999 9
9.342 -3.7920001 0.085000001 9
9.3529997 -3.8269999 0.044 9
9.4530001 -4.0019999 0.13600001 9
9.3540001 -3.816 0.085000001 9
9.4350004 -3.9679999 0.125 9
9.3929996 -3.8940001 0.090000004 9
9.3380003 -3.7909999 0.063000001 9
9.4359999 -3.9679999 0.134 9
9.349 -3.8080001 0.079000004 9
9.4429998 -3.983 0.131 9
9.3990002 -3.902 0.098999999 9
9.4219999 -3.944 0.121 9
9.349 -3.8150001 0.061000001 9
9.3660002 -3.849 0.057999998 9
9.4239998 -3.951 0.111 9
9.3579998 -3.8329999 0.061000001 9
9.4700003 -4.0310001 0.15099999 9
9.3549995 -3.822 0.078000002 9
9.4049997 -3.915 0.098999999 9
9.3549995 -3.823 0.067000002 9
9.3959999 -3.9030001 0.079000004 9
9.4110003 -3.9200001 0.119 9
9.3900003 -3.8859999 0.093000002 9
9.4049997 -3.911 0.109 9
9.401 -3.9100001 0.090000004 9
9.3699999 -3.8510001 0.079000004 9
9.434 -3.9649999 0.131 9
9.4160004 -3.9349999 0.107 9
9.4320002 -3.9660001 0.116 9
9.3739996 -3.8540001 0.096000001 9
9.3940001 -3.8889999 0.113 9
9.3929996 -3.891 0.096000001 9
9.3380003 -3.783 0.086999997 9
9.4119997 -3.928 0.107 9
9.3830004 -3.8800001 0.068000004 9
9.3660002 -3.8429999 0.077 9
9.3660002 -3.8369999 0.093999997 9
9.4169998 -3.9389999 0.105 9
9.3940001 -3.8970001 0.086000003 9
9.3389997 -3.793 0.061999999 9
9.3529997 -3.813 0.093000002 9
9.4799995 -4.0479999 0.15700001 9
9.3529997 -3.8210001 0.061000001 9
9.4110003 -3.9300001 0.092 9
9.4119997 -3.9289999 0.1 9
9.3389997 -3.7909999 0.067000002 9
9.4169998 -3.924 0.048 9
9.4759998 -4.0050001 0.035999998 9
9.4530001 -3.9960001 0.112 9
9.4779997 -4.0300002 0.104 9
9.4359999 -3.967 0.093999997 9
9.3830004 -3.8789999 0.059 9
9.4560003 -3.9890001 0.075999998 9
9.4040003 -3.911 0.063000001 9
9.4799995 -4.0409999 0.132 9
9.4370003 -3.9690001 0.097000003 9
9.4779997 -4.007 0.035999998 9
9.4060001 -3.918 0.077 9
9.4610004 -3.9920001 0.064999998 9
9.3590002 -3.8380001 0.037 9
9.4580002 -4.0079999 0.127 9
9.4510002 -3.9849999 0.083999999 9
9.441 -3.9790001 0.111 9
9.4689999 -4.006 0.075000003 9
9.4259996 -3.9460001 0.075999998 9
9.4720001 -4.033 0.141 9
9.4680004 -4.0240002 0.13 9
9.4160004 -3.9260001 0.054000001 9
9.3690004 -3.8510001 0.032000002 9
9.4790001 -4.0089998 0.039000001 9
9.4750004 -4.0019999 0.034000002 9
9.4230003 -3.931 0.043000001 9
9.375 -3.8610001 0.033 9
9.4619999 -3.9849999 0.039000001 9
9.4130001 -3.918 0.044 9
9.4519997 -3.971 0.039000001 9
9.4630003 -4.02 0.14 9
9.4429998 -3.964 0.054000001 9
9.4750004 -4.0050001 0.043000001 9
9.4809999 -4.046 0.14399999 9
9.4499998 -3.983 0.086000003 9
9.4429998 -3.9719999 0.079999998 9
9.408 -3.9219999 0.079999998 9
9.4499998 -3.9679999 0.037999999 9
9.441 -3.9579999 0.045000002 9
9.474 -4.0240002 0.106 9
9.4499998 -3.9909999 0.108 9
9.4519997 -3.974 0.046999998 9
9.4329996 -3.964 0.098999999 9
9.4510002 -3.9860001 0.089000002 9
9.4499998 -3.994 0.118 9
9.4639997 -4.0209999 0.139 9
9.4490004 -3.99 0.11 9
9.3629999 -3.845 0.041999999 9
9.4440002 -3.961 0.041999999 9
9.4510002 -3.973 0.048999999 9
9.4720001 -4.013 0.079999998 9
9.4700003 -4.0240002 0.121 9
9.4040003 -3.902 0.039000001 9
9.3730001 -3.8629999 0.052000001 9
9.4779997 -4.0279999 0.1 9
9.4770002 -4.0359998 0.127 9
9.4589996 -3.9860001 0.055 9
9.4580002 -4.007 0.123 9
9.4610004 -3.987 0.048 9
9.3870001 -3.885 0.057 9
9.4870005 -4.02 0.039000001 9
9.4440002 -3.9719999 0.077 9
9.4659996 -3.99 0.035 9
9.441 -3.9660001 0.074000001 9
9.3760004 -3.8699999 0.057999998 9
9.4289999 -3.937 0.033 9
9.4759998 -4.0100002 0.052999999 9
9.4160004 -3.9319999 0.074000001 9
9.3999996 -3.901 0.050000001 9
9.434 -3.9630001 0.092 9
9.4440002 -3.9760001 0.090000004 9
9.4680004 -4.0120001 0.093000002 9
9.4300003 -3.9419999 0.045000002 9
9.4700003 -4.0219998 0.117 9
9.4230003 -3.951 0.102 9
9.4790001 -4.0240002 0.083999999 9
9.4560003 -3.994 0.092 9
9.448 -3.9749999 0.068999998 9
9.4440002 -3.9590001 0.035 9
9.4189997 -3.9230001 0.037 9
9.4460001 -3.9719999 0.068000004 9
9.4549999 -3.977 0.046 9
9.448 -3.9760001 0.071000002 9
9.4350004 -3.9530001 0.056000002 9
9.4390001 -3.9579999 0.052999999 9
9.4379997 -3.9679999 0.090000004 9
9.4650002 -4.0180001 0.127 9
9.4840002 -4.0219998 0.059 9
9.4169998 -3.934 0.074000001 9
9.4569998 -3.9879999 0.07 9
9.4219999 -3.9400001 0.075000003 9
9.4209995 -3.9460001 0.096000001 9
9.4099998 -3.9230001 0.071999997 9
9.4619999 -3.9990001 0.079999998 9
9.408 -3.9159999 0.064000003 9
9.4379997 -3.967 0.088 9
9.4440002 -3.984 0.115 9
9.4200001 -3.928 0.046 9
9.3900003 -3.888 0.055 9
9.4259996 -3.9360001 0.045000002 9
9.4820004 -4.0159998 0.048 9
9.4809999 -4.0430002 0.133 9
9.4709997 -4.0180001 0.101 9
9.474 -4.0149999 0.081 9
9.4659996 -4.0009999 0.071999997 9
9.4619999 -3.99 0.050999999 9
9.4359999 -3.9690001 0.105 9
9.4510002 -3.97 0.039999999 9
9.4200001 -3.927 0.041999999 9
9.4119997 -3.9200001 0.057999998 9
9.4359999 -3.9549999 0.059999999 9
9.4809999 -4.0479999 0.15000001 9
9.4429998 -3.9749999 0.086999997 9
9.4700003 -3.9990001 0.046999998 9
9.4879999 -4.0209999 0.035999998 9
9.4219999 -3.9360001 0.061000001 9
9.4110003 -3.9289999 0.088 9
9.4530001 -3.971 0.035999998 9
9.3900003 -3.885 0.046999998 9
9.427 -3.9460001 0.071999997 9
9.4289999 -3.948 0.071999997 9
9.4729996 -4 0.039999999 9
9.4639997 -4.0040002 0.090999998 9
9.3929996 -3.8900001 0.048 9
9.4049997 -3.904 0.037 9
9.4790001 -4.04 0.133 9
9.4230003 -3.938 0.063000001 9
9.4180002 -3.9349999 0.078000002 9
9.4659996 -3.994 0.048999999 9
9.467 -4.026 0.14300001 9
9.4029999 -3.9119999 0.068999998 9
9.3889999 -3.891 0.067000002 9
9.4569998 -3.994 0.085000001 9
9.427 -3.9560001 0.103 9
9.4809999 -4.0469999 0.14399999 9
9.4849997 -4.0300002 0.078000002 9
9.3640003 -3.845 0.035 9
9.4799995 -4.0139999 0.048 9
9.4700003 -4.0019999 0.054000001 9
9.4820004 -4.0279999 0.079999998 9
9.4799995 -4.0450001 0.14300001 9
9.4040003 -3.902 0.035999998 9
9.4589996 -3.99 0.067000002 9
9.4549999 -3.9790001 0.048 9
9.3690004 -3.8510001 0.032000002 9
9.4370003 -3.964 0.082000002 9
9.4189997 -3.925 0.039000001 9
9.4820004 -4.0339999 0.1 9
9.4429998 -3.9809999 0.111 9
9.4759998 -4.013 0.064999998 9
9.3599997 -3.839 0.034000002 9
9.4160004 -3.9170001 0.030999999 9
9.4300003 -3.9489999 0.07 9
9.3599997 -3.842 0.043000001 9
9.4399996 -3.9760001 0.104 9
9.3850002 -3.6800001 1.0549999 9
9.382 -3.697 1.046 9
9.3789997 -3.6949999 1.033 9
9.3800001 -3.6900001 1.038 9
9.3879995 -3.6589999 1.067 9
9.3830004 -3.697 1.05 9
9.3830004 -3.6760001 1.049 9
9.3830004 -3.6689999 1.049 9
9.3859997 -3.671 1.062 9
9.3879995 -3.664 1.069 9
9.382 -3.6960001 1.0470001 9
9.3870001 -3.6700001 1.063 9
9.3870001 -3.6589999 1.0650001 9
9.382 -3.688 1.044 9
9.3839998 -3.681 1.051 9
9.3830004 -3.652 1.048 9
9.3859997 -3.648 1.059 9
9.3909998 -3.6800001 1.0829999 9
9.3879995 -3.6800001 1.067 9
9.3839998 -3.654 1.051 9
9.4069996 -3.595 1.036 9
9.4300003 -3.5339999 0.99699998 9
9.4370003 -3.5079999 0.977 9
9.3979998 -3.6059999 1.039 9
9.4239998 -3.5769999 1.036 9
9.4029999 -3.609 1.046 9
9.4219999 -3.576 1.033 9
9.4160004 -3.5899999 1.04 9
9.4200001 -3.5739999 1.028 9
9.3979998 -3.6110001 1.043 9
9.4099998 -3.5869999 1.031 9
9.4289999 -3.5369999 1 9
9.4180002 -3.5639999 1.016 9
9.4069996 -3.5940001 1.035 9
9.3950005 -3.6199999 1.05 9
9.4160004 -3.572 1.022 9
9.4250002 -3.5550001 1.0140001 9
9.3959999 -3.6140001 1.044 9
9.4250002 -3.559 1.018 9
9.427 -3.5539999 1.015 9
9.4169998 -3.595 1.046 9
9.3999996 -3.6099999 1.043 9
9.3929996 -3.5739999 1.01 9
9.3850002 -3.5999999 1.027 9
9.3929996 -3.6010001 1.031 9
9.4219999 -3.5420001 0.99699998 9
9.3950005 -3.5739999 1.01 9
9.401 -3.5320001 0.98000002 9
9.3900003 -3.6029999 1.0319999 9
9.4280005 -3.513 0.977 9
9.3950005 -3.5710001 1.008 9
9.3929996 -3.6129999 1.041 9
9.3900003 -3.5969999 1.026 9
9.3929996 -3.5599999 0.99900001 9
9.4090004 -3.5539999 1.001 9
9.3889999 -3.5599999 0.99699998 9
9.401 -3.536 0.98299998 9
9.4189997 -3.5209999 0.97899997 9
9.3859997 -3.559 0.995 9
9.401 -3.556 0.99900001 9
9.3850002 -3.6289999 1.05 9
9.3959999 -3.5869999 1.022 9
9.4160004 -3.5280001 0.98400003 9
9.4090004 -3.5699999 1.0140001 9
9.4069996 -3.5439999 0.99199998 9
9.3839998 -3.5539999 0.991 9
9.4099998 -3.5369999 0.98799998 9
9.3950005 -3.5880001 1.022 9
9.4200001 -3.5369999 0.99299997 9
9.4160004 -3.5239999 0.98100001 9
9.3950005 -3.5580001 0.99800003 9
9.4119997 -3.5309999 0.98500001 9
9.3850002 -3.569 1.002 9
9.3999996 -3.5899999 1.026 9
9.408 -3.5510001 0.99900001 9
9.3850002 -3.625 1.046 9
9.4209995 -4.0599999 1.089 9
9.4169998 -4.0539999 1.0829999 9
9.4209995 -4.0939999 1.109 9
9.474 -4.04 1.11 9
9.4530001 -4.052 1.104 9
9.4259996 -4.0500002 1.086 9
9.4350004 -4.0679998 1.102 9
9.4069996 -4.1069999 1.108 9
9.4189997 -4.0900002 1.105 9
9.4490004 -4.0679998 1.1109999 9
9.4219999 -4.073 1.097 9
9.4610004 -4.04 1.102 9
9.4630003 -4.0450001 1.1059999 9
9.4510002 -4.0440001 1.098 9
9.415 -4.0869999 1.101 9
9.4329996 -4.046 1.0880001 9
9.4250002 -4.046 1.0829999 9
9.4280005 -4.0710001 1.1 9
9.4630003 -4.053 1.1109999 9
9.4390001 -4.0749998 1.109 9
9.4560003 -4.0479999 1.103 9
9.4160004 -4.0710001 1.092 9
9.4399996 -4.072 1.108 9
9.4420004 -4.0619998 1.103 9
9.4379997 -4.0450001 1.09 9
9.4259996 -4.0609999 1.092 9
9.4180002 -4.0770001 1.097 9
9.4420004 -4.0679998 1.107 9
9.4169998 -4.085 1.101 9
9.4390001 -4.0510001 1.094 9
9.4309998 -4.0580001 1.094 9
9.4040003 -4.1090002 1.126 9
9.4169998 -4.098 1.12 9
9.4040003 -4.1100001 1.11 9
9.4429998 -4.0760002 1.115 9
9.4130001 -4.1009998 1.1160001 9
9.4449997 -4.0739999 1.117 9
9.4449997 -4.072 1.125 9
9.4029999 -4.1110001 1.112 9
9.4230003 -4.092 1.123 9
9.4200001 -4.0949998 1.12 9
9.4329996 -4.0830002 1.128 9
9.441 -4.0770001 1.118 9
9.4610004 -4.0599999 1.115 9
9.4049997 -4.1079998 1.123 9
9.467 -4.0539999 1.1210001 9
9.4289999 -4.0879998 1.1160001 9
9.4650002 -4.0560002 1.117 9
9.4209995 -4.0949998 1.11 9
9.4320002 -4.0190001 0.25600001 9
9.4309998 -4.0419998 0.30500001 9
9.4460001 -4.0209999 0.215 9
9.4250002 -4.0180001 0.28 9
9.4499998 -4.0430002 0.244 9
9.3760004 -3.931 0.271 9
9.4090004 -3.973 0.243 9
9.3889999 -3.951 0.26699999 9
9.467 -4.0349998 0.171 9
9.4449997 -4.04 0.255 9
9.4580002 -4.046 0.226 9
9.4209995 -4.007 0.26899999 9
9.4280005 -4.0139999 0.25999999 9
9.3669996 -3.9319999 0.30199999 9
9.434 -4.0050001 0.22400001 9
9.408 -3.9679999 0.235 9
9.382 -3.9419999 0.271 9
9.382 -3.948 0.28200001 9
9.3889999 -3.9590001 0.28200001 9
9.3669996 -3.9189999 0.27700001 9
9.3909998 -3.964 0.28600001 9
9.4350004 -4.0469999 0.30199999 9
9.4289999 -4.0339999 0.296 9
9.4589996 -4.0560002 0.241 9
9.4440002 -4.0289998 0.237 9
9.4499998 -4.0419998 0.242 9
9.4540005 -4.0440001 0.23199999 9
9.4130001 -4 0.28299999 9
9.4350004 -4.0310001 0.26899999 9
9.4390001 -4.0219998 0.23999999 9
9.4259996 -4.02 0.28 9
9.3889999 -3.954 0.27000001 9
9.382 -3.9489999 0.28299999 9
9.4090004 -3.974 0.243 9
9.4469995 -4.0370002 0.242 9
9.3599997 -3.9089999 0.28 9
9.3809996 -3.9530001 0.29699999 9
9.4429998 -4.0370002 0.25600001 9
9.3929996 -3.974 0.296 9
9.4230003 -4.0149999 0.27700001 9
9.4420004 -4.059 0.30399999 9
9.4469995 -4.027 0.222 9
9.4189997 -4.0120001 0.285 9
9.3990002 -3.983 0.29699999 9
9.4560003 -4.0539999 0.24600001 9
9.4320002 -4.0289998 0.27500001 9
9.4560003 -4.0450001 0.228 9
9.4420004 -4.02 0.226 9
9.401 -3.9590001 0.242 9
9.4069996 -3.9779999 0.259 9
9.375 -3.927 0.266 9
9.4499998 -4.0250001 0.20900001 9
9.4540005 -4.027 0.2 9
9.4029999 -3.987 0.28799999 9
9.401 -3.9909999 0.30399999 9
9.3920002 -3.9630001 0.28099999 9
9.4069996 -3.99 0.28200001 9
9.4350004 -4.0100002 0.228 9
9.3649998 -3.9159999 0.27700001 9
9.4490004 -4.0469999 0.25799999 9
9.3520002 -3.9000001 0.28999999 9
9.4589996 -4.0430002 0.21600001 9
9.3889999 -3.944 0.255 9
9.46 -4.0279999 0.182 9
9.3719997 -3.934 0.289 9
9.4060001 -3.994 0.292 9
9.441 -4.02 0.23100001 9
9.4680004 -4.0479999 0.19400001 9
9.4350004 -4.0349998 0.27900001 9
9.4300003 -4.006 0.236 9
9.3929996 -3.96 0.27000001 9
9.3690004 -3.925 0.28299999 9
9.441 -4.0250001 0.23800001 9
9.3809996 -3.957 0.30399999 9
9.4049997 -3.993 0.29499999 9
9.434 -4.0019999 0.21600001 9
9.4060001 -3.9690001 0.245 9
9.3710003 -3.931 0.285 9
9.4350004 -4.0180001 0.245 9
9.434 -4.0370002 0.28400001 9
9.4530001 -4.0539999 0.25600001 9
9.375 -3.9389999 0.28799999 9
9.4230003 -4.0159998 0.28200001 9
9.3920002 -3.964 0.28099999 9
9.3950005 -3.957 0.25600001 9
9.3690004 -3.928 0.28600001 9
9.3879995 -3.9590001 0.28400001 9
9.434 -4.0370002 0.28600001 9
9.4320002 -4.0409999 0.29800001 9
9.3879995 -3.9579999 0.285 9
9.4329996 -4.0040002 0.223 9
9.3909998 -3.964 0.285 9
9.3739996 -3.941 0.294 9
9.4469995 -4.0279999 0.22400001 9
9.3780003 -3.9430001 0.287 9
9.408 -3.9809999 0.26300001 9
9.441 -4.0349998 0.257 9
9.3900003 -3.957 0.27399999 9
9.3570004 -3.908 0.28600001 9
9.46 -4.0359998 0.19599999 9
9.415 -3.997 0.271 9
9.4530001 -4.0240002 0.198 9
9.4040003 -3.9790001 0.271 9
9.3970003 -3.9809999 0.30000001 9
9.3730001 -3.938 0.294 9
9.3999996 -3.9619999 0.25099999 9
9.4729996 -4.0419998 0.167 9
9.4219999 -4.007 0.26800001 9
9.375 -3.941 0.29100001 9
9.4449997 -4.0089998 0.19400001 9
9.4300003 -3.9960001 0.219 9
9.4700003 -4.0409999 0.17399999 9
9.4219999 -4.0110002 0.27500001 9
9.4130001 -3.9719999 0.228 9
9.349 -3.898 0.29699999 9
9.4390001 -4.0040002 0.204 9
9.4049997 -3.9649999 0.23899999 9
9.4049997 -3.994 0.296 9
9.474 -4.0450001 0.17 9
9.368 -3.9289999 0.29100001 9
9.3950005 -3.951 0.244 9
9.4160004 -3.993 0.259 9
9.4300003 -4.0149999 0.257 9
9.4549999 -4.0440001 0.23100001 9
9.3940001 -3.951 0.248 9
9.4209995 -3.987 0.23100001 9
9.3620005 -3.921 0.29800001 9
9.3789997 -3.947 0.28999999 9
9.368 -3.9289999 0.29300001 9
9.3780003 -3.938 0.278 9
9.4289999 -4.026 0.28099999 9
9.4239998 -3.9849999 0.21799999 9
9.434 -4.0430002 0.29699999 9
9.4420004 -4.0219998 0.23 9
9.4499998 -4.0310001 0.221 9
9.4510002 -4.0419998 0.237 9
9.3970003 -3.9660001 0.26800001 9
9.3579998 -3.9070001 0.285 9
9.3579998 -3.911 0.29100001 9
9.4379997 -4.0250001 0.248 9
9.4239998 -3.9990001 0.243 9
9.4560003 -4.0289998 0.19599999 9
9.4289999 -4.0240002 0.27599999 9
9.4510002 -4.0219998 0.2 9
9.4420004 -4.0450001 0.273 9
9.4049997 -3.983 0.27399999 9
9.4530001 -4.0190001 0.186 9
9.3459997 -3.8959999 0.301 9
9.434 -3.9960001 0.204 9
9.3929996 -3.9530001 0.257 9
9.4090004 -3.974 0.24699999 9
9.3669996 -3.9230001 0.285 9
9.3610001 -3.9119999 0.28299999 9
9.3780003 -3.941 0.28400001 9
9.4569998 -4.0310001 0.198 9
9.4519997 -4.0560002 0.26300001 9
9.4289999 -4.0009999 0.23 9
9.3579998 -3.9100001 0.289 9
9.4119997 -3.984 0.25600001 9
9.4729996 -4.0479999 0.17900001 9
9.4359999 -4.033 0.27000001 9
9.4469995 -4.052 0.271 9
9.4239998 -4.0250001 0.29499999 9
9.3739996 -3.9449999 0.303 9
9.434 -4.0120001 0.237 9
9.4020004 -3.9849999 0.28999999 9
9.4560003 -4.0289998 0.19599999 9
9.434 -3.9990001 0.212 9
9.4619999 -4.0479999 0.215 9
9.448 -4.0190001 0.20200001 9
9.4230003 -4.0250001 0.29699999 9
9.4329996 -4.0240002 0.26499999 9
9.3900003 -3.971 0.30000001 9
9.3879995 -3.631 1.053 9
9.3950005 -3.641 1.063 9
9.4139996 -3.602 1.05 9
9.3990002 -3.6300001 1.059 9
9.3929996 -3.6700001 1.08 9
9.3920002 -3.665 1.076 9
9.4020004 -3.6170001 1.052 9
9.3889999 -3.6530001 1.067 9
9.3889999 -3.6630001 1.073 9
9.3959999 -3.677 1.085 9
9.4020004 -3.6159999 1.051 9
9.3940001 -3.6830001 1.0880001 9
9.4040003 -3.652 1.074 9
9.4040003 -3.6199999 1.0549999 9
9.3950005 -3.6329999 1.059 9
9.4189997 -3.677 1.114 9
9.4329996 -3.615 1.127 9
9.4119997 -3.6530001 1.108 9
9.427 -3.6600001 1.1210001 9
9.4069996 -3.6800001 1.103 9
9.4209995 -3.6359999 1.1160001 9
9.4119997 -3.6670001 1.108 9
9.4130001 -3.684 1.108 9
9.4219999 -3.654 1.117 9
9.4370003 -3.6300001 1.13 9
9.4300003 -3.6170001 1.125 9
9.4119997 -3.677 1.107 9
9.4200001 -3.6589999 1.115 9
9.3990002 -3.6889999 1.096 9
9.4099998 -3.6849999 1.1059999 9
9.4239998 -3.658 1.118 9
9.4300003 -3.6229999 1.124 9
9.4300003 -3.6240001 1.124 9
9.4300003 -3.642 1.124 9
9.427 -3.6340001 1.1210001 9
9.4289999 -3.6470001 1.122 9
9.4259996 -3.6600001 1.12 9
9.4219999 -3.687 1.1160001 9
9.408 -3.6389999 1.069 9
9.4219999 -3.628 1.11 9
9.4200001 -3.6129999 1.074 9
9.4289999 -3.612 1.1109999 9
9.4289999 -3.5929999 1.0779999 9
9.427 -3.6029999 1.086 9
9.4099998 -3.642 1.0829999 9
9.4169998 -3.6240001 1.082 9
9.434 -3.602 1.114 9
9.4139996 -3.6229999 1.0650001 9
9.4189997 -3.6289999 1.096 9
9.4239998 -3.6059999 1.077 9
9.4370003 -3.5969999 1.119 9
9.4049997 -3.648 1.073 9
9.4200001 -3.6240001 1.0930001 9
9.4239998 -3.6129999 1.089 9
9.4259996 -3.5929999 1.0650001 9
9.4209995 -3.6229999 1.097 9
9.4099998 -3.6400001 1.077 9
9.4169998 -3.6240001 1.079 9
9.4329996 -3.6040001 1.115 9
9.3979998 -3.6760001 1.087 9
9.4160004 -3.635 1.095 9
9.4239998 -3.619 1.102 9
9.4090004 -3.6440001 1.08 9
9.4309998 -3.605 1.1059999 9
9.4139996 -3.6229999 1.066 9
9.4230003 -3.5910001 1.051 9
9.4110003 -3.631 1.067 9
9.4119997 -3.6300001 1.072 9
9.4230003 -3.6199999 1.097 9
9.4180002 -3.6140001 1.069 9
9.4060001 -3.6630001 1.101 9
9.4209995 -3.6259999 1.101 9
9.4160004 -3.6429999 1.107 9
9.4099998 -3.6429999 1.0829999 9
9.4020004 -3.668 1.092 9
9.427 -3.598 1.076 9
9.4230003 -3.598 1.063 9
9.4169998 -3.6199999 1.071 9
9.427 -3.609 1.098 9
9.4309998 -3.6040001 1.105 9
9.4130001 -3.6289999 1.0700001 9
9.4329996 -3.6110001 1.125 9
9.415 -3.6400001 1.101 9
9.415 -3.6229999 1.0700001 9
9.4309998 -3.5669999 1.044 9
9.434 -3.575 1.072 9
9.4379997 -3.5250001 1.01 9
9.4309998 -3.546 1.013 9
9.4320002 -3.5869999 1.079 9
9.4350004 -3.529 1.003 9
9.4379997 -3.546 1.044 9
9.4370003 -3.575 1.082 9
9.4390001 -3.5510001 1.052 9
9.434 -3.566 1.057 9
9.4329996 -3.5880001 1.087 9
9.4259996 -3.579 1.041 9
9.4289999 -3.573 1.048 9
9.4370003 -3.5880001 1.104 9
9.4359999 -3.5669999 1.067 9
9.4390001 -3.552 1.056 9
9.4259996 -3.5799999 1.044 9
9.4350004 -3.566 1.061 9
9.4280005 -3.5680001 1.033 9
9.434 -3.539 1.012 9
9.4259996 -3.589 1.0599999 9
9.4320002 -3.5409999 1.01 9
9.4379997 -3.5120001 0.98699999 9
9.4320002 -3.592 1.087 9
9.4350004 -3.5539999 1.04 9
9.4320002 -3.5569999 1.034 9
9.434 -3.592 1.099 9
9.4289999 -3.572 1.046 9
9.4359999 -3.563 1.0599999 9
9.4370003 -3.556 1.053 9
9.4280005 -3.5880001 1.066 9
9.4350004 -3.533 1.006 9
9.4350004 -3.53 1.0039999 9
9.4320002 -3.5539999 1.026 9
9.4329996 -3.573 1.063 9
9.4359999 -3.5510001 1.04 9
9.4429998 -3.5580001 1.0880001 9
9.441 -3.566 1.0880001 9
9.4449997 -3.5079999 1.0190001 9
9.441 -3.556 1.073 9
9.4449997 -3.5190001 1.034 9
9.441 -3.517 1.011 9
9.4420004 -3.5780001 1.11 9
9.4449997 -3.52 1.038 9
9.441 -3.54 1.0470001 9
9.4460001 -3.5179999 1.038 9
9.4390001 -3.5320001 1.025 9
9.441 -3.5480001 1.057 9
9.4399996 -3.5569999 1.066 9
9.4429998 -3.533 1.046 9
9.4420004 -3.52 1.02 9
9.4449997 -3.5250001 1.0470001 9
9.448 -3.5109999 1.039 9
9.4399996 -3.5220001 1.016 9
9.4469995 -3.527 1.058 9
9.4399996 -3.5350001 1.0319999 9
9.4440002 -3.5439999 1.0700001 9
9.4399996 -3.5179999 1.005 9
9.4449997 -3.5209999 1.041 9
9.4420004 -3.507 1.002 9
9.4420004 -3.573 1.105 9
9.4429998 -3.5550001 1.081 9
9.4440002 -3.517 1.029 9
9.4399996 -3.552 1.062 9
9.4560003 -4.04 1.098 9
9.4420004 -4.0370002 1.0779999 9
9.4519997 -4.0409999 1.096 9
9.4720001 -4.0279999 1.085 9
9.434 -4.0440001 1.086 9
9.4890003 -4.02 1.084 9
9.4619999 -4.0370002 1.096 9
9.4770002 -4.026 1.086 9
9.4790001 -4.0300002 1.096 9
9.4420004 -4.0419998 1.089 9
9.4860001 -4.026 1.095 9
9.4639997 -4.039 1.102 9
9.4420004 -4.04 1.084 9
9.4610004 -4.0370002 1.095 9
9.4870005 -4.033 1.11 9
9.4879999 -4.02 1.082 9
9.4639997 -4.0599999 0.25099999 9
9.4759998 -4.0669999 0.27500001 9
9.4680004 -4.0630002 0.266 9
9.4519997 -4.0619998 0.292 9
9.4890003 -4.0650001 0.23899999 9
9.4849997 -4.0549998 0.18000001 9
9.4750004 -4.0539999 0.18799999 9
9.493 -4.0689998 0.25799999 9
9.4619999 -4.0580001 0.24600001 9
9.4650002 -4.0650001 0.287 9
9.4829998 -4.0560002 0.18799999 9
9.467 -4.0619998 0.26199999 9
9.448 -4.0609999 0.294 9
9.4960003 -4.0689998 0.25299999 9
9.4809999 -4.0700002 0.292 9
9.4700003 -4.0549998 0.204 9
9.4519997 -4.0609999 0.28099999 9
9.5080004 -4.0819998 0.31400001 9
9.4809999 -4.052 0.16599999 9
9.4790001 -4.073 0.31 9
9.4700003 -4.0700002 0.308 9
9.4650002 -4.066 0.292 9
