# .PCD v0.7 - Point Cloud Data file format
VERSION 0.7
FIELDS x y z label
SIZE 4 4 4 4
TYPE F F F U
COUNT 1 1 1 1
WIDTH 1796
HEIGHT 1
VIEWPOINT 0 0 0 1 0 0 0
POINTS 1796
DATA ascii
10.314 -2.1429999 2.2639999 5
10.447 -1.995 2.263 5
10.512 -2.0409999 2.263 5
10.326 -2.2149999 2.2650001 5
10.558 -2.049 2.263 5
10.402 -2.1800001 2.2639999 5
10.497 -2.0669999 2.263 5
10.541 -2.046 2.263 5
10.48 -2.1099999 2.2639999 5
10.47 -1.998 2.263 5
10.242 -2.2590001 2.2650001 5
10.479 -2.1059999 2.2639999 5
10.32 -2.1700001 2.2650001 5
10.466 -2.0139999 2.263 5
10.357 -2.207 2.2650001 5
10.287 -2.0639999 2.2639999 5
10.252 -2.0580001 2.2639999 5
10.512 -2.0669999 2.263 5
10.294 -2.0610001 2.2639999 5
10.34 -2.1659999 2.2639999 5
10.337 -2.1359999 2.2639999 5
10.473 -2.023 2.263 5
10.354 -2.017 2.2639999 5
10.26 -2.22 2.2650001 5
10.3 -2.154 2.2650001 5
10.377 -2.2 2.2639999 5
10.377 -2.073 2.2639999 5
10.336 -2.1960001 2.2650001 5
10.405 -2.0350001 2.263 5
10.515 -1.994 2.263 5
10.396 -2.0780001 2.2639999 5
10.437 -2.0569999 2.263 5
10.418 -2.0039999 2.263 5
10.252 -1.994 2.2639999 5
10.28 -2.0280001 2.2639999 5
10.287 -2.253 2.2650001 5
10.284 -2.217 2.2650001 5
10.406 -2.105 2.2639999 5
10.418 -1.999 2.263 5
10.372 -1.999 2.263 5
10.384 -2.174 2.2639999 5
10.383 -2.128 2.2639999 5
10.344 -2.0139999 2.2639999 5
10.458 -2.003 2.263 5
10.348 -1.994 2.263 5
10.407 -2.1459999 2.2639999 5
10.426 -2.132 2.2639999 5
10.318 -2.2509999 2.2650001 5
10.434 -2.062 2.263 5
10.258 -2.2650001 2.2650001 5
10.375 -2.079 2.2639999 5
10.488 -2.0079999 2.263 5
10.449 -2.085 2.2639999 5
10.406 -2.128 2.2639999 5
10.35 -2.0020001 2.2639999 5
10.259 -2.141 2.2650001 5
10.422 -2.003 2.263 5
10.296 -2.0569999 2.2639999 5
10.402 -2.1329999 2.2639999 5
10.276 -2.2049999 2.2650001 5
10.252 -2.0339999 2.2639999 5
10.46 -2.1259999 2.2639999 5
10.313 -2.253 2.2650001 5
10.408 -2.1359999 2.2639999 5
10.516 -1.995 2.263 5
10.3 -2.2079999 2.2650001 5
10.537 -2.0369999 2.263 5
10.375 -2.096 2.2639999 5
10.457 -2.0090001 2.263 5
10.303 -2.174 2.2650001 5
10.462 -2.066 2.263 5
10.256 -2.112 2.2639999 5
10.466 -2.013 2.263 5
10.437 -2.135 2.2639999 5
10.304 -2.046 2.2639999 5
10.257 -2.105 2.2639999 5
10.301 -1.999 2.2639999 5
10.351 -2.1070001 2.2639999 5
10.334 -2.063 2.2639999 5
10.537 -2.0050001 2.263 5
10.396 -2.1619999 2.2639999 5
10.252 -2.2390001 2.2650001 5
10.329 -2.007 2.2639999 5
10.334 -2.0869999 2.2639999 5
10.319 -2.128 2.2639999 5
10.446 -2.0769999 2.2639999 5
10.348 -2.0480001 2.2639999 5
10.392 -2.1789999 2.2639999 5
10.429 -2.1500001 2.2639999 5
10.615 -1.9960001 2.2620001 5
10.532 -2.013 2.263 5
10.299 -2.0810001 2.2639999 5
10.283 -2.267 2.2650001 5
10.319 -2.237 2.2650001 5
10.507 -2.062 2.263 5
10.259 -2.108 2.2639999 5
10.252 -2.1600001 2.2650001 5
10.401 -2.0650001 2.2639999 5
10.351 -2.1570001 2.2639999 5
10.263 -2.1600001 2.2650001 5
10.334 -2.056 2.2639999 5
10.288 -2.007 2.2639999 5
10.356 -2.1800001 2.2639999 5
10.35 -2.141 2.2639999 5
10.25 -2.1240001 2.2650001 5
10.308 -1.9960001 2.2639999 5
10.577 -2.027 2.263 5
10.444 -2.0339999 2.263 5
10.386 -2.6210001 2.257 5
10.389 -2.628 2.2539999 5
10.419 -2.6300001 2.2509999 5
10.372 -2.668 2.243 5
10.405 -2.674 2.2379999 5
10.387 -2.654 2.2460001 5
10.416 -2.655 2.243 5
10.356 -2.641 2.253 5
10.39 -2.658 2.244 5
10.422 -2.677 2.2349999 5
10.35 -2.654 2.25 5
10.427 -2.658 2.2409999 5
10.403 -2.6400001 2.2490001 5
10.387 -2.6630001 2.243 5
10.41 -2.642 2.2479999 5
10.365 -2.6289999 2.256 5
10.359 -2.6530001 2.2490001 5
10.335 -2.6440001 2.2550001 5
10.401 -2.675 2.2379999 5
10.371 -2.6470001 2.25 5
10.331 -2.6459999 2.2539999 5
10.411 -2.6459999 2.2460001 5
10.429 -2.6340001 2.2479999 5
10.269 -2.661 2.256 5
10.382 -2.631 2.2539999 5
10.365 -2.6700001 2.243 5
10.317 -2.655 2.253 5
10.415 -2.6370001 2.2490001 5
10.377 -2.661 2.2449999 5
10.386 -2.652 2.247 5
10.332 -2.668 2.247 5
10.349 -2.6470001 2.2520001 5
10.391 -2.6440001 2.2490001 5
10.298 -2.658 2.2539999 5
10.301 -2.6559999 2.2539999 5
10.385 -2.628 2.2539999 5
10.419 -2.6719999 2.237 5
10.43 -2.665 2.2379999 5
10.37 -2.6359999 2.253 5
10.368 -2.6559999 2.247 5
10.352 -2.6630001 2.247 5
10.319 -2.6630001 2.25 5
10.394 -2.6570001 2.244 5
10.402 -2.6670001 2.24 5
10.377 -2.648 2.2490001 5
10.399 -2.625 2.2539999 5
10.351 -2.6500001 2.2509999 5
10.394 -2.652 2.2460001 5
10.379 -2.631 2.2539999 5
10.42 -2.668 2.2379999 5
10.313 -2.6700001 2.2479999 5
10.425 -2.6240001 2.2520001 5
10.289 -2.661 2.2539999 5
10.396 -2.6730001 2.2390001 5
10.407 -2.678 2.2360001 5
10.319 -2.658 2.2520001 5
10.372 -2.6630001 2.2449999 5
10.382 -2.6259999 2.256 5
10.436 -2.6110001 2.2550001 5
10.369 -2.671 2.2420001 5
10.279 -2.6570001 2.256 5
10.287 -2.6630001 2.253 5
10.283 -2.6600001 2.2539999 5
10.348 -2.651 2.2509999 5
10.416 -2.6470001 2.2449999 5
10.35 -2.6589999 2.2479999 5
10.364 -2.6459999 2.2509999 5
10.334 -2.6719999 2.2460001 5
10.421 -2.641 2.247 5
10.424 -2.619 2.2539999 5
10.427 -2.6229999 2.2520001 5
10.426 -2.671 2.2360001 5
10.392 -2.6400001 2.25 5
10.417 -2.6159999 2.2550001 5
10.358 -2.6500001 2.25 5
10.27 -2.6459999 2.257 5
10.331 -2.6210001 2.2579999 5
10.281 -2.6340001 2.2579999 5
10.299 -2.635 2.257 5
10.341 -2.5840001 2.26 5
10.332 -2.6210001 2.2579999 5
10.351 -2.6300001 2.257 5
10.426 -2.6070001 2.257 5
10.407 -2.5699999 2.26 5
10.292 -2.641 2.257 5
10.377 -2.6029999 2.2579999 5
10.423 -2.5880001 2.2590001 5
10.425 -2.5780001 2.2590001 5
10.29 -2.6500001 2.256 5
10.38 -2.5150001 2.2650001 5
10.39 -2.5409999 2.263 5
10.346 -2.5999999 2.2590001 5
10.34 -2.598 2.2590001 5
10.359 -2.619 2.257 5
10.395 -2.5469999 2.2620001 5
10.334 -2.6300001 2.257 5
10.26 -2.661 2.256 5
10.37 -2.559 2.2620001 5
10.38 -2.516 2.2650001 5
10.298 -2.641 2.257 5
10.352 -2.6270001 2.257 5
10.349 -2.5940001 2.2590001 5
10.364 -2.5840001 2.26 5
10.324 -2.6070001 2.2590001 5
10.406 -2.5550001 2.2609999 5
10.411 -2.5910001 2.2590001 5
10.379 -2.5999999 2.2590001 5
10.364 -2.5710001 2.2609999 5
10.351 -2.5699999 2.2609999 5
10.315 -2.612 2.2590001 5
10.347 -2.5999999 2.2590001 5
10.295 -2.619 2.2590001 5
10.395 -2.5669999 2.2609999 5
10.298 -2.6170001 2.2590001 5
10.41 -2.595 2.2579999 5
10.334 -2.6040001 2.2590001 5
10.414 -2.573 2.26 5
10.315 -2.618 2.2579999 5
10.37 -2.608 2.2579999 5
10.286 -2.6259999 2.2579999 5
10.314 -2.615 2.2590001 5
10.396 -2.5309999 2.263 5
10.343 -2.573 2.2609999 5
10.375 -2.543 2.263 5
10.393 -2.576 2.26 5
10.39 -2.5220001 2.2639999 5
10.384 -2.527 2.2639999 5
10.37 -2.5350001 2.2639999 5
10.323 -2.598 2.26 5
10.38 -2.5469999 2.2620001 5
10.344 -2.6289999 2.257 5
10.287 -2.6489999 2.257 5
10.304 -2.5999999 2.26 5
10.306 -2.598 2.26 5
10.307 -2.599 2.26 5
10.384 -2.5380001 2.263 5
10.423 -2.589 2.2590001 5
10.312 -2.6400001 2.257 5
10.276 -2.645 2.257 5
10.331 -2.576 2.2609999 5
10.389 -2.5139999 2.2650001 5
10.399 -2.5999999 2.2579999 5
10.414 -2.589 2.2590001 5
10.42 -2.6010001 2.2579999 5
10.359 -2.6259999 2.257 5
10.29 -2.619 2.2590001 5
10.406 -2.5599999 2.2609999 5
10.32 -2.6140001 2.2590001 5
10.367 -2.543 2.263 5
10.411 -2.5799999 2.2590001 5
10.389 -2.5680001 2.2609999 5
10.27 -2.6559999 2.256 5
10.374 -2.5190001 2.2650001 5
10.333 -2.576 2.2609999 5
10.324 -2.5899999 2.26 5
10.36 -2.5510001 2.2620001 5
10.303 -2.625 2.2579999 5
10.294 -2.635 2.257 5
10.398 -2.6059999 2.2579999 5
10.371 -2.6199999 2.257 5
10.383 -2.5150001 2.2650001 5
10.392 -2.5320001 2.263 5
10.386 -2.5510001 2.2620001 5
10.286 -2.648 2.257 5
10.379 -2.579 2.26 5
10.414 -2.596 2.2579999 5
10.341 -2.6070001 2.2590001 5
10.408 -2.579 2.26 5
10.356 -2.608 2.2579999 5
10.379 -2.5610001 2.2609999 5
10.335 -2.573 2.2609999 5
10.412 -2.5580001 2.2609999 5
10.354 -2.563 2.2620001 5
10.368 -2.5769999 2.26 5
10.377 -2.598 2.2590001 5
10.353 -2.5550001 2.2620001 5
10.391 -2.5799999 2.26 5
10.364 -2.6010001 2.2590001 5
10.344 -2.579 2.2609999 5
10.373 -2.5469999 2.263 5
10.328 -2.6370001 2.257 5
10.371 -2.5969999 2.2590001 5
10.371 -2.553 2.2620001 5
10.355 -2.563 2.2620001 5
10.393 -2.51 2.2650001 5
10.391 -2.592 2.2590001 5
10.328 -2.586 2.2609999 5
10.352 -2.628 2.257 5
10.334 -2.602 2.2590001 5
10.339 -2.622 2.2579999 5
10.378 -2.602 2.2579999 5
10.325 -2.6400001 2.257 5
10.284 -2.625 2.2579999 5
10.366 -2.533 0.63800001 5
10.279 -2.592 0.63999999 5
10.283 -2.5969999 0.64099997 5
10.344 -2.5239999 0.63700002 5
10.34 -2.543 0.63800001 5
10.308 -2.5739999 0.63999999 5
10.329 -2.4979999 0.63599998 5
10.347 -2.5320001 0.63800001 5
10.333 -2.5190001 0.63700002 5
10.275 -2.6040001 0.64099997 5
10.336 -2.527 0.63800001 5
10.341 -2.5250001 0.63700002 5
10.336 -2.5409999 0.63800001 5
10.347 -2.5220001 0.63700002 5
10.339 -2.5109999 0.63700002 5
10.274 -2.6099999 0.64099997 5
10.35 -2.5220001 0.63700002 5
10.356 -2.4549999 0.634 5
10.328 -2.556 0.639 5
10.311 -2.5710001 0.63999999 5
10.349 -2.516 0.63700002 5
10.312 -2.513 0.63599998 5
10.346 -2.4749999 0.63499999 5
10.341 -2.464 0.634 5
10.296 -2.5999999 0.64099997 5
10.362 -2.5550001 0.639 5
10.32 -2.5710001 0.63999999 5
10.324 -2.4820001 0.63499999 5
10.363 -2.503 0.63700002 5
10.336 -2.5250001 0.63700002 5
10.309 -2.5599999 0.639 5
10.298 -2.5569999 0.639 5
10.286 -2.605 0.64099997 5
10.331 -2.474 0.63499999 5
10.333 -2.5339999 0.63800001 5
10.34 -2.5120001 0.63700002 5
10.295 -2.596 0.64099997 5
10.285 -2.589 0.63999999 5
10.312 -2.585 0.63999999 5
10.35 -2.4749999 0.63499999 5
10.327 -2.546 0.63800001 5
10.327 -2.4960001 0.63599998 5
10.343 -2.552 0.639 5
10.341 -2.5369999 0.63800001 5
10.291 -2.5699999 0.639 5
10.351 -2.4649999 0.634 5
10.297 -2.5580001 0.639 5
10.339 -2.5439999 0.63800001 5
10.336 -2.5409999 0.63800001 5
10.275 -2.6070001 0.64099997 5
10.328 -2.477 0.63499999 5
10.358 -2.473 0.63499999 5
10.304 -2.5409999 0.63800001 5
10.336 -2.5190001 0.63700002 5
10.342 -2.51 0.63700002 5
10.35 -2.4630001 0.634 5
10.325 -2.4849999 0.63499999 5
10.319 -2.585 0.63999999 5
10.358 -2.483 0.63499999 5
10.287 -2.5999999 0.64099997 5
10.323 -2.5550001 0.639 5
10.35 -2.4579999 0.634 5
10.298 -2.562 0.639 5
10.337 -2.4949999 0.63599998 5
10.33 -2.5420001 0.63800001 5
10.341 -2.454 0.634 5
10.295 -2.5669999 0.639 5
10.314 -2.5869999 0.64099997 5
10.353 -2.457 0.634 5
10.349 -2.48 0.63499999 5
10.353 -2.4530001 0.634 5
10.299 -2.55 0.63800001 5
10.301 -2.5580001 0.639 5
10.355 -2.5339999 0.63800001 5
10.342 -2.5510001 0.639 5
10.309 -2.533 0.63700002 5
10.327 -2.4760001 0.63499999 5
10.347 -2.473 0.63499999 5
10.328 -2.5550001 0.639 5
10.307 -2.5510001 0.63800001 5
10.348 -2.391 0.63300002 5
10.349 -2.365 0.63300002 5
10.351 -2.4100001 0.63200003 5
10.326 -2.3239999 0.63599998 5
10.331 -2.3299999 0.63499999 5
10.348 -2.3829999 0.63300002 5
10.32 -2.3099999 0.63599998 5
10.344 -2.352 0.634 5
10.325 -2.3380001 0.63499999 5
10.31 -2.303 0.63700002 5
10.327 -2.3199999 0.63599998 5
10.292 -2.2739999 0.63800001 5
10.322 -2.3099999 0.63599998 5
10.296 -2.2709999 0.63800001 5
10.342 -2.3440001 0.634 5
10.322 -2.3180001 0.63599998 5
10.325 -2.319 0.63599998 5
10.316 -2.3169999 0.63599998 5
10.329 -2.3599999 0.634 5
10.327 -2.3340001 0.63499999 5
10.332 -2.3659999 0.634 5
10.339 -2.3340001 0.63499999 5
10.292 -2.2679999 0.639 5
10.356 -2.0209999 2.184 5
10.364 -2.0139999 2.1789999 5
10.363 -2.0090001 2.174 5
10.355 -2.0009999 2.165 5
10.335 -2.023 2.181 5
10.338 -2.0190001 2.178 5
10.342 -1.9910001 2.1530001 5
10.333 -2.0039999 2.1630001 5
10.305 -2.016 2.168 5
10.336 -2.0250001 2.1830001 5
10.363 -2.0079999 2.1730001 5
10.332 -2.0179999 2.1760001 5
10.339 -2.01 2.1700001 5
10.343 -2.023 2.1830001 5
10.368 -2.006 2.1730001 5
10.376 -2.02 2.187 5
10.308 -2.017 2.1700001 5
10.318 -2.0239999 2.1789999 5
10.364 -2.007 2.1719999 5
10.315 -2.0120001 2.1670001 5
10.314 -2.029 2.1819999 5
10.273 -2.039 2.1819999 5
10.331 -2.0090001 2.1670001 5
10.356 -1.9960001 2.1600001 5
10.311 -2.0239999 2.177 5
10.35 -2.0139999 2.1760001 5
10.345 -2.0179999 2.1789999 5
10.314 -2.0220001 2.1760001 5
10.347 -2.0280001 2.188 5
10.312 -2.0190001 2.1730001 5
10.363 -2.027 2.1900001 5
10.318 -2.01 2.165 5
10.334 -2.0079999 2.1670001 5
10.352 -2.0179999 2.1800001 5
10.358 -2.0020001 2.1670001 5
10.338 -1.992 2.1530001 5
10.371 -2.0020001 2.1700001 5
10.357 -2.006 2.1700001 5
10.347 -1.993 2.1570001 5
10.34 -1.997 2.158 5
10.362 -2.0039999 2.1689999 5
10.302 -2.0309999 2.181 5
10.317 -2.0239999 2.1949999 5
10.338 -2.0239999 2.194 5
10.352 -2.013 2.2030001 5
10.292 -1.992 2.224 5
10.308 -2.0079999 2.21 5
10.334 -2.0139999 2.2030001 5
10.331 -2.0090001 2.2079999 5
10.363 -2.0120001 2.2030001 5
10.285 -2.013 2.207 5
10.26 -2.0380001 2.1860001 5
10.265 -2.0339999 2.1889999 5
10.282 -1.9809999 2.233 5
10.291 -1.988 2.227 5
10.323 -2.02 2.198 5
10.315 -2.016 2.2019999 5
10.342 -2.023 2.1949999 5
10.268 -2.04 2.184 5
10.296 -2.0309999 2.191 5
10.269 -1.998 2.22 5
10.31 -1.998 2.2179999 5
10.285 -1.979 2.2349999 5
10.352 -2.006 2.2090001 5
10.298 -2.0120001 2.2060001 5
10.354 -2.0209999 2.1960001 5
10.342 -2.0109999 2.2049999 5
10.34 -2.0239999 2.194 5
10.348 -2.006 2.2090001 5
10.295 -1.998 2.2179999 5
10.391 -2.02 2.1949999 5
10.295 -1.982 2.2320001 5
10.268 -2.0109999 2.2090001 5
10.371 -2.013 2.2019999 5
10.345 -2.0139999 2.2019999 5
10.332 -2.0280001 2.191 5
10.298 -2.0320001 2.1900001 5
10.375 -2.02 2.1960001 5
10.267 -2.0350001 2.188 5
10.284 -2.029 2.1930001 5
10.286 -2.0309999 2.191 5
10.352 -2.0179999 2.1989999 5
10.353 -2.02 2.197 5
10.297 -2.0139999 2.2049999 5
10.328 -2.0039999 2.2119999 5
10.272 -1.975 2.2390001 5
10.286 -2.0050001 2.2130001 5
10.285 -2.0209999 2.2 5
10.298 -2.033 2.188 5
10.315 -2.01 2.207 5
10.286 -2.023 2.198 5
10.337 -2.01 2.2060001 5
10.308 -2.033 2.188 5
10.341 -2.003 2.2119999 5
10.348 -2.026 2.1919999 5
10.394 -2.0220001 2.1930001 5
10.305 -2.0239999 2.1960001 5
10.269 -2.0239999 2.198 5
10.274 -2.0079999 2.211 5
10.272 -2.013 2.207 5
10.362 -2.026 2.1919999 5
10.281 -2.0179999 2.2019999 5
10.279 -2.0039999 2.214 5
10.283 -1.9910001 2.2249999 5
10.31 -1.989 2.2260001 5
10.415 -3.007 2.267 5
10.384 -2.973 2.267 5
10.376 -3.0209999 2.2679999 5
10.433 -3.1110001 2.2679999 5
10.397 -3.0469999 2.2679999 5
10.412 -2.9489999 2.266 5
10.462 -3.0999999 2.2679999 5
10.416 -2.9330001 2.2650001 5
10.463 -2.9260001 2.2639999 5
10.467 -3.1440001 2.2679999 5
10.405 -3.0710001 2.2679999 5
10.402 -2.997 2.267 5
10.457 -2.96 2.2650001 5
10.481 -2.977 2.2650001 5
10.347 -2.9960001 2.2679999 5
10.422 -3.006 2.267 5
10.35 -2.99 2.2679999 5
10.411 -3.075 2.2679999 5
10.477 -2.9920001 2.2650001 5
10.469 -2.9119999 2.2639999 5
10.434 -2.9230001 2.2650001 5
10.427 -2.9990001 2.266 5
10.44 -3.0769999 2.2679999 5
10.374 -3.0209999 2.2679999 5
10.429 -3.076 2.2679999 5
10.401 -2.941 2.266 5
10.433 -3.0539999 2.267 5
10.455 -3.0090001 2.266 5
10.412 -3.062 2.2679999 5
10.468 -3.0190001 2.266 5
10.417 -2.96 2.266 5
10.401 -3.016 2.267 5
10.481 -3.1300001 2.2679999 5
10.331 -2.973 2.2679999 5
10.38 -3.013 2.2679999 5
10.456 -2.9360001 2.2639999 5
10.357 -2.9920001 2.2679999 5
10.435 -3.01 2.266 5
10.419 -3.0899999 2.2679999 5
10.369 -2.997 2.2679999 5
10.37 -3.0280001 2.2679999 5
10.423 -3.096 2.2679999 5
10.386 -3.0439999 2.2679999 5
10.467 -3.0539999 2.266 5
10.462 -2.9330001 2.2639999 5
10.429 -3.102 2.2679999 5
10.453 -3.0150001 2.266 5
10.465 -3.0190001 2.266 5
10.473 -2.9960001 2.2650001 5
10.415 -2.974 2.266 5
10.377 -2.9820001 2.267 5
10.426 -3.05 2.267 5
10.401 -2.944 2.266 5
10.451 -2.983 2.2650001 5
10.435 -3.027 2.267 5
10.414 -3.062 2.2679999 5
10.457 -3.0469999 2.267 5
10.39 -3.033 2.2679999 5
10.372 -2.997 2.267 5
10.457 -2.9319999 2.2639999 5
10.42 -2.9879999 2.266 5
10.479 -3.155 2.2679999 5
10.391 -2.9430001 2.266 5
10.443 -3.0810001 2.2679999 5
10.422 -3.0309999 2.267 5
10.419 -3.062 2.2679999 5
10.429 -3.036 2.267 5
10.354 -2.9979999 2.2679999 5
10.409 -3.0320001 2.267 5
10.336 -2.984 2.2679999 5
10.444 -3.0940001 2.2679999 5
10.402 -3.043 2.2679999 5
10.476 -2.927 2.2639999 5
10.463 -3.0350001 2.266 5
10.355 -2.9619999 2.267 5
10.354 -3.0109999 2.2679999 5
10.45 -3.062 2.267 5
10.427 -2.993 2.266 5
10.437 -3 2.266 5
10.399 -2.961 2.266 5
10.436 -3.0840001 2.2679999 5
10.468 -3.0680001 2.267 5
10.382 -2.967 2.267 5
10.39 -2.994 2.267 5
10.46 -3.0639999 2.267 5
10.432 -3.0869999 2.2679999 5
10.438 -2.9760001 2.266 5
10.408 -2.98 2.266 5
10.417 -3.0209999 2.267 5
10.395 -2.9990001 2.267 5
10.374 -2.9909999 2.267 5
10.413 -3.007 2.267 5
10.421 -2.938 2.2650001 5
10.42 -2.947 2.2650001 5
10.408 -3 2.267 5
10.458 -3.04 2.266 5
10.479 -3.0309999 2.266 5
10.378 -2.967 2.267 5
10.477 -3.132 2.2679999 5
10.423 -2.9630001 2.266 5
10.416 -3.0009999 2.267 5
10.457 -3.108 2.2679999 5
10.449 -3.049 2.267 5
10.369 -3 2.2679999 5
10.463 -3.013 2.266 5
10.462 -3.1459999 2.2679999 5
10.386 -2.954 2.266 5
10.409 -3.062 2.2679999 5
10.467 -2.9749999 2.2650001 5
10.385 -3.016 2.2679999 5
10.436 -3.0510001 2.267 5
10.45 -2.97 2.2650001 5
10.455 -2.944 2.2650001 5
10.412 -2.99 2.266 5
10.423 -3.0780001 2.2679999 5
10.41 -3.072 2.2679999 5
10.473 -3.033 2.266 5
10.478 -2.914 2.263 5
10.374 -2.994 2.267 5
10.433 -2.983 2.266 5
10.397 -3.0009999 2.267 5
10.466 -2.9419999 2.2639999 5
10.447 -3.085 2.2679999 5
10.376 -3.0350001 2.2679999 5
10.476 -3.0680001 2.267 5
10.401 -3.04 2.2679999 5
10.405 -2.97 2.266 5
10.438 -2.977 2.266 5
10.4 -2.9660001 2.266 5
10.452 -2.951 2.2650001 5
10.454 -3.1359999 2.2679999 5
10.414 -3.0680001 2.2679999 5
10.466 -3.1210001 2.2679999 5
10.375 -3.006 2.2679999 5
10.428 -3.099 2.2679999 5
10.455 -3.076 2.267 5
10.474 -3.0469999 2.266 5
10.435 -3.0869999 2.2679999 5
10.464 -3.01 2.266 5
10.481 -2.9779999 2.2650001 5
10.386 -3.0190001 2.2679999 5
10.435 -3.0139999 2.266 5
10.412 -2.9489999 2.266 5
10.448 -2.987 2.266 5
10.457 -3 2.266 5
10.439 -2.9549999 2.2650001 5
10.454 -3.1059999 2.2679999 5
10.426 -3.0829999 2.2679999 5
10.412 -2.9619999 2.266 5
10.374 -2.9749999 2.267 5
10.421 -2.9519999 2.2650001 5
10.45 -3.0179999 2.266 5
10.443 -3.016 2.266 5
10.449 -3.1170001 2.2679999 5
10.46 -3.0250001 2.266 5
10.459 -3.0220001 2.266 5
10.428 -2.95 2.2650001 5
10.422 -2.9860001 2.266 5
10.417 -3.086 2.2679999 5
10.438 -3.027 2.267 5
10.468 -3 2.2650001 5
10.413 -3.066 2.2679999 5
10.462 -3.1329999 2.2679999 5
10.436 -3.1070001 2.2679999 5
10.432 -2.9549999 2.2650001 5
10.409 -2.9690001 2.266 5
10.408 -3.0420001 2.2679999 5
10.359 -3.0120001 2.2679999 5
10.473 -3.0179999 2.266 5
10.463 -3.0699999 2.267 5
10.461 -3.0869999 2.267 5
10.479 -3.128 2.2679999 5
10.454 -3.0550001 2.267 5
10.437 -3.0580001 2.267 5
10.432 -2.947 2.2650001 5
10.447 -3.01 2.266 5
10.398 -3.02 2.267 5
10.444 -2.9430001 2.2650001 5
10.424 -3.079 2.2679999 5
10.47 -3.1170001 2.2679999 5
10.427 -3.082 2.2679999 5
10.475 -3.066 2.267 5
10.436 -2.96 2.2650001 5
10.436 -2.927 2.2650001 5
10.381 -3.0120001 2.2679999 5
10.349 -2.9860001 2.2679999 5
10.48 -3.1329999 2.2679999 5
10.415 -2.9890001 2.266 5
10.416 -2.9579999 2.266 5
10.39 -3.0239999 2.2679999 5
10.455 -3.0179999 2.266 5
10.412 -2.947 2.266 5
10.405 -2.9400001 2.266 5
10.391 -3 2.267 5
10.444 -3.0929999 2.2679999 5
10.477 -3.095 2.267 5
10.404 -2.9530001 2.266 5
10.464 -3.0309999 2.266 5
10.47 -2.974 2.2650001 5
10.353 -2.9809999 2.2679999 5
10.428 -2.9400001 2.2650001 5
10.443 -2.957 2.2650001 5
10.433 -3.0250001 2.267 5
10.449 -3.128 2.2679999 5
10.357 -2.993 2.2679999 5
10.472 -2.9530001 2.2639999 5
10.424 -2.9460001 2.2650001 5
10.393 -3.0580001 2.2679999 5
10.351 -2.99 2.2679999 5
10.408 -3.013 2.267 5
10.373 -3.023 2.2679999 5
10.48 -2.9979999 2.2650001 5
10.397 -3.0020001 2.267 5
10.434 -3.029 2.267 5
10.466 -3.0550001 2.267 5
10.411 -2.99 2.266 5
10.402 -1.992 2.22 5
10.388 -2.0120001 2.2030001 5
10.423 -1.995 2.217 5
10.302 -1.976 2.237 5
10.297 -1.975 2.2379999 5
10.378 -1.987 2.2260001 5
10.424 -1.984 2.227 5
10.347 -1.976 2.2360001 5
10.399 -1.98 2.2309999 5
10.428 -1.978 2.2320001 5
10.403 -1.993 2.2190001 5
10.387 -1.975 2.2360001 5
10.344 -1.978 2.2349999 5
10.441 -1.988 2.2219999 5
10.301 -1.975 2.2379999 5
10.36 -1.982 2.23 5
10.379 -2.0020001 2.2119999 5
10.389 -1.9910001 2.221 5
10.399 -2.0120001 2.2019999 5
10.365 -1.985 2.227 5
10.288 -1.976 2.2379999 5
10.41 -1.99 2.221 5
10.377 -2.007 2.207 5
10.443 -1.99 2.22 5
10.373 -1.9859999 2.2260001 5
10.378 -2 2.214 5
10.435 -1.992 2.2190001 5
10.453 -1.983 2.227 5
10.391 -1.985 2.2260001 5
10.391 -2.016 2.1989999 5
10.37 -1.984 2.2290001 5
10.324 -1.987 2.2260001 5
10.413 -2 2.2130001 5
10.39 -2.0139999 2.201 5
10.428 -2 2.2119999 5
10.453 -1.9809999 2.2279999 5
10.34 -1.9809999 2.2320001 5
10.423 -1.979 2.2309999 5
10.381 -2.0039999 2.21 5
10.436 -1.99 2.221 5
10.398 -2.01 2.204 5
10.374 -1.98 2.2320001 5
10.352 -1.984 2.2279999 5
10.369 -2.0039999 2.21 5
10.383 -1.98 2.2309999 5
10.328 -1.971 2.2409999 5
10.365 -2.0020001 2.2119999 5
10.414 -2 2.2119999 5
10.415 -2.0009999 2.211 5
10.362 -1.998 2.2160001 5
10.344 -1.989 2.224 5
10.419 -1.995 2.217 5
10.331 -1.992 2.2219999 5
10.405 -2.0150001 2.1989999 5
10.367 -1.99 2.2219999 5
10.415 -1.984 2.227 5
10.386 -2.006 2.2079999 5
10.369 -1.988 2.2249999 5
10.345 -1.98 2.233 5
10.398 -1.982 2.2290001 5
10.335 -1.974 2.2379999 5
10.317 -1.977 2.2360001 5
10.327 -1.971 2.2409999 5
10.367 -2.0090001 2.2049999 5
10.379 -2.007 2.2079999 5
10.44 -1.984 2.2260001 5
10.4 -2.5109999 2.2650001 5
10.455 -2.5480001 2.2609999 5
10.513 -2.47 2.2650001 5
10.471 -2.5109999 2.263 5
10.436 -2.5209999 2.263 5
10.503 -2.5 2.263 5
10.417 -2.5380001 2.2620001 5
10.418 -2.5480001 2.2620001 5
10.432 -2.4790001 2.266 5
10.436 -2.5409999 2.2620001 5
10.488 -2.5179999 2.2620001 5
10.491 -2.49 2.2639999 5
10.435 -2.55 2.2609999 5
10.449 -2.5450001 2.2609999 5
10.436 -2.576 2.2590001 5
10.435 -2.5880001 2.2579999 5
10.423 -2.5239999 2.263 5
10.422 -2.5580001 2.2609999 5
10.48 -2.4990001 2.2639999 5
10.519 -2.4419999 2.267 5
10.475 -2.5179999 2.263 5
10.465 -2.529 2.2620001 5
10.484 -2.527 2.2620001 5
10.492 -2.4530001 2.267 5
10.479 -2.5469999 2.26 5
10.446 -2.5079999 2.2639999 5
10.404 -2.51 2.2650001 5
10.473 -2.493 2.2639999 5
10.476 -2.4960001 2.2639999 5
10.543 -2.4530001 2.266 5
10.507 -2.454 2.266 5
10.484 -2.5350001 2.2609999 5
10.472 -2.549 2.26 5
10.51 -2.4660001 2.266 5
10.509 -2.4460001 2.267 5
10.464 -2.4890001 2.2650001 5
10.457 -2.5339999 2.2620001 5
10.476 -2.5020001 2.2639999 5
10.459 -2.559 2.26 5
10.468 -2.4920001 2.2650001 5
10.508 -2.4920001 2.2639999 5
10.522 -2.4660001 2.2650001 5
10.474 -2.543 2.2609999 5
10.471 -2.5539999 2.26 5
10.52 -2.45 2.266 5
10.487 -2.4960001 2.2639999 5
10.47 -2.5539999 2.26 5
10.487 -2.523 2.2620001 5
10.423 -2.5710001 2.26 5
10.48 -2.474 2.266 5
10.393 -2.5039999 2.2650001 5
10.474 -2.4660001 2.266 5
10.481 -2.4719999 2.266 5
10.48 -2.5280001 2.2620001 5
10.468 -2.494 2.2639999 5
10.455 -2.5350001 2.2620001 5
10.45 -2.483 2.266 5
10.411 -2.494 2.266 5
10.53 -2.46 2.2650001 5
10.435 -2.5179999 2.263 5
10.481 -2.4749999 2.2650001 5
10.412 -2.497 2.2650001 5
10.542 -2.4530001 2.266 5
10.479 -2.5039999 2.263 5
10.552 -2.4360001 2.267 5
10.456 -2.497 2.2639999 5
10.517 -2.47 2.2650001 5
10.492 -2.464 2.266 5
10.498 -2.51 2.263 5
10.453 -2.4790001 2.266 5
10.435 -2.52 2.263 5
10.435 -2.5699999 2.26 5
10.48 -2.5350001 2.2609999 5
10.478 -2.4820001 2.2650001 5
10.449 -2.5680001 2.2590001 5
10.418 -2.5409999 2.2620001 5
10.516 -2.444 2.267 5
10.513 -2.451 2.267 5
10.525 -2.48 2.2639999 5
10.489 -2.4860001 2.2639999 5
10.529 -2.441 2.267 5
10.436 -2.563 2.26 5
10.533 -2.46 2.2650001 5
10.459 -2.5020001 2.2639999 5
10.426 -2.5510001 2.2609999 5
10.471 -2.5350001 2.2609999 5
10.521 -2.4820001 2.2639999 5
10.408 -2.51 2.2650001 5
10.462 -2.517 2.263 5
10.508 -2.4949999 2.263 5
10.526 -2.454 2.266 5
10.447 -2.5639999 2.26 5
10.521 -2.448 2.267 5
10.431 -2.506 2.2639999 5
10.442 -2.552 2.2609999 5
10.429 -2.4990001 2.2650001 5
10.449 -2.5780001 2.2590001 5
10.566 -2.427 2.267 5
10.446 -2.5339999 2.2620001 5
10.426 -2.5409999 2.2620001 5
10.451 -2.5469999 2.2609999 5
10.432 -2.49 2.266 5
10.505 -2.51 2.2620001 5
10.492 -2.5190001 2.2620001 5
10.451 -2.5510001 2.2609999 5
10.473 -2.4979999 2.2639999 5
10.566 -2.4219999 2.267 5
10.495 -2.48 2.2650001 5
10.497 -2.507 2.263 5
10.534 -2.4430001 2.267 5
10.416 -2.5239999 2.263 5
10.539 -2.454 2.266 5
10.489 -2.5250001 2.2620001 5
10.471 -2.4879999 2.2650001 5
10.523 -2.4460001 2.267 5
10.432 -2.5829999 2.2590001 5
10.467 -2.4949999 2.2639999 5
10.346 -2.382 2.2650001 5
10.598 -2.023 2.263 5
10.312 -2.358 2.2650001 5
10.513 -2.178 2.2639999 5
10.477 -2.2079999 2.2639999 5
10.381 -2.418 2.266 5
10.37 -2.362 2.2650001 5
10.472 -2.158 2.2639999 5
10.507 -2.2190001 2.2639999 5
10.388 -2.4760001 2.266 5
10.506 -2.224 2.2639999 5
10.567 -2.109 2.263 5
10.408 -2.4489999 2.266 5
10.507 -2.0999999 2.263 5
10.438 -2.21 2.2639999 5
10.358 -2.332 2.2650001 5
10.414 -2.2409999 2.2639999 5
10.581 -2.0739999 2.263 5
10.416 -2.4030001 2.2650001 5
10.544 -2.155 2.2639999 5
10.454 -2.2639999 2.2639999 5
10.37 -2.2290001 2.2650001 5
10.263 -2.3280001 2.266 5
10.416 -2.3210001 2.2650001 5
10.402 -2.181 2.2639999 5
10.411 -2.174 2.2639999 5
10.514 -2.1110001 2.263 5
10.345 -2.3369999 2.2650001 5
10.435 -2.3399999 2.2650001 5
10.416 -2.3889999 2.2650001 5
10.383 -2.3299999 2.2650001 5
10.412 -2.375 2.2650001 5
10.497 -2.253 2.2639999 5
10.405 -2.3239999 2.2650001 5
10.418 -2.326 2.2650001 5
10.423 -2.1900001 2.2639999 5
10.313 -2.3900001 2.266 5
10.351 -2.4360001 2.266 5
10.501 -2.2420001 2.2639999 5
10.423 -2.325 2.2650001 5
10.362 -2.4000001 2.266 5
10.246 -2.3239999 2.266 5
10.344 -2.332 2.2650001 5
10.347 -2.299 2.2650001 5
10.403 -2.415 2.2650001 5
10.453 -2.2019999 2.2639999 5
10.463 -2.253 2.2639999 5
10.506 -2.1389999 2.2639999 5
10.433 -2.1849999 2.2639999 5
10.572 -2.096 2.263 5
10.367 -2.342 2.2650001 5
10.485 -2.263 2.2639999 5
10.36 -2.342 2.2650001 5
10.317 -2.3570001 2.2650001 5
10.49 -2.119 2.2639999 5
10.475 -2.277 2.2639999 5
10.42 -2.2980001 2.2650001 5
10.344 -2.3970001 2.266 5
10.367 -2.322 2.2650001 5
10.276 -2.3169999 2.2650001 5
10.432 -2.372 2.2650001 5
10.345 -2.2820001 2.2650001 5
10.493 -2.2720001 2.2639999 5
10.352 -2.4349999 2.266 5
10.465 -2.1830001 2.2639999 5
10.421 -2.227 2.2639999 5
10.481 -2.2780001 2.2639999 5
10.375 -2.2679999 2.2650001 5
10.315 -2.323 2.2650001 5
10.338 -2.3729999 2.2650001 5
10.328 -2.296 2.2650001 5
10.41 -2.3110001 2.2650001 5
10.407 -2.3599999 2.2650001 5
10.486 -2.223 2.2639999 5
10.404 -2.342 2.2650001 5
10.387 -2.411 2.2650001 5
10.474 -2.2579999 2.2639999 5
10.484 -2.2780001 2.2639999 5
10.279 -2.325 2.2650001 5
10.467 -2.2639999 2.2639999 5
10.54 -2.0739999 2.263 5
10.61 -2.023 2.263 5
10.348 -2.3540001 2.2650001 5
10.337 -2.3989999 2.266 5
10.575 -2.079 2.263 5
10.483 -2.25 2.2639999 5
10.373 -2.3740001 2.2650001 5
10.507 -2.135 2.2639999 5
10.399 -2.2939999 2.2650001 5
10.529 -2.1059999 2.263 5
10.499 -2.112 2.263 5
10.368 -2.46 2.266 5
10.358 -2.223 2.2650001 5
10.317 -2.362 2.2650001 5
10.534 -2.099 2.263 5
10.444 -2.1589999 2.2639999 5
10.382 -2.477 2.266 5
10.407 -2.24 2.2650001 5
10.432 -2.2780001 2.2650001 5
10.434 -2.2780001 2.2650001 5
10.372 -2.4619999 2.266 5
10.366 -2.2420001 2.2650001 5
10.336 -2.3310001 2.2650001 5
10.421 -2.322 2.2650001 5
10.461 -2.22 2.2639999 5
10.494 -2.1789999 2.2639999 5
10.378 -2.2750001 2.2650001 5
10.356 -2.431 2.266 5
10.424 -2.188 2.2639999 5
10.398 -2.2309999 2.2639999 5
10.382 -2.2060001 2.2639999 5
10.341 -2.3399999 2.2650001 5
10.257 -2.339 2.266 5
10.419 -2.243 2.2639999 5
10.344 -2.415 2.266 5
10.417 -2.2309999 2.2639999 5
10.572 -2.062 2.263 5
10.388 -2.342 2.2650001 5
10.417 -2.414 2.2650001 5
10.328 -2.3740001 2.266 5
10.337 -2.2360001 2.2650001 5
10.537 -2.0910001 2.263 5
10.404 -2.263 2.2650001 5
10.371 -2.276 2.2650001 5
10.329 -2.2460001 2.2650001 5
10.467 -2.1919999 2.2639999 5
10.343 -2.4319999 2.266 5
10.351 -2.2539999 2.2650001 5
10.332 -2.277 2.2650001 5
10.384 -2.402 2.2650001 5
10.538 -2.161 2.2639999 5
10.454 -2.1670001 2.2639999 5
10.307 -2.2620001 2.2650001 5
10.485 -2.141 2.2639999 5
10.308 -2.2880001 2.2650001 5
10.58 -2.0710001 2.263 5
10.405 -2.3239999 2.2650001 5
10.418 -2.3039999 2.2650001 5
10.366 -2.3499999 2.2650001 5
10.546 -2.155 2.2639999 5
10.275 -2.302 2.2650001 5
10.322 -2.2920001 2.2650001 5
10.384 -2.25 2.2650001 5
10.288 -2.3599999 2.266 5
10.53 -2.1730001 2.2639999 5
10.476 -2.2490001 2.2639999 5
10.497 -2.1389999 2.2639999 5
10.368 -2.3199999 2.2650001 5
10.402 -2.243 2.2650001 5
10.468 -2.1489999 2.2639999 5
10.396 -2.2920001 2.2650001 5
10.348 -2.3989999 2.266 5
10.345 -2.2709999 2.2650001 5
10.367 -2.434 2.266 5
10.52 -2.1429999 2.2639999 5
10.56 -2.0680001 2.263 5
10.365 -2.2579999 2.2650001 5
10.257 -2.312 2.2650001 5
10.388 -2.3410001 2.2650001 5
10.369 -2.21 2.2650001 5
10.293 -2.3789999 2.266 5
10.54 -2.1389999 2.263 5
10.524 -2.132 2.263 5
10.509 -2.096 2.263 5
10.442 -2.277 2.2650001 5
10.41 -2.2969999 2.2650001 5
10.419 -2.302 2.2650001 5
10.331 -2.427 2.266 5
10.303 -2.3710001 2.266 5
10.491 -2.1210001 2.2639999 5
10.356 -2.385 2.2650001 5
10.403 -2.29 2.2650001 5
10.557 -2.1029999 2.263 5
10.265 -2.3150001 2.2650001 5
10.554 -2.1159999 2.263 5
10.328 -2.323 2.2650001 5
10.468 -2.154 2.2639999 5
10.259 -2.3169999 2.2650001 5
10.472 -2.2539999 2.2639999 5
10.531 -2.138 2.263 5
10.433 -2.25 2.2639999 5
10.451 -2.175 2.2639999 5
10.439 -2.187 2.2639999 5
10.395 -2.2590001 2.2650001 5
10.377 -2.3859999 2.2650001 5
10.511 -2.1589999 2.2639999 5
10.302 -2.3740001 2.266 5
10.545 -2.1270001 2.263 5
10.398 -2.3329999 2.2650001 5
10.383 -2.4749999 2.266 5
10.428 -2.345 2.2650001 5
10.368 -2.247 2.2650001 5
10.452 -2.325 2.2650001 5
10.353 -2.299 2.2650001 5
10.415 -2.2160001 2.2639999 5
10.353 -2.2409999 2.2650001 5
10.486 -2.1800001 2.2639999 5
10.456 -2.346 2.2650001 5
10.454 -2.2409999 2.2639999 5
10.314 -2.405 2.266 5
10.502 -2.2409999 2.2639999 5
10.375 -2.217 2.2650001 5
10.426 -2.256 2.2650001 5
10.408 -2.1960001 2.2639999 5
10.519 -2.089 2.263 5
10.337 -2.309 2.2650001 5
10.371 -2.382 2.2650001 5
10.391 -2.487 2.266 5
10.349 -2.339 2.2650001 5
10.421 -2.352 2.2650001 5
10.461 -2.1489999 2.2639999 5
10.266 -2.322 2.2650001 5
10.526 -2.112 2.263 5
10.345 -2.427 2.266 5
10.331 -2.3429999 2.2650001 5
10.313 -2.381 2.266 5
10.422 -2.191 2.2639999 5
10.414 -2.267 2.2650001 5
10.392 -2.4059999 2.2650001 5
10.577 -2.0699999 2.263 5
10.404 -2.3510001 2.2650001 5
10.486 -2.1240001 2.2639999 5
10.509 -2.1760001 2.2639999 5
10.416 -2.2079999 2.2639999 5
10.595 -2.0239999 2.263 5
10.444 -2.2079999 2.2639999 5
10.345 -2.427 2.266 5
10.428 -2.201 2.2639999 5
10.594 -2.0369999 2.263 5
10.446 -2.273 2.2650001 5
10.414 -2.28 2.2650001 5
10.464 -2.1849999 2.2639999 5
10.454 -2.1860001 2.2639999 5
10.414 -2.3499999 2.2650001 5
10.26 -2.325 2.266 5
10.383 -2.3239999 2.2650001 5
10.319 -2.2750001 2.2650001 5
10.483 -2.174 2.2639999 5
10.395 -2.1900001 2.2639999 5
10.443 -2.2820001 2.2650001 5
10.316 -2.3889999 2.266 5
10.443 -2.3770001 2.2650001 5
10.431 -2.3629999 2.2650001 5
10.45 -2.3440001 2.2650001 5
10.384 -2.234 2.2650001 5
10.364 -2.3299999 2.2650001 5
10.41 -2.243 2.2650001 5
10.362 -2.3369999 2.2650001 5
10.367 -2.2539999 2.2650001 5
10.515 -2.1370001 2.2639999 5
10.339 -2.4360001 2.266 5
10.539 -2.099 2.263 5
10.405 -2.3210001 2.2650001 5
10.287 -2.2820001 2.2650001 5
10.447 -2.2179999 2.2639999 5
10.315 -2.283 2.2650001 5
10.496 -2.2049999 2.2639999 5
10.407 -2.227 2.2639999 5
10.353 -2.224 2.2650001 5
10.316 -2.4000001 2.266 5
10.437 -2.2119999 2.2639999 5
10.557 -2.1099999 2.263 5
10.434 -2.2390001 2.2639999 5
10.34 -2.3050001 2.2650001 5
10.483 -2.171 2.2639999 5
10.406 -2.441 2.266 5
10.301 -2.3629999 2.266 5
10.451 -2.335 2.2650001 5
10.37 -2.431 2.266 5
10.358 -2.441 2.266 5
10.354 -2.398 2.266 5
10.42 -2.197 2.2639999 5
10.459 -2.1400001 2.2639999 5
10.428 -2.1989999 2.2639999 5
10.388 -2.415 2.2650001 5
10.395 -2.392 2.2650001 5
10.421 -2.2579999 2.2650001 5
10.269 -2.3499999 2.266 5
10.376 -2.4349999 2.266 5
10.388 -2.352 2.2650001 5
10.34 -2.3399999 2.2650001 5
10.527 -2.1010001 2.263 5
10.287 -2.2839999 2.2650001 5
10.295 -2.368 2.266 5
10.447 -2.2320001 2.2639999 5
10.302 -2.3599999 2.266 5
10.288 -2.2869999 2.2650001 5
10.442 -2.2750001 2.2650001 5
10.393 -2.2709999 2.2650001 5
10.492 -2.1440001 2.2639999 5
10.433 -2.2290001 2.2639999 5
10.441 -2.3599999 2.2650001 5
10.467 -2.2709999 2.2639999 5
10.389 -2.2690001 2.2650001 5
10.456 -2.299 2.2650001 5
10.315 -2.2679999 2.2650001 5
10.479 -2.1170001 2.2639999 5
10.381 -2.2850001 2.2650001 5
10.361 -2.3570001 2.2650001 5
10.422 -2.3729999 2.2650001 5
10.273 -2.3410001 2.266 5
10.575 -2.0869999 2.263 5
10.496 -2.135 2.2639999 5
10.407 -2.273 2.2650001 5
10.3 -2.3800001 2.266 5
10.417 -2.4030001 2.2650001 5
10.423 -2.2809999 2.2650001 5
10.532 -2.086 2.263 5
10.395 -2.2309999 2.2650001 5
10.35 -2.322 2.2650001 5
10.289 -2.289 2.2650001 5
10.377 -2.477 2.266 5
10.537 -2.1329999 2.263 5
10.36 -2.3299999 2.2650001 5
10.565 -2.1110001 2.263 5
10.446 -2.1470001 2.2639999 5
10.374 -2.3369999 2.2650001 5
10.403 -2.296 2.2650001 5
10.389 -2.4749999 2.266 5
10.467 -2.28 2.2639999 5
10.302 -2.313 2.2650001 5
10.504 -2.1700001 2.2639999 5
10.339 -2.3169999 2.2650001 5
10.462 -2.329 2.2650001 5
10.408 -2.178 2.2639999 5
10.252 -2.3239999 2.266 5
10.304 -2.3199999 2.2650001 5
10.4 -2.3239999 2.2650001 5
10.286 -2.2969999 2.2650001 5
10.315 -2.335 2.2650001 5
10.382 -2.402 2.2650001 5
10.401 -2.428 2.266 5
10.379 -2.3410001 2.2650001 5
10.434 -2.2060001 2.2639999 5
10.37 -2.4430001 2.266 5
10.353 -2.237 2.2650001 5
10.586 -2.0599999 2.263 5
10.337 -2.4059999 2.266 5
10.396 -2.2130001 2.2639999 5
10.323 -2.312 2.2650001 5
10.401 -2.3510001 2.2650001 5
10.463 -2.2479999 2.2639999 5
10.471 -2.25 2.2639999 5
10.528 -2.1010001 2.263 5
10.374 -2.382 2.2650001 5
10.435 -2.194 2.2639999 5
10.43 -2.348 2.2650001 5
10.485 -2.112 2.2639999 5
10.317 -2.312 2.2650001 5
10.431 -2.2720001 2.2650001 5
10.366 -2.243 2.2650001 5
10.615 -2.006 2.2620001 5
10.452 -2.184 2.2639999 5
10.364 -2.312 2.2650001 5
10.417 -2.2 2.2639999 5
10.37 -2.2460001 2.2650001 5
10.313 -2.3050001 2.2650001 5
10.392 -2.2479999 2.2650001 5
10.406 -2.191 2.2639999 5
10.414 -2.4230001 2.2650001 5
10.491 -2.152 2.2639999 5
10.46 -2.1659999 2.2639999 5
10.365 -2.24 2.2650001 5
10.401 -2.2490001 2.2650001 5
10.532 -2.135 2.263 5
10.529 -2.1199999 2.263 5
10.412 -2.273 2.2650001 5
10.327 -2.4070001 2.266 5
10.358 -2.23 2.2650001 5
10.438 -2.2650001 2.2650001 5
10.38 -2.4170001 2.266 5
10.323 -2.339 2.2650001 5
10.425 -2.171 2.2639999 5
10.248 -2.316 2.266 5
10.344 -2.3429999 2.2650001 5
10.463 -2.244 2.2639999 5
10.469 -2.1500001 2.2639999 5
10.348 -2.2390001 2.2650001 5
10.383 -2.313 2.2650001 5
10.466 -2.2190001 2.2639999 5
10.428 -2.1789999 2.2639999 5
10.364 -2.312 2.2650001 5
10.539 -2.1070001 2.263 5
10.544 -2.122 2.263 5
10.469 -2.204 2.2639999 5
10.466 -2.2060001 2.2639999 5
10.347 -2.4200001 2.266 5
10.271 -2.3410001 2.266 5
10.341 -2.336 2.2650001 5
10.28 -2.325 2.2650001 5
10.398 -2.211 2.2639999 5
10.458 -2.25 2.2639999 5
10.387 -2.408 2.2650001 5
10.346 -2.2420001 2.2650001 5
10.31 -2.382 2.266 5
10.492 -2.2290001 2.2639999 5
10.476 -2.1329999 2.2639999 5
10.377 -2.4549999 2.266 5
10.581 -2.072 2.263 5
10.552 -2.069 2.263 5
10.42 -2.3050001 2.2650001 5
10.442 -2.3199999 2.2650001 5
10.477 -2.1849999 2.2639999 5
10.396 -2.421 2.2650001 5
10.407 -2.3110001 2.2650001 5
10.28 -2.319 2.2650001 5
10.359 -2.444 2.266 5
10.503 -2.23 2.2639999 5
10.442 -2.359 2.2650001 5
10.479 -2.184 2.2639999 5
10.43 -2.1960001 2.2639999 5
10.573 -2.095 2.263 5
10.524 -2.1259999 2.263 5
10.33 -2.2590001 2.2650001 5
10.363 -2.3900001 2.2650001 5
10.432 -2.253 2.2639999 5
10.444 -2.151 2.2639999 5
10.552 -2.1340001 2.263 5
10.325 -2.3110001 2.2650001 5
10.488 -2.2320001 2.2639999 5
10.262 -2.316 2.2650001 5
10.359 -2.378 2.2650001 5
10.505 -2.1689999 2.2639999 5
10.508 -2.2249999 2.2639999 5
10.442 -2.2390001 2.2639999 5
10.325 -2.276 2.2650001 5
10.509 -2.1719999 2.2639999 5
10.378 -2.326 2.2650001 5
10.524 -2.1240001 2.263 5
10.415 -2.2179999 2.2639999 5
10.351 -2.411 2.266 5
10.303 -2.2850001 2.2650001 5
10.337 -2.312 2.2650001 5
10.453 -2.2249999 2.2639999 5
10.491 -2.115 2.2639999 5
10.383 -2.444 2.266 5
10.376 -2.3929999 2.2650001 5
10.293 -2.3310001 2.2650001 5
10.301 -2.266 2.2650001 5
10.421 -2.345 2.2650001 5
10.433 -2.187 2.2639999 5
10.449 -2.2079999 2.2639999 5
10.496 -2.148 2.2639999 5
10.473 -2.135 2.2639999 5
10.46 -2.2750001 2.2639999 5
10.297 -2.345 2.2650001 5
10.516 -2.2090001 2.2639999 5
10.449 -2.221 2.2639999 5
10.516 -2.1370001 2.2639999 5
10.483 -2.2179999 2.2639999 5
10.537 -2.1129999 2.263 5
10.412 -2.296 2.2650001 5
10.263 -2.312 2.2650001 5
10.246 -2.3269999 2.266 5
10.415 -2.345 2.2650001 5
10.499 -2.1919999 2.2639999 5
10.417 -2.3959999 2.2650001 5
10.275 -2.3570001 2.266 5
10.316 -2.345 2.2650001 5
10.322 -2.3570001 2.2650001 5
10.262 -2.3180001 2.2650001 5
10.374 -2.316 2.2650001 5
10.329 -2.283 2.2650001 5
10.491 -2.266 2.2639999 5
10.503 -2.171 2.2639999 5
10.468 -2.138 2.2639999 5
10.49 -2.1600001 2.2639999 5
10.44 -2.3369999 2.2650001 5
10.436 -2.2349999 2.2639999 5
10.385 -2.4219999 2.266 5
10.454 -2.3039999 2.2650001 5
10.506 -2.1630001 2.2639999 5
10.366 -2.4300001 2.266 5
10.49 -2.1370001 2.2639999 5
10.298 -2.332 2.2650001 5
10.333 -2.3380001 2.2650001 5
10.3 -2.3510001 2.266 5
10.366 -2.2839999 2.2650001 5
10.494 -2.2160001 2.2639999 5
10.303 -2.313 2.2650001 5
10.379 -2.296 2.2650001 5
10.438 -2.3889999 2.2650001 5
10.369 -2.2690001 2.2650001 5
10.435 -2.3150001 2.2650001 5
10.299 -2.306 2.2650001 5
10.368 -2.2869999 2.2650001 5
10.297 -2.313 2.2650001 5
10.384 -2.385 2.2650001 5
10.387 -2.339 2.2650001 5
10.379 -2.299 2.2650001 5
10.35 -2.358 2.2650001 5
10.373 -2.244 2.2650001 5
10.339 -2.3399999 2.2650001 5
10.273 -2.322 2.2650001 5
10.432 -2.4000001 2.2650001 5
10.533 -2.099 2.263 5
10.355 -2.4200001 2.266 5
10.411 -2.2590001 2.2650001 5
10.556 -2.1340001 2.263 5
10.322 -2.3640001 2.2650001 5
10.563 -2.1040001 2.263 5
10.407 -2.4300001 2.2650001 5
10.392 -2.4460001 2.266 5
10.335 -2.2920001 2.2650001 5
10.344 -2.3829999 2.2650001 5
10.345 -2.2839999 2.2650001 5
10.398 -2.243 2.2650001 5
10.321 -2.346 2.2650001 5
10.584 -2.0639999 2.263 5
10.287 -2.3559999 2.266 5
10.461 -2.2260001 2.2639999 5
10.595 -2.039 2.263 5
10.483 -2.141 2.2639999 5
10.407 -2.4519999 2.266 5
10.355 -2.3640001 2.2650001 5
10.454 -2.3039999 2.2650001 5
10.366 -2.4030001 2.266 5
10.413 -2.4219999 2.2650001 5
10.416 -2.2490001 2.2650001 5
10.531 -2.1270001 2.263 5
10.466 -2.3199999 2.2650001 5
10.401 -2.4530001 2.266 5
10.352 -2.447 2.266 5
10.419 -2.26 2.2650001 5
10.347 -2.2579999 2.2650001 5
10.38 -2.2249999 2.2650001 5
10.455 -2.3499999 2.2650001 5
10.42 -2.29 2.2650001 5
10.361 -2.411 2.266 5
10.46 -2.316 2.2650001 5
10.405 -2.332 2.2650001 5
10.297 -2.2969999 2.2650001 5
10.356 -2.244 2.2650001 5
10.38 -2.2909999 2.2650001 5
10.451 -2.277 2.2650001 5
10.35 -2.421 2.266 5
10.333 -2.313 2.2650001 5
10.281 -2.3399999 2.266 5
10.436 -2.2179999 2.2639999 5
10.475 -2.197 2.2639999 5
10.585 -2.043 2.263 5
10.422 -2.414 2.2650001 5
10.604 -2.027 2.263 5
10.487 -2.2030001 2.2639999 5
10.404 -2.451 2.266 5
10.54 -2.1300001 2.263 5
10.357 -2.408 2.266 5
10.393 -2.471 2.266 5
10.279 -2.359 2.266 5
10.447 -2.303 2.2650001 5
10.382 -2.4690001 2.266 5
10.363 -2.339 2.2650001 5
10.434 -2.3 2.2650001 5
10.514 -2.148 2.2639999 5
10.359 -2.243 2.2650001 5
10.474 -2.217 2.2639999 5
10.355 -2.3900001 2.2650001 5
10.344 -2.4360001 2.266 5
10.395 -2.365 2.2650001 5
10.392 -2.223 2.2639999 5
10.462 -2.1659999 2.2639999 5
10.369 -2.3699999 2.2650001 5
10.459 -2.194 2.2639999 5
10.474 -2.142 2.2639999 5
10.404 -2.46 2.266 5
10.433 -2.3710001 2.2650001 5
10.564 -2.082 2.263 5
10.389 -2.4690001 2.266 5
10.437 -2.2709999 2.2650001 5
10.416 -2.418 2.2650001 5
10.529 -2.079 2.263 5
10.309 -2.369 2.266 5
10.28 -2.3010001 2.2650001 5
10.347 -2.293 2.2650001 5
10.409 -2.349 2.2650001 5
10.485 -2.237 2.2639999 5
10.513 -2.1849999 2.2639999 5
10.432 -2.346 2.2650001 5
10.354 -2.391 2.2650001 5
10.526 -2.1340001 2.263 5
10.277 -2.3239999 2.2650001 5
10.519 -2.2090001 2.2639999 5
10.303 -2.382 2.266 5
10.458 -2.2160001 2.2639999 5
10.324 -2.3540001 2.2650001 5
10.59 -2.053 2.263 5
10.309 -2.273 2.2650001 5
10.455 -2.2590001 2.2639999 5
10.476 -2.25 2.2639999 5
10.515 -2.0220001 2.1760001 5
10.617 -2.026 2.168 5
10.434 -2.0179999 2.1819999 5
10.434 -2.0139999 2.177 5
10.395 -1.995 2.1570001 5
10.388 -1.993 2.155 5
10.528 -2.0280001 2.1830001 5
10.421 -2 2.1600001 5
10.452 -2.006 2.1630001 5
10.397 -2.0120001 2.1800001 5
10.673 -2.0339999 2.171 5
10.411 -2.0109999 2.175 5
10.518 -2.0109999 2.161 5
10.485 -2.006 2.1589999 5
10.541 -2.026 2.1789999 5
10.655 -2.0309999 2.1689999 5
10.609 -2.0320001 2.177 5
10.535 -2.016 2.165 5
10.482 -2.007 2.161 5
10.602 -2.023 2.1659999 5
10.612 -2.023 2.165 5
10.532 -2.0190001 2.1700001 5
10.496 -2.0109999 2.165 5
10.5 -2.0090001 2.161 5
10.57 -2.0209999 2.168 5
10.383 -1.995 2.158 5
10.439 -2.0109999 2.171 5
10.417 -1.9960001 2.155 5
10.43 -2.0050001 2.1659999 5
10.413 -2.0079999 2.1719999 5
10.506 -2.0220001 2.177 5
10.52 -2.0209999 2.174 5
10.465 -2.023 2.184 5
10.418 -2.013 2.177 5
10.642 -2.03 2.1700001 5
10.66 -2.033 2.171 5
10.412 -2.0039999 2.1670001 5
10.474 -2.0220001 2.1819999 5
10.493 -2.007 2.1589999 5
10.377 -2.0039999 2.171 5
10.405 -2.0020001 2.164 5
10.412 -2.007 2.1700001 5
10.415 -2 2.161 5
10.536 -2.023 2.174 5
10.389 -1.994 2.1559999 5
10.43 -1.998 2.155 5
10.399 -1.999 2.161 5
10.411 -1.999 2.1600001 5
10.489 -2.0139999 2.1700001 5
10.566 -2.017 2.1630001 5
10.564 -2.017 2.164 5
10.584 -2.0239999 2.1700001 5
10.524 -2.013 2.1630001 5
10.432 -1.999 2.1559999 5
10.377 -2 2.1659999 5
10.424 -2.007 2.168 5
10.422 -2.0190001 2.1849999 5
10.571 -2.0250001 2.1719999 5
10.444 -2.0039999 2.161 5
10.532 -2.0150001 2.165 5
10.38 -2.007 2.175 5
10.695 -2.036 2.1700001 5
10.436 -2.017 2.181 5
10.438 -2.013 2.175 5
10.417 -2.0150001 2.1800001 5
10.578 -2.0179999 2.1630001 5
10.515 -2.0139999 2.165 5
10.486 -2.0109999 2.165 5
10.543 -2.0239999 2.175 5
10.421 -2 2.1589999 5
10.527 -2.0120001 2.161 5
10.43 -2.0009999 2.1600001 5
10.533 -2.0220001 2.174 5
10.445 -2.023 2.188 5
10.467 -2.0190001 2.1789999 5
10.509 -2.0190001 2.174 5
10.402 -2.017 2.1849999 5
10.535 -2.0280001 2.1819999 5
10.485 -2.0190001 2.177 5
10.576 -2.02 2.165 5
10.427 -2.023 2.1900001 5
10.5 -2.016 2.1700001 5
10.477 -2.007 2.161 5
10.505 -2.0209999 2.1760001 5
10.374 -1.99 2.1530001 5
10.389 -1.9910001 2.1530001 5
10.512 -2.0250001 2.181 5
10.486 -2.0050001 2.158 5
10.616 -2.026 2.1689999 5
10.389 -1.995 2.158 5
10.459 -2.0190001 2.1800001 5
10.599 -1.998 2.155 5
10.643 -2.0239999 2.165 5
10.617 -2.0090001 2.1589999 5
10.625 -2.0090001 2.1589999 5
10.576 -1.992 2.152 5
10.671 -2.017 2.1630001 5
10.692 -2.0190001 2.1630001 5
10.572 -2.0090001 2.1589999 5
10.567 -2.007 2.158 5
10.546 -2.0120001 2.1600001 5
10.64 -2.023 2.165 5
10.71 -2.0020001 2.1570001 5
10.486 -1.994 2.1530001 5
10.535 -1.9910001 2.152 5
10.417 -1.994 2.1530001 5
10.426 -1.995 2.1530001 5
10.646 -2.0090001 2.1600001 5
10.567 -2.0139999 2.161 5
10.643 -2.003 2.1570001 5
10.665 -2.03 2.168 5
10.665 -2.0039999 2.1570001 5
10.431 -1.9859999 2.1489999 5
10.585 -1.993 2.1530001 5
10.707 -1.9960001 2.154 5
10.472 -1.9910001 2.152 5
10.427 -1.9859999 2.1489999 5
10.668 -2.003 2.1570001 5
10.702 -1.993 2.1530001 5
10.359 -1.985 2.1489999 5
10.438 -1.994 2.1530001 5
10.603 -1.99 2.152 5
10.708 -2.01 2.1600001 5
10.67 -1.995 2.154 5
10.702 -2.0050001 2.158 5
10.637 -2.0020001 2.1570001 5
10.678 -1.9960001 2.154 5
10.472 -1.995 2.1530001 5
10.48 -1.9910001 2.151 5
10.7 -2.0009999 2.1559999 5
10.694 -1.995 2.154 5
10.653 -2.0050001 2.158 5
10.72 -1.994 2.154 5
10.732 -2.0009999 2.1570001 5
10.612 -2.0209999 2.164 5
10.702 -2.0220001 2.165 5
10.586 -1.995 2.154 5
10.579 -2 2.1559999 5
10.539 -2.0039999 2.1570001 5
10.635 -1.992 2.152 5
10.697 -2.03 2.168 5
10.405 -1.985 2.1489999 5
10.525 -2.007 2.158 5
10.626 -2.02 2.164 5
10.528 -1.993 2.152 5
10.613 -2.0090001 2.1589999 5
10.553 -1.989 2.151 5
10.642 -1.992 2.152 5
10.597 -1.999 2.155 5
10.694 -2.0280001 2.1670001 5
10.565 -2.003 2.1559999 5
10.645 -2.003 2.1570001 5
10.553 -1.993 2.1530001 5
10.592 -2.017 2.1619999 5
10.721 -1.993 2.1530001 5
10.699 -2.0350001 2.1700001 5
10.673 -2.0109999 2.1600001 5
10.635 -2.023 2.165 5
10.718 -2.013 2.161 5
10.481 -1.995 2.1530001 5
10.541 -2.0020001 2.1559999 5
10.651 -2.02 2.164 5
10.666 -1.9910001 2.152 5
10.648 -2.0090001 2.1589999 5
10.55 -1.989 2.151 5
10.635 -1.997 2.155 5
10.583 -2.0039999 2.1570001 5
10.474 -1.994 2.1530001 5
10.686 -2.0109999 2.1600001 5
10.501 -1.992 2.152 5
10.662 -2.007 2.1589999 5
10.692 -2.0150001 2.1619999 5
10.729 -1.9960001 2.154 5
10.667 -2.0150001 2.1619999 5
10.687 -2.0179999 2.1630001 5
10.463 -1.993 2.152 5
10.596 -1.995 2.154 5
10.618 -2.017 2.1619999 5
10.651 -2.0179999 2.1630001 5
10.631 -2.003 2.1570001 5
10.588 -2.0139999 2.161 5
10.504 -1.993 2.152 5
10.446 -1.992 2.152 5
10.684 -1.992 2.1530001 5
10.731 -2.0039999 2.158 5
10.543 -1.994 2.1530001 5
10.489 -2.8599999 2.26 5
10.481 -2.8139999 2.253 5
10.436 -2.8559999 2.247 5
10.518 -2.8099999 2.2620001 5
10.434 -2.8440001 2.2449999 5
10.39 -2.8759999 2.2379999 5
10.501 -2.8239999 2.2590001 5
10.504 -2.8410001 2.2620001 5
10.5 -2.842 2.2609999 5
10.456 -2.836 2.25 5
10.486 -2.8559999 2.2590001 5
10.475 -2.8740001 2.2579999 5
10.485 -2.8640001 2.26 5
10.418 -2.882 2.2449999 5
10.366 -2.881 2.233 5
10.481 -2.895 2.2620001 5
10.488 -2.875 2.2620001 5
10.525 -2.7939999 2.2620001 5
10.37 -2.875 2.233 5
10.476 -2.812 2.2520001 5
10.387 -2.8859999 2.2379999 5
10.416 -2.8499999 2.2409999 5
10.372 -2.8870001 2.2349999 5
10.427 -2.8369999 2.2420001 5
10.482 -2.826 2.2550001 5
10.516 -2.8080001 2.2609999 5
10.471 -2.8499999 2.2550001 5
10.451 -2.869 2.2520001 5
10.465 -2.8859999 2.257 5
10.478 -2.892 2.2609999 5
10.4 -2.865 2.2390001 5
10.507 -2.7909999 2.257 5
10.49 -2.8329999 2.257 5
10.413 -2.8510001 2.2409999 5
10.482 -2.8610001 2.2590001 5
10.46 -2.8269999 2.2490001 5
10.542 -2.7620001 2.2620001 5
10.508 -2.8180001 2.26 5
10.414 -2.8800001 2.244 5
10.498 -2.8110001 2.257 5
10.4 -2.8829999 2.2409999 5
10.52 -2.806 2.2620001 5
10.479 -2.8099999 2.2520001 5
10.383 -2.8859999 2.237 5
10.431 -2.8399999 2.244 5
10.452 -2.8570001 2.2509999 5
10.467 -2.839 2.2520001 5
10.476 -2.872 2.2579999 5
10.462 -2.846 2.2520001 5
10.432 -2.8759999 2.2479999 5
10.531 -2.7709999 2.26 5
10.402 -2.858 2.2390001 5
10.494 -2.8369999 2.2590001 5
10.462 -2.872 2.2550001 5
10.42 -2.869 2.244 5
10.447 -2.8280001 2.2460001 5
10.473 -2.8900001 2.26 5
10.486 -2.813 2.2539999 5
10.509 -2.786 2.257 5
10.424 -2.849 2.243 5
10.417 -2.888 2.2460001 5
10.422 -2.881 2.2460001 5
10.386 -2.8659999 2.2360001 5
10.483 -2.8150001 2.2539999 5
10.441 -2.8610001 2.2490001 5
10.45 -2.865 2.2509999 5
10.46 -2.8199999 2.2490001 5
10.53 -2.783 2.2620001 5
10.401 -2.869 2.24 5
10.425 -2.8540001 2.244 5
10.475 -2.8740001 2.2590001 5
10.503 -2.8510001 2.263 5
10.438 -2.8889999 2.2509999 5
10.461 -2.8310001 2.25 5
10.498 -2.8180001 2.2579999 5
10.479 -2.848 2.256 5
10.444 -2.842 2.247 5
10.5 -2.848 2.2609999 5
10.474 -2.839 2.2539999 5
10.481 -2.823 2.2539999 5
10.475 -2.8729999 2.2579999 5
10.455 -2.8959999 2.256 5
10.401 -2.8900001 2.2420001 5
10.489 -2.8540001 2.26 5
10.447 -2.8929999 2.2539999 5
10.388 -2.882 2.2379999 5
10.459 -2.8180001 2.2479999 5
10.402 -2.8599999 2.2390001 5
10.409 -2.8559999 2.24 5
10.495 -2.8440001 2.26 5
10.449 -2.8540001 2.25 5
10.468 -2.845 2.253 5
10.512 -2.8139999 2.2609999 5
10.466 -2.878 2.257 5
10.383 -2.8870001 2.237 5
10.39 -2.888 2.2390001 5
10.367 -2.882 2.233 5
10.408 -2.78 2.2349999 5
10.443 -2.727 2.2390001 5
10.441 -2.7379999 2.2390001 5
10.48 -2.7420001 2.2479999 5
10.434 -2.8180001 2.243 5
10.426 -2.757 2.237 5
10.518 -2.7709999 2.2579999 5
10.491 -2.743 2.25 5
10.468 -2.76 2.2460001 5
10.379 -2.852 2.233 5
10.494 -2.767 2.2520001 5
10.477 -2.7349999 2.247 5
10.48 -2.7550001 2.2490001 5
10.424 -2.8340001 2.2420001 5
10.488 -2.7720001 2.2509999 5
10.462 -2.786 2.247 5
