# .PCD v0.7 - Point Cloud Data file format
VERSION 0.7
FIELDS x y z label
SIZE 4 4 4 4
TYPE F F F U
COUNT 1 1 1 1
WIDTH 1639
HEIGHT 1
VIEWPOINT 0 0 0 1 0 0 0
POINTS 1639
DATA ascii
2.878 -6.2670002 2.299 9
2.882 -6.2839999 2.375 9
2.882 -6.395 2.3710001 9
2.8800001 -6.4039998 2.319 9
2.8789999 -6.4050002 2.3139999 9
2.882 -6.2690001 2.375 9
2.881 -6.3730001 2.3540001 9
2.8829999 -6.4159999 2.3789999 9
2.8829999 -6.4390001 2.382 9
2.882 -6.3730001 2.362 9
2.881 -6.2150002 2.3640001 9
2.8800001 -6.283 2.3410001 9
2.8789999 -6.3730001 2.312 9
2.881 -6.3429999 2.359 9
2.881 -6.2969999 2.3610001 9
2.8800001 -6.3340001 2.323 9
2.882 -6.4130001 2.358 9
2.881 -6.3260002 2.3559999 9
2.882 -6.421 2.358 9
2.8800001 -6.27 2.332 9
2.881 -6.3569999 2.3559999 9
2.8789999 -6.2379999 2.3180001 9
2.8800001 -6.2290001 2.3340001 9
2.8829999 -6.4349999 2.3699999 9
2.8829999 -6.4450002 2.3829999 9
2.881 -6.2690001 2.359 9
2.8800001 -6.1849999 2.348 9
2.8800001 -6.2030001 2.349 9
2.8800001 -6.1389999 2.3570001 9
2.8800001 -6.3569999 2.3269999 9
2.8789999 -6.2249999 2.3310001 9
2.878 -6.29 2.306 9
2.8800001 -6.342 2.336 9
2.878 -6.3520002 2.2850001 9
2.882 -6.336 2.3770001 9
2.878 -6.2399998 2.3069999 9
2.8829999 -6.4640002 2.382 9
2.881 -6.1409998 2.3610001 9
2.8789999 -6.2459998 2.319 9
2.8800001 -6.4120002 2.3199999 9
2.882 -6.2820001 2.365 9
2.881 -6.3189998 2.3540001 9
2.8789999 -6.3979998 2.306 9
2.8800001 -6.257 2.3329999 9
2.8789999 -6.368 2.303 9
2.881 -6.3909998 2.3369999 9
2.881 -6.3309999 2.3570001 9
2.878 -6.3270001 2.2920001 9
2.881 -6.2849998 2.3499999 9
2.8800001 -6.2449999 2.3380001 9
2.882 -6.4380002 2.3610001 9
2.8789999 -6.3200002 2.322 9
2.8789999 -6.2270002 2.323 9
2.881 -6.2470002 2.3599999 9
2.8829999 -6.4289999 2.381 9
2.8800001 -6.3169999 2.325 9
2.8800001 -6.2350001 2.3340001 9
2.881 -6.2160001 2.359 9
2.882 -6.3759999 2.365 9
2.881 -6.4450002 2.342 9
2.882 -6.3759999 2.3640001 9
2.8800001 -6.1680002 2.3540001 9
2.881 -6.2280002 2.362 9
2.882 -6.3940001 2.3599999 9
2.8789999 -6.3439999 2.3199999 9
2.882 -6.329 2.372 9
2.8800001 -6.283 2.3280001 9
2.8800001 -6.335 2.3239999 9
2.8800001 -6.3649998 2.323 9
2.8800001 -6.1859999 2.3380001 9
2.881 -6.3889999 2.339 9
2.881 -6.1760001 2.368 9
2.882 -6.4260001 2.3659999 9
2.8789999 -6.3769999 2.3139999 9
2.882 -6.316 2.3670001 9
2.8770001 -6.303 2.2869999 9
2.8800001 -6.2069998 2.3410001 9
2.8800001 -6.2529998 2.3380001 9
2.8800001 -6.3959999 2.322 9
2.881 -6.4699998 2.3440001 9
2.881 -6.3410001 2.3540001 9
2.8789999 -6.4180002 2.3080001 9
2.882 -6.303 2.375 9
2.881 -6.21 2.3610001 9
2.8829999 -6.4089999 2.372 9
2.882 -6.3730001 2.362 9
2.878 -6.3119998 2.2969999 9
2.8789999 -6.3509998 2.3069999 9
2.881 -6.4050002 2.3380001 9
2.878 -6.3579998 2.286 9
2.882 -6.244 2.3729999 9
2.8840001 -6.5170002 2.385 9
2.8789999 -6.2389998 2.313 9
2.8789999 -6.2309999 2.329 9
2.881 -6.2179999 2.3529999 9
2.8800001 -6.3049998 2.3269999 9
2.882 -6.4460001 2.3629999 9
2.8789999 -6.3499999 2.3080001 9
2.882 -6.302 2.3629999 9
2.8800001 -6.3579998 2.332 9
2.8829999 -6.2119999 2.3729999 9
2.904 -6.1760001 2.3889999 9
2.892 -6.3769999 2.388 9
2.898 -6.2659998 2.388 9
2.9030001 -6.0879998 2.385 9
2.914 -6.0450001 2.392 9
2.885 -6.1300001 2.3710001 9
2.898 -6.1079998 2.381 9
2.9000001 -6.1500001 2.385 9
2.905 -6.0830002 2.3859999 9
2.8970001 -6.1799998 2.3829999 9
2.892 -6.1160002 2.3759999 9
2.8859999 -6.4169998 2.385 9
2.8840001 -6.3660002 2.381 9
2.8940001 -6.3280001 2.388 9
2.8929999 -6.1440001 2.3789999 9
2.8929999 -6.2340002 2.3829999 9
2.9030001 -6.0679998 2.3840001 9
2.892 -6.125 2.3770001 9
2.888 -6.1820002 2.3759999 9
2.8859999 -6.4460001 2.3859999 9
2.8959999 -6.3379998 2.3900001 9
2.9130001 -6.0310001 2.3900001 9
2.8840001 -6.3330002 2.3800001 9
2.8889999 -6.2150002 2.378 9
2.8970001 -6.1030002 2.3800001 9
2.891 -6.2550001 2.382 9
2.901 -6.191 2.3870001 9
2.882 -6.1609998 2.3699999 9
2.8900001 -6.2119999 2.3789999 9
2.8989999 -6.0960002 2.382 9
2.8829999 -6.2880001 2.3770001 9
2.8959999 -6.2129998 2.3840001 9
2.902 -6.2280002 2.3900001 9
2.9000001 -6.2350001 2.388 9
2.8970001 -6.2919998 2.3889999 9
2.882 -6.1929998 2.372 9
2.8900001 -6.276 2.382 9
2.888 -6.3850002 2.385 9
2.8889999 -6.1659999 2.3759999 9
2.8989999 -6.256 2.388 9
2.8859999 -6.4039998 2.385 9
2.9059999 -6.092 2.3870001 9
2.8900001 -6.27 2.382 9
2.8970001 -6.2849998 2.3889999 9
2.901 -6.0570002 2.382 9
2.8840001 -6.3130002 2.378 9
2.914 -6.04 2.391 9
2.9100001 -6.0440001 2.3889999 9
2.9059999 -6.098 2.388 9
2.885 -6.289 2.378 9
2.8889999 -6.0999999 2.3729999 9
2.8929999 -6.0929999 2.3759999 9
2.892 -6.1849999 2.3800001 9
2.888 -6.2399998 2.378 9
2.8959999 -6.119 2.3800001 9
2.9070001 -6.033 2.3859999 9
2.8870001 -6.3010001 2.381 9
2.8959999 -6.2020001 2.3840001 9
2.911 -6.0339999 2.3889999 9
2.8889999 -6.118 2.3740001 9
2.8959999 -6.066 2.378 9
2.905 -6.1220002 2.3870001 9
2.908 -6.1269999 2.391 9
2.8840001 -6.4250002 2.3829999 9
2.895 -6.2979999 2.3870001 9
2.9030001 -6.1469998 2.3870001 9
2.8870001 -6.473 2.388 9
2.8870001 -6.309 2.381 9
2.8829999 -6.1690001 2.3710001 9
2.8870001 -6.1750002 2.375 9
2.904 -6.046 2.3829999 9
2.9130001 -6.0469999 2.391 9
2.8970001 -6.0710001 2.3789999 9
2.891 -6.2979999 2.3840001 9
2.8959999 -6.1539998 2.381 9
2.885 -6.3150001 2.3800001 9
2.8989999 -6.0970001 2.382 9
2.8989999 -6.1389999 2.3829999 9
2.891 -6.1240001 2.3759999 9
2.901 -6.2480001 2.3900001 9
2.9070001 -6.1389999 2.3900001 9
2.891 -6.1669998 2.378 9
2.904 -6.0770001 2.3840001 9
2.8870001 -6.2509999 2.378 9
2.8959999 -6.1469998 2.381 9
2.881 -6.164 2.3699999 9
2.8970001 -6.0799999 2.3789999 9
2.8900001 -6.1960001 2.378 9
2.8870001 -6.4439998 2.3870001 9
2.902 -6.1009998 2.3840001 9
2.9000001 -6.2270002 2.3889999 9
2.9000001 -6.1560001 2.385 9
2.8840001 -6.1329999 2.3699999 9
2.8940001 -6.323 2.3870001 9
2.8940001 -6.0869999 2.3770001 9
2.885 -6.2839999 2.378 9
2.8859999 -6.329 2.381 9
2.904 -6.0879998 2.385 9
2.895 -6.3460002 2.3900001 9
2.908 -6.072 2.388 9
2.8859999 -6.2340002 2.3770001 9
2.8789999 -6.0009999 2.289 9
2.8800001 -6.1160002 2.3299999 9
2.8800001 -6.1339998 2.3369999 9
2.8789999 -6.119 2.3080001 9
2.8800001 -6.072 2.339 9
2.8800001 -6.0799999 2.3469999 9
2.8789999 -6.0149999 2.2980001 9
2.8789999 -5.9809999 2.2939999 9
2.8789999 -6.1290002 2.316 9
2.878 -6.1160002 2.2950001 9
2.8800001 -5.96 2.303 9
2.8800001 -6.0409999 2.319 9
2.8800001 -6.0539999 2.3169999 9
2.878 -6.1560001 2.2980001 9
2.8800001 -5.9429998 2.2969999 9
2.8800001 -6.1079998 2.342 9
2.8789999 -5.9790001 2.293 9
2.8789999 -6.1469998 2.3340001 9
2.8800001 -6.1110001 2.346 9
2.878 -6.1599998 2.29 9
2.878 -6.1160002 2.2880001 9
2.8789999 -5.9959998 2.3039999 9
2.8789999 -6.0209999 2.2850001 9
2.8800001 -6.0780001 2.3310001 9
2.8789999 -6.026 2.3110001 9
2.8800001 -6.0890002 2.3310001 9
2.8800001 -6.0599999 2.3210001 9
2.8800001 -6.0539999 2.3299999 9
2.8789999 -6.1929998 2.313 9
2.8800001 -6.0929999 2.3429999 9
2.878 -6.23 2.302 9
2.878 -6.1789999 2.299 9
2.8800001 -6.0799999 2.3510001 9
2.8789999 -6.1690001 2.3329999 9
2.8800001 -6.0609999 2.345 9
2.8789999 -6.085 2.319 9
2.8789999 -5.9190001 2.289 9
2.878 -6.2389998 2.3 9
2.878 -6.2069998 2.2909999 9
2.8789999 -6.0029998 2.2920001 9
2.8800001 -6.1100001 2.3570001 9
2.8800001 -5.9289999 2.2980001 9
2.8800001 -6.027 2.3369999 9
2.8800001 -5.9640002 2.3080001 9
2.8789999 -5.9419999 2.2939999 9
2.8789999 -5.961 2.2980001 9
2.8800001 -6.1290002 2.332 9
2.878 -6.1750002 2.29 9
2.8789999 -6.0669999 2.3180001 9
2.8789999 -6.1700001 2.3239999 9
2.8789999 -6.1329999 2.3139999 9
2.8800001 -5.901 2.2869999 9
2.8800001 -5.9559999 2.3110001 9
2.8800001 -6.0799999 2.3469999 9
2.8800001 -6.0949998 2.3510001 9
2.8789999 -5.9580002 2.293 9
2.8800001 -6 2.319 9
2.8789999 -6.0289998 2.2969999 9
2.8789999 -6.1919999 2.323 9
2.878 -6.2020001 2.299 9
2.878 -6.125 2.2939999 9
2.881 -6.0949998 2.3570001 9
2.8789999 -6.0549998 2.3110001 9
2.8789999 -6.0229998 2.2939999 9
2.878 -6.2129998 2.2939999 9
2.8800001 -6.1240001 2.346 9
2.878 -6.2480001 2.296 9
2.8789999 -6.132 2.3210001 9
2.878 -6.1399999 2.2920001 9
2.878 -6.2210002 2.3080001 9
2.8789999 -6.152 2.3180001 9
2.8789999 -6.152 2.319 9
2.8800001 -6.086 2.326 9
2.8800001 -6.0250001 2.312 9
2.8789999 -6.079 2.2950001 9
2.8789999 -6.1620002 2.3210001 9
2.878 -6.197 2.3 9
2.8789999 -6.073 2.3099999 9
2.8800001 -6.0580001 2.3239999 9
2.8800001 -5.9510002 2.3110001 9
2.8789999 -6.0580001 2.303 9
2.8789999 -5.9000001 2.2850001 9
2.878 -6.2509999 2.2950001 9
2.8789999 -6.0929999 2.309 9
2.8800001 -6.1160002 2.336 9
2.8800001 -5.895 2.2920001 9
2.8800001 -5.9320002 2.303 9
2.8800001 -6.112 2.3429999 9
2.8789999 -6.0960002 2.3199999 9
2.8800001 -6.092 2.3369999 9
2.8800001 -6.1300001 2.3440001 9
2.8800001 -6.118 2.348 9
2.8800001 -6.0370002 2.3310001 9
2.878 -6.1230001 2.293 9
2.881 -6.1020002 2.3599999 9
2.878 -6.2420001 2.296 9
2.8789999 -6.0700002 2.302 9
2.8789999 -6.198 2.313 9
2.878 -6.1729999 2.2869999 9
2.8789999 -6.1669998 2.3180001 9
2.8789999 -6.191 2.323 9
2.8789999 -6.0570002 2.309 9
2.8789999 -6.0359998 2.2980001 9
2.8789999 -6.1560001 2.323 9
2.8789999 -6.1269999 2.325 9
2.8800001 -6.1469998 2.345 9
2.8800001 -6.0050001 2.3310001 9
2.8800001 -6.04 2.3410001 9
2.878 -6.0999999 2.2920001 9
2.8800001 -6.0159998 2.3329999 9
2.878 -6.0949998 2.2869999 9
2.8789999 -6.0040002 2.3 9
2.8800001 -5.9099998 2.2969999 9
2.8789999 -6.0029998 2.29 9
2.8789999 -6.026 2.293 9
2.8789999 -6.027 2.303 9
2.8789999 -6.1059999 2.316 9
2.8800001 -5.9499998 2.312 9
2.8800001 -6.0430002 2.3429999 9
2.8789999 -5.9580002 2.2909999 9
2.878 -6.1059999 2.289 9
2.8800001 -5.8940001 2.2909999 9
2.8800001 -5.9219999 2.2920001 9
2.8789999 -6.0089998 2.302 9
2.8789999 -6.1799998 2.3099999 9
2.878 -6.2410002 2.29 9
2.8800001 -6.0970001 2.3559999 9
2.8789999 -6.1269999 2.3099999 9
2.878 -6.0669999 2.286 9
2.8789999 -6.1139998 2.3099999 9
2.8789999 -6.0619998 2.2950001 9
2.8800001 -5.9099998 2.296 9
2.8800001 -6.1129999 2.332 9
2.878 -6.0929999 2.2869999 9
2.8800001 -6.0609999 2.3310001 9
2.8800001 -5.993 2.3150001 9
2.8789999 -6.184 2.3150001 9
2.8789999 -6.1950002 2.319 9
2.8789999 -5.9590001 2.2939999 9
2.8800001 -6.0809999 2.3410001 9
2.878 -6.1620002 2.3010001 9
2.8789999 -6.0970001 2.303 9
2.8800001 -5.9569998 2.312 9
2.8800001 -6.1059999 2.3340001 9
2.8789999 -6.0380001 2.3010001 9
2.8800001 -5.9770002 2.3039999 9
2.8789999 -6.1149998 2.3080001 9
2.8800001 -6.0430002 2.319 9
2.8789999 -6.1389999 2.3280001 9
2.8789999 -6.0840001 2.2909999 9
2.8800001 -5.9990001 2.313 9
2.8789999 -6.033 2.3050001 9
2.8789999 -6.112 2.3210001 9
2.8800001 -5.9219999 2.2909999 9
2.8800001 -5.9419999 2.306 9
2.878 -6.2210002 2.302 9
2.878 -6.1630001 2.3039999 9
2.878 -6.2080002 2.2850001 9
2.8789999 -6.0289998 2.2850001 9
2.8789999 -5.9829998 2.286 9
2.8770001 -6.2379999 2.286 9
2.8800001 -5.9759998 2.309 9
2.8789999 -6.1300001 2.3280001 9
2.8789999 -6.1939998 2.3199999 9
2.8789999 -6.0489998 2.3 9
2.8829999 -5.5960002 2.336 9
2.881 -6.0819998 2.3599999 9
2.881 -5.902 2.323 9
2.881 -5.8959999 2.325 9
2.882 -5.8439999 2.349 9
2.8829999 -5.6719999 2.3559999 9
2.881 -5.8390002 2.309 9
2.8800001 -5.8730001 2.29 9
2.881 -5.98 2.3640001 9
2.882 -5.6939998 2.3380001 9
2.881 -5.7480001 2.3039999 9
2.8800001 -5.954 2.3150001 9
2.881 -5.6960001 2.2920001 9
2.8829999 -5.789 2.3740001 9
2.882 -5.651 2.339 9
2.881 -5.9320002 2.3280001 9
2.881 -5.869 2.3410001 9
2.8829999 -5.5840001 2.3469999 9
2.882 -5.6079998 2.3329999 9
2.882 -5.9169998 2.3640001 9
2.8800001 -5.9060001 2.306 9
2.8800001 -5.8400002 2.2909999 9
2.881 -5.8660002 2.3280001 9
2.881 -6.0370002 2.3469999 9
2.881 -5.7620001 2.2950001 9
2.881 -6.0279999 2.3499999 9
2.8800001 -6.033 2.3429999 9
2.881 -5.8709998 2.3399999 9
2.881 -5.7379999 2.3239999 9
2.881 -5.7410002 2.2920001 9
2.882 -5.7360001 2.336 9
2.881 -5.7350001 2.322 9
2.8840001 -5.5630002 2.372 9
2.881 -5.7800002 2.3199999 9
2.881 -5.8629999 2.322 9
2.8829999 -5.6859999 2.375 9
2.882 -5.8660002 2.3570001 9
2.881 -5.8979998 2.3199999 9
2.881 -5.7779999 2.313 9
2.8840001 -5.5760002 2.3789999 9
2.882 -5.7189999 2.3269999 9
2.8800001 -5.9749999 2.3269999 9
2.8829999 -5.612 2.3429999 9
2.882 -5.8779998 2.3540001 9
2.881 -5.7859998 2.3310001 9
2.8800001 -5.8260002 2.296 9
2.882 -5.6830001 2.3210001 9
2.882 -5.8429999 2.346 9
2.882 -5.8639998 2.3659999 9
2.882 -5.7789998 2.335 9
2.881 -6.0419998 2.3570001 9
2.8800001 -5.8530002 2.2939999 9
2.8800001 -5.8870001 2.3099999 9
2.8840001 -5.5539999 2.365 9
2.881 -5.677 2.296 9
2.881 -5.757 2.3050001 9
2.882 -5.8959999 2.3559999 9
2.881 -5.869 2.3499999 9
2.882 -5.789 2.358 9
2.882 -5.8959999 2.3559999 9
2.882 -5.73 2.3469999 9
2.881 -6.0409999 2.3499999 9
2.8800001 -5.8150001 2.2980001 9
2.881 -5.8390002 2.3399999 9
2.8829999 -5.6399999 2.368 9
2.8829999 -5.5560002 2.349 9
2.881 -5.9029999 2.348 9
2.881 -5.7160001 2.3080001 9
2.881 -5.8470001 2.3280001 9
2.8800001 -5.947 2.3239999 9
2.882 -5.9380002 2.365 9
2.8840001 -5.546 2.3629999 9
2.882 -5.7610002 2.3559999 9
2.8800001 -5.7909999 2.2950001 9
2.881 -5.8299999 2.316 9
2.8829999 -5.737 2.365 9
2.882 -5.6630001 2.3310001 9
2.8840001 -5.5770001 2.372 9
2.881 -6.0159998 2.3540001 9
2.881 -5.895 2.3510001 9
2.881 -5.8579998 2.3329999 9
2.882 -5.836 2.3499999 9
2.881 -6.0599999 2.359 9
2.882 -5.8439999 2.362 9
2.882 -5.7270002 2.3340001 9
2.881 -5.9299998 2.3329999 9
2.8829999 -5.6599998 2.3710001 9
2.881 -5.9120002 2.3510001 9
2.881 -5.8699999 2.3269999 9
2.8800001 -5.7909999 2.3 9
2.881 -5.9229999 2.3280001 9
2.8800001 -5.9699998 2.325 9
2.882 -5.822 2.345 9
2.8800001 -5.7729998 2.286 9
2.8829999 -5.6830001 2.365 9
2.881 -5.9299998 2.3469999 9
2.8800001 -5.8410001 2.306 9
2.8829999 -5.5809999 2.359 9
2.8829999 -5.6170001 2.342 9
2.881 -5.7150002 2.2939999 9
2.881 -5.9889998 2.3540001 9
2.881 -5.8639998 2.349 9
2.8800001 -5.8319998 2.302 9
2.882 -5.8270001 2.3599999 9
2.881 -5.71 2.3080001 9
2.882 -5.7969999 2.342 9
2.882 -5.6609998 2.345 9
2.8829999 -5.7020001 2.375 9
2.882 -5.777 2.359 9
2.881 -6.0469999 2.3599999 9
2.8829999 -5.6300001 2.3640001 9
2.881 -5.7080002 2.3039999 9
2.8829999 -5.6370001 2.368 9
2.881 -5.684 2.313 9
2.8829999 -5.7220001 2.3629999 9
2.881 -5.8699999 2.3380001 9
2.8840001 -5.527 2.3610001 9
2.8829999 -5.6069999 2.3529999 9
2.881 -6.0100002 2.345 9
2.882 -5.8340001 2.349 9
2.882 -5.6069999 2.3239999 9
2.8840001 -5.5359998 2.369 9
2.881 -6.027 2.3629999 9
2.8829999 -5.5840001 2.3510001 9
2.8800001 -5.776 2.289 9
2.881 -5.9190001 2.349 9
2.882 -5.75 2.3380001 9
2.882 -5.7459998 2.3540001 9
2.8800001 -5.9530001 2.3269999 9
2.881 -6.0500002 2.3659999 9
2.881 -5.921 2.3340001 9
2.8800001 -5.9850001 2.3310001 9
2.8800001 -5.7779999 2.2980001 9
2.8829999 -5.6069999 2.342 9
2.881 -5.9569998 2.358 9
2.881 -6.0019999 2.358 9
2.882 -5.948 2.369 9
2.8800001 -5.8670001 2.2980001 9
2.8800001 -5.8639998 2.299 9
2.8840001 -5.5739999 2.3699999 9
2.882 -5.6849999 2.352 9
2.881 -5.8709998 2.323 9
2.882 -5.6490002 2.3410001 9
2.882 -5.7379999 2.3599999 9
2.881 -5.7020001 2.3180001 9
2.882 -5.697 2.3380001 9
2.881 -5.987 2.3369999 9
2.882 -5.7820001 2.3510001 9
2.881 -5.7649999 2.303 9
2.8800001 -5.8870001 2.3010001 9
2.881 -6.0939999 2.365 9
2.8800001 -5.9439998 2.3210001 9
2.881 -5.8449998 2.342 9
2.8829999 -5.6339998 2.3440001 9
2.8840001 -5.494 2.3710001 9
2.8800001 -5.8280001 2.289 9
2.8829999 -5.6869998 2.372 9
2.8800001 -5.8839998 2.3099999 9
2.881 -6.0149999 2.342 9
2.8829999 -5.6620002 2.3559999 9
2.881 -5.7800002 2.3269999 9
2.8800001 -5.9000001 2.299 9
2.8829999 -5.7179999 2.3629999 9
2.882 -5.75 2.332 9
2.881 -5.777 2.3299999 9
2.881 -5.73 2.3010001 9
2.881 -5.8829999 2.3499999 9
2.881 -5.8309999 2.342 9
2.882 -5.882 2.355 9
2.8840001 -5.5100002 2.3729999 9
2.8840001 -5.5359998 2.378 9
2.881 -5.8930001 2.3239999 9
2.8800001 -5.9039998 2.3150001 9
2.882 -5.6570001 2.3269999 9
2.882 -5.7049999 2.348 9
2.8840001 -5.6220002 2.378 9
2.881 -5.9439998 2.3380001 9
2.8829999 -5.6339998 2.3529999 9
2.8829999 -5.6459999 2.359 9
2.8829999 -5.6469998 2.368 9
2.882 -5.717 2.348 9
2.881 -5.8969998 2.329 9
2.8800001 -5.9000001 2.3199999 9
2.8840001 -5.4980001 2.3710001 9
2.882 -5.9419999 2.369 9
2.8829999 -5.5549998 2.3599999 9
2.8829999 -5.5840001 2.3369999 9
2.8829999 -5.7360001 2.3670001 9
2.8840001 -5.4780002 2.3800001 9
2.881 -6.026 2.346 9
2.881 -5.9089999 2.3540001 9
2.8800001 -5.9219999 2.3069999 9
2.8840001 -5.5300002 2.362 9
2.881 -5.9759998 2.3529999 9
2.8829999 -5.638 2.3629999 9
2.881 -5.7670002 2.3110001 9
2.881 -5.8930001 2.3210001 9
2.8829999 -5.723 2.375 9
2.882 -5.7360001 2.3380001 9
2.881 -5.711 2.299 9
2.881 -5.8119998 2.309 9
2.882 -5.6350002 2.3139999 9
2.882 -5.7199998 2.329 9
2.8829999 -5.6009998 2.359 9
2.8829999 -5.625 2.349 9
2.882 -5.71 2.3469999 9
2.881 -5.6939998 2.312 9
2.882 -5.8140001 2.3499999 9
2.882 -5.645 2.3429999 9
2.881 -5.717 2.316 9
2.881 -5.723 2.293 9
2.881 -5.7249999 2.29 9
2.881 -5.737 2.3 9
2.881 -5.6739998 2.3050001 9
2.881 -6.0560002 2.358 9
2.8829999 -5.6529999 2.358 9
2.881 -5.7480001 2.323 9
2.882 -5.7779999 2.3469999 9
2.882 -5.652 2.323 9
2.881 -5.7909999 2.3210001 9
2.881 -5.7069998 2.309 9
2.882 -5.7550001 2.3380001 9
2.882 -5.8130002 2.3529999 9
2.8829999 -5.7030001 2.3740001 9
2.8829999 -5.6939998 2.3699999 9
2.881 -5.7080002 2.289 9
2.8829999 -5.6090002 2.339 9
2.882 -5.8390002 2.3640001 9
2.8829999 -5.559 2.362 9
2.882 -5.8010001 2.345 9
2.881 -5.8439999 2.336 9
2.8840001 -5.5809999 2.3759999 9
2.882 -5.7480001 2.3510001 9
2.882 -5.6890001 2.3269999 9
2.8800001 -5.7480001 2.293 9
2.8829999 -5.5830002 2.3510001 9
2.8800001 -5.8130002 2.299 9
2.8800001 -5.8400002 2.3 9
2.8829999 -5.737 2.3659999 9
2.8840001 -5.5209999 2.3740001 9
2.881 -6.0570002 2.3540001 9
2.882 -5.7030001 2.345 9
2.881 -5.9289999 2.3570001 9
2.8829999 -5.6599998 2.3510001 9
2.882 -5.8449998 2.3629999 9
2.881 -5.789 2.3010001 9
2.882 -5.77 2.3410001 9
2.881 -5.802 2.303 9
2.881 -5.6820002 2.3039999 9
2.882 -5.7550001 2.358 9
2.8800001 -6.0209999 2.3399999 9
2.881 -5.9289999 2.355 9
2.881 -5.869 2.349 9
2.8829999 -5.5890002 2.362 9
2.881 -5.8720002 2.339 9
2.881 -5.6830001 2.316 9
2.882 -5.829 2.352 9
2.881 -5.9520001 2.332 9
2.882 -5.934 2.365 9
2.8800001 -5.8600001 2.302 9
2.8829999 -5.6350002 2.3670001 9
2.882 -5.8579998 2.3499999 9
2.881 -5.8470001 2.3429999 9
2.8829999 -5.6069999 2.368 9
2.881 -5.7189999 2.3050001 9
2.8829999 -5.6420002 2.372 9
2.881 -5.888 2.3440001 9
2.8800001 -5.8670001 2.2939999 9
2.882 -5.6760001 2.3310001 9
2.882 -5.862 2.365 9
2.881 -5.7919998 2.325 9
2.882 -5.744 2.3369999 9
2.881 -5.6609998 2.3099999 9
2.882 -5.6139998 2.329 9
2.8800001 -5.9569998 2.322 9
2.881 -5.7449999 2.3199999 9
2.881 -5.9720001 2.335 9
2.881 -5.9899998 2.3529999 9
2.881 -5.9510002 2.332 9
2.8800001 -5.8410001 2.309 9
2.8840001 -5.5289998 2.365 9
2.882 -5.7620001 2.3629999 9
2.8840001 -5.5630002 2.368 9
2.881 -5.9520001 2.3540001 9
2.881 -5.7940001 2.325 9
2.8829999 -5.5749998 2.362 9
2.8800001 -5.8969998 2.309 9
2.8829999 -5.5840001 2.346 9
2.882 -5.8940001 2.3570001 9
2.8800001 -5.816 2.293 9
2.881 -5.7919998 2.3010001 9
2.882 -5.8400002 2.355 9
2.881 -5.8850002 2.3269999 9
2.881 -5.9809999 2.339 9
2.881 -5.8540001 2.332 9
2.8800001 -5.868 2.309 9
2.881 -5.9980001 2.3440001 9
2.8800001 -5.973 2.3239999 9
2.8800001 -5.8720002 2.2950001 9
2.881 -6.0489998 2.3570001 9
2.882 -5.7179999 2.3499999 9
2.8800001 -5.9219999 2.3050001 9
2.881 -5.7259998 2.3 9
2.882 -5.802 2.349 9
2.8800001 -5.7859998 2.2969999 9
2.882 -5.7480001 2.3429999 9
2.881 -5.8299999 2.323 9
2.881 -5.9109998 2.3310001 9
2.882 -5.8590002 2.372 9
2.8800001 -5.8280001 2.2880001 9
2.881 -5.9559999 2.3540001 9
2.882 -5.6810002 2.3510001 9
2.8829999 -5.5619998 2.3629999 9
2.8829999 -5.6500001 2.3710001 9
2.881 -5.8369999 2.3169999 9
2.882 -5.6279998 2.3369999 9
2.881 -5.8439999 2.3440001 9
2.882 -5.882 2.3629999 9
2.8829999 -5.5689998 2.355 9
2.882 -5.8340001 2.3659999 9
2.8800001 -5.908 2.302 9
2.881 -5.7319999 2.2920001 9
2.8829999 -5.6160002 2.3729999 9
2.882 -5.6009998 2.3329999 9
2.881 -5.8769999 2.3340001 9
2.882 -5.803 2.346 9
2.881 -5.7930002 2.3010001 9
2.8800001 -5.8460002 2.289 9
2.881 -5.7709999 2.3210001 9
2.882 -5.8449998 2.3510001 9
2.8829999 -5.599 2.3659999 9
2.8800001 -5.8439999 2.2869999 9
2.882 -5.8649998 2.355 9
2.882 -5.7259998 2.3559999 9
2.8829999 -5.6890001 2.365 9
2.8829999 -5.625 2.3699999 9
2.8800001 -5.9029999 2.302 9
2.8829999 -5.5819998 2.349 9
2.881 -5.8000002 2.335 9
2.8829999 -5.6440001 2.3510001 9
2.882 -5.7360001 2.355 9
2.8829999 -5.6040001 2.365 9
2.8829999 -5.6539998 2.3699999 9
2.8800001 -5.961 2.3280001 9
2.8829999 -5.7690001 2.3740001 9
2.8829999 -5.6539998 2.3710001 9
2.8800001 -5.7940001 2.299 9
2.8800001 -5.882 2.2980001 9
2.881 -5.9749999 2.352 9
2.882 -5.6810002 2.3180001 9
2.8829999 -5.6409998 2.378 9
2.8829999 -5.6030002 2.3699999 9
2.882 -5.763 2.3559999 9
2.882 -5.8000002 2.3710001 9
2.881 -5.8060002 2.3310001 9
2.8829999 -5.7199998 2.3610001 9
2.8829999 -5.5710001 2.3610001 9
2.8800001 -5.8930001 2.3050001 9
2.882 -5.7620001 2.3369999 9
2.882 -5.8239999 2.372 9
2.908 -5.9380002 2.388 9
2.8929999 -6.039 2.3759999 9
2.8870001 -5.7600002 2.378 9
2.8959999 -5.8260002 2.382 9
2.9100001 -6.02 2.388 9
2.8929999 -5.8899999 2.3789999 9
2.905 -5.8990002 2.3870001 9
2.892 -5.777 2.381 9
2.885 -5.4829998 2.382 9
2.8840001 -5.5180001 2.381 9
2.888 -5.9109998 2.375 9
2.9100001 -5.961 2.3889999 9
2.8889999 -5.8309999 2.3770001 9
2.8840001 -5.8429999 2.3740001 9
2.898 -5.9229999 2.382 9
2.8829999 -5.9169998 2.372 9
2.8970001 -5.8709998 2.382 9
2.8970001 -6 2.3789999 9
2.885 -6.0170002 2.3710001 9
2.8889999 -5.598 2.3829999 9
2.892 -5.6589999 2.3829999 9
2.8870001 -6.0739999 2.3710001 9
2.8870001 -5.8670001 2.3759999 9
2.8929999 -5.684 2.3829999 9
2.901 -5.9780002 2.382 9
2.8900001 -5.619 2.3829999 9
2.885 -5.9980001 2.3710001 9
2.8959999 -5.9840002 2.3789999 9
2.8859999 -6.0749998 2.3699999 9
2.8970001 -5.7210002 2.385 9
2.8940001 -5.77 2.382 9
2.8929999 -6.0669999 2.375 9
2.9130001 -5.993 2.3900001 9
2.9030001 -5.8990002 2.385 9
2.8829999 -5.8249998 2.3729999 9
2.8929999 -5.7030001 2.3829999 9
2.9000001 -6.0250001 2.381 9
2.8940001 -5.961 2.378 9
2.904 -5.8449998 2.3870001 9
2.8970001 -5.7930002 2.3840001 9
2.882 -6.0960002 2.3670001 9
2.8889999 -5.9190001 2.3759999 9
2.891 -5.5939999 2.3840001 9
2.9000001 -5.73 2.3870001 9
2.8889999 -5.7709999 2.3789999 9
2.904 -5.875 2.3870001 9
2.8870001 -5.914 2.375 9
2.8929999 -5.9850001 2.3770001 9
2.908 -6.0110002 2.3859999 9
2.8929999 -5.8080001 2.381 9
2.9070001 -5.8499999 2.3889999 9
2.8829999 -5.908 2.372 9
2.891 -6.033 2.375 9
2.882 -5.993 2.3699999 9
2.895 -5.8169999 2.382 9
2.8829999 -5.9619999 2.3710001 9
2.8870001 -5.9959998 2.3729999 9
2.8900001 -5.9489999 2.3759999 9
2.8989999 -6.0089998 2.3800001 9
2.8900001 -6.027 2.3740001 9
2.8859999 -6.0879998 2.3699999 9
2.901 -5.8759999 2.3840001 9
2.895 -5.8520002 2.381 9
2.885 -5.6020002 2.3800001 9
2.8870001 -5.6880002 2.3789999 9
2.895 -5.9039998 2.3800001 9
2.8900001 -6.0029998 2.375 9
2.8929999 -5.8699999 2.3800001 9
2.911 -5.9850001 2.3889999 9
2.885 -5.947 2.372 9
2.902 -6 2.382 9
2.8929999 -5.678 2.3829999 9
2.898 -6.0100002 2.3800001 9
2.898 -5.9159999 2.382 9
2.901 -5.7589998 2.3870001 9
2.895 -5.9310002 2.3789999 9
2.882 -5.8530002 2.3729999 9
2.8889999 -5.6469998 2.381 9
2.8870001 -5.9850001 2.3729999 9
2.8989999 -6.0300002 2.3800001 9
2.8929999 -5.8699999 2.3789999 9
2.8829999 -5.842 2.3729999 9
2.9059999 -5.9109998 2.3870001 9
2.902 -5.7779999 2.388 9
2.8959999 -5.6669998 2.3859999 9
2.8859999 -6.0510001 2.3710001 9
2.885 -6.0339999 2.3699999 9
2.904 -5.9549999 2.385 9
2.8829999 -5.9349999 2.3710001 9
2.902 -5.8540001 2.3859999 9
2.8959999 -5.8569999 2.382 9
2.8829999 -5.9970002 2.3699999 9
2.911 -5.9640002 2.3900001 9
2.9159999 -6.0079999 2.392 9
2.901 -5.9250002 2.3840001 9
2.8929999 -6.0549998 2.3759999 9
2.895 -5.9200001 2.3789999 9
2.902 -5.8909998 2.385 9
2.885 -5.9699998 2.372 9
2.885 -5.6279998 2.3789999 9
2.882 -6.0289998 2.369 9
2.891 -5.9050002 2.3770001 9
2.8940001 -5.757 2.3829999 9
2.901 -5.8629999 2.385 9
2.895 -5.7140002 2.3840001 9
2.8889999 -5.598 2.3829999 9
2.888 -5.7069998 2.3800001 9
2.8840001 -5.7649999 2.3759999 9
2.8889999 -5.7090001 2.3800001 9
2.888 -5.816 2.3770001 9
2.8989999 -6.046 2.3800001 9
2.9130001 -5.9959998 2.3900001 9
2.892 -5.7509999 2.381 9
2.9070001 -5.8979998 2.388 9
2.898 -5.9790001 2.3800001 9
2.885 -5.9489999 2.372 9
2.888 -5.6799998 2.3800001 9
2.8959999 -6.0370002 2.378 9
2.9089999 -5.9569998 2.388 9
2.892 -6.0669999 2.375 9
2.882 -6.0669999 2.368 9
2.8959999 -5.9860001 2.3789999 9
2.9070001 -5.954 2.3870001 9
2.9030001 -5.8150001 2.3870001 9
2.8900001 -6.0209999 2.3740001 9
2.8870001 -5.533 2.382 9
2.8900001 -5.9239998 2.3759999 9
2.8959999 -5.7470002 2.3840001 9
2.8870001 -6.0679998 2.3710001 9
2.8929999 -5.8860002 2.3789999 9
2.885 -5.8410001 2.375 9
2.8900001 -5.6830001 2.381 9
2.901 -6.0279999 2.381 9
2.882 -5.5489998 2.3280001 9
2.881 -5.6830001 2.2850001 9
2.882 -5.487 2.309 9
2.8829999 -5.48 2.3329999 9
2.882 -5.5419998 2.3180001 9
2.8840001 -5.4699998 2.3729999 9
2.881 -5.5110002 2.3010001 9
2.8829999 -5.5549998 2.335 9
2.881 -5.651 2.2909999 9
2.882 -5.5419998 2.3050001 9
2.882 -5.586 2.3299999 9
2.882 -5.5370002 2.3210001 9
2.881 -5.5310001 2.2939999 9
2.881 -5.6490002 2.2850001 9
2.881 -5.6599998 2.2939999 9
2.8829999 -5.5479999 2.336 9
2.882 -5.513 2.3039999 9
2.882 -5.5929999 2.3099999 9
2.882 -5.5840001 2.329 9
2.881 -5.4910002 2.296 9
2.882 -5.5440001 2.3099999 9
2.882 -5.6040001 2.3150001 9
2.881 -5.5669999 2.302 9
2.8829999 -5.5029998 2.3429999 9
2.881 -5.598 2.299 9
2.8829999 -5.5089998 2.3399999 9
2.8829999 -5.506 2.352 9
2.882 -5.4899998 2.316 9
2.882 -5.5139999 2.3150001 9
2.881 -5.5279999 2.299 9
2.881 -5.6110001 2.2969999 9
2.881 -5.5770001 2.2850001 9
2.882 -5.5619998 2.326 9
2.8829999 -5.5289998 2.345 9
2.8840001 -5.4860001 2.362 9
2.882 -5.6100001 2.313 9
2.8829999 -5.5440001 2.3469999 9
2.881 -5.5760002 2.302 9
2.8840001 -5.4889998 2.359 9
2.882 -5.5310001 2.303 9
2.881 -5.6620002 2.2969999 9
2.8840001 -5.4720001 2.3699999 9
2.882 -5.5840001 2.3310001 9
2.8840001 -5.4790001 2.3640001 9
2.881 -5.5279999 2.2980001 9
2.882 -5.5539999 2.313 9
2.882 -5.539 2.3280001 9
2.8829999 -5.546 2.335 9
2.881 -5.6599998 2.2980001 9
2.8829999 -5.4959998 2.342 9
2.8829999 -5.5089998 2.332 9
2.881 -5.6849999 2.286 9
2.882 -5.506 2.3110001 9
2.881 -5.494 2.299 9
2.882 -5.5479999 2.3299999 9
2.8829999 -5.5359998 2.3380001 9
2.881 -5.5739999 2.296 9
2.881 -5.618 2.2869999 9
2.881 -5.5370002 2.289 9
2.8829999 -5.5089998 2.3540001 9
2.881 -5.651 2.2980001 9
2.881 -5.618 2.2850001 9
2.881 -5.632 2.303 9
2.8829999 -5.5279999 2.3410001 9
2.882 -5.599 2.325 9
2.881 -5.527 2.3010001 9
2.8829999 -5.5100002 2.3429999 9
2.8829999 -5.4899998 2.3299999 9
2.882 -5.5380001 2.3080001 9
2.881 -5.599 2.2850001 9
2.8829999 -5.5339999 2.332 9
2.881 -5.6669998 2.286 9
2.881 -5.5430002 2.2909999 9
2.8829999 -5.5209999 2.3329999 9
2.882 -5.5089998 2.323 9
2.881 -5.6090002 2.303 9
2.882 -5.5830002 2.3210001 9
2.882 -5.5770001 2.309 9
2.882 -5.5170002 2.3280001 9
2.882 -5.5780001 2.3269999 9
2.882 -5.4790001 2.3269999 9
2.881 -5.5710001 2.3050001 9
2.882 -5.592 2.3299999 9
2.881 -5.6680002 2.29 9
2.881 -5.566 2.2980001 9
2.882 -5.5890002 2.319 9
2.881 -5.6269999 2.302 9
2.8829999 -5.5 2.3440001 9
2.881 -5.526 2.299 9
2.881 -5.5929999 2.303 9
2.8829999 -5.4949999 2.332 9
2.881 -5.5320001 2.2969999 9
2.882 -5.5209999 2.323 9
2.881 -5.5339999 2.2850001 9
2.882 -5.598 2.3110001 9
2.8829999 -5.474 2.3540001 9
2.881 -5.6360002 2.303 9
2.881 -5.6399999 2.3069999 9
2.8840001 -5.4840002 2.3710001 9
2.882 -5.5739999 2.325 9
2.8829999 -5.5229998 2.3499999 9
2.882 -5.5749998 2.3280001 9
2.881 -5.5279999 2.289 9
2.8829999 -5.5209999 2.332 9
2.881 -5.6999998 2.2850001 9
2.8829999 -5.132 2.2869999 9
2.8829999 -5.2610002 2.313 9
2.8840001 -5.039 2.3 9
2.8829999 -5.461 2.3340001 9
2.882 -5.3969998 2.306 9
2.8840001 -5.3579998 2.3610001 9
2.882 -5.3920002 2.299 9
2.8840001 -5.1500001 2.3199999 9
2.8840001 -5.152 2.302 9
2.882 -5.4749999 2.319 9
2.8840001 -5.1760001 2.303 9
2.8840001 -5.2989998 2.332 9
2.8840001 -5.3249998 2.3369999 9
2.882 -5.3559999 2.302 9
2.881 -5.4629998 2.286 9
2.8840001 -5.0219998 2.2980001 9
2.882 -5.3150001 2.2950001 9
2.8840001 -5.2930002 2.3440001 9
2.882 -5.4050002 2.3039999 9
2.8840001 -5.0749998 2.3010001 9
2.8840001 -5.2410002 2.3369999 9
2.8840001 -4.9819999 2.29 9
2.8840001 -5.1020002 2.3010001 9
2.8829999 -5.2160001 2.293 9
2.882 -5.4780002 2.3150001 9
2.8840001 -4.9990001 2.29 9
2.881 -5.4770002 2.286 9
2.8829999 -5.4390001 2.3329999 9
2.8840001 -5.2610002 2.3310001 9
2.8840001 -5.1719999 2.3099999 9
2.8840001 -4.9899998 2.293 9
2.8840001 -5.0549998 2.306 9
2.8829999 -5.3839998 2.3239999 9
2.8829999 -5.3210001 2.306 9
2.8840001 -5.3829999 2.339 9
2.8840001 -5.4559999 2.378 9
2.8840001 -5.3660002 2.3380001 9
2.8829999 -5.27 2.303 9
2.8840001 -5.0830002 2.2880001 9
2.8829999 -5.408 2.3280001 9
2.8840001 -5.0879998 2.2939999 9
2.882 -5.4689999 2.302 9
2.8829999 -5.4180002 2.3429999 9
2.8840001 -5.3530002 2.3399999 9
2.8829999 -5.3829999 2.313 9
2.8829999 -5.3119998 2.322 9
2.8840001 -5.0209999 2.2909999 9
2.8840001 -5.0510001 2.303 9
2.8829999 -5.4689999 2.336 9
2.882 -5.335 2.2939999 9
2.881 -5.473 2.2980001 9
2.8829999 -5.2610002 2.303 9
2.8840001 -5.3449998 2.3510001 9
2.8840001 -5.4089999 2.3510001 9
2.8840001 -5.27 2.3329999 9
2.8840001 -5.4419999 2.3529999 9
2.8829999 -5.2550001 2.3099999 9
2.8840001 -5.2449999 2.3299999 9
2.882 -5.3520002 2.2880001 9
2.882 -5.46 2.312 9
2.8829999 -5.4580002 2.3329999 9
2.882 -5.3470001 2.293 9
2.8840001 -5.0739999 2.2920001 9
2.8829999 -5.2189999 2.2939999 9
2.8829999 -5.454 2.3239999 9
2.8829999 -5.3559999 2.3180001 9
2.881 -5.4380002 2.2869999 9
2.8840001 -5.2360001 2.3299999 9
2.8829999 -5.2600002 2.3080001 9
2.8829999 -5.1939998 2.289 9
2.8829999 -5.244 2.303 9
2.8840001 -4.9489999 2.2850001 9
2.8840001 -5.2049999 2.326 9
2.8829999 -5.2340002 2.286 9
2.8840001 -5.362 2.362 9
2.882 -5.388 2.29 9
2.8829999 -5.4710002 2.3269999 9
2.8840001 -5.4559999 2.3610001 9
2.8840001 -5.1669998 2.3150001 9
2.8829999 -5.381 2.3210001 9
2.8829999 -5.2179999 2.2880001 9
2.8829999 -5.1950002 2.2869999 9
2.882 -5.4759998 2.3099999 9
2.8840001 -5.131 2.3010001 9
2.8840001 -5.1240001 2.3069999 9
2.8829999 -5.2360001 2.3010001 9
2.8840001 -5.0110002 2.2969999 9
2.8840001 -5.1919999 2.3099999 9
2.881 -5.4569998 2.2869999 9
2.8840001 -5.3639998 2.3499999 9
2.8829999 -5.336 2.3110001 9
2.8840001 -4.9460001 2.286 9
2.882 -5.4359999 2.3199999 9
2.8829999 -5.461 2.3299999 9
2.8840001 -5.3000002 2.3329999 9
2.8829999 -5.3309999 2.3080001 9
2.881 -5.4780002 2.2850001 9
2.8840001 -5.2810001 2.346 9
2.8840001 -5.4619999 2.372 9
2.8840001 -5.119 2.2950001 9
2.8840001 -5.4250002 2.348 9
2.8829999 -5.3740001 2.3199999 9
2.8840001 -5.243 2.3180001 9
2.8829999 -5.27 2.2950001 9
2.8829999 -5.2690001 2.3010001 9
2.882 -5.4679999 2.3139999 9
2.881 -5.4759998 2.2909999 9
2.882 -5.395 2.2920001 9
2.881 -5.4299998 2.286 9
2.882 -5.4159999 2.2939999 9
2.882 -5.4460001 2.309 9
2.8840001 -5.1350002 2.296 9
2.8840001 -4.9819999 2.2939999 9
2.8840001 -5.2360001 2.322 9
2.8829999 -5.428 2.3469999 9
2.8829999 -5.3600001 2.309 9
2.8829999 -5.3470001 2.3069999 9
2.8829999 -5.3080001 2.3210001 9
2.8829999 -5.4169998 2.3329999 9
2.8840001 -5.1440001 2.316 9
2.8840001 -5.375 2.345 9
2.8840001 -5.4390001 2.365 9
2.8840001 -5.1589999 2.3 9
2.8829999 -5.3759999 2.3299999 9
2.8840001 -5.1859999 2.322 9
2.8829999 -5.289 2.303 9
2.8829999 -5.2090001 2.3039999 9
2.8840001 -5.2490001 2.3380001 9
2.8840001 -5.381 2.339 9
2.8829999 -5.342 2.3239999 9
2.882 -5.302 2.2850001 9
2.8829999 -5.1490002 2.2920001 9
2.8840001 -5.3969998 2.3570001 9
2.8829999 -5.4349999 2.322 9
2.8840001 -5.0079999 2.289 9
2.8840001 -5.4349999 2.375 9
2.882 -5.4180002 2.2939999 9
2.882 -5.4520001 2.3169999 9
2.8840001 -5.152 2.3180001 9
2.8840001 -4.993 2.286 9
2.8840001 -5.119 2.2980001 9
2.8840001 -5.3769999 2.3499999 9
2.8840001 -5.2600002 2.3239999 9
2.8829999 -5.2420001 2.309 9
2.8829999 -5.2709999 2.2920001 9
2.8840001 -5.0500002 2.293 9
2.8840001 -5.033 2.302 9
2.8829999 -5.3319998 2.3169999 9
2.8840001 -5.4159999 2.3599999 9
2.8840001 -5.1490002 2.312 9
2.8829999 -5.2459998 2.3069999 9
2.8840001 -5.3670001 2.336 9
2.882 -5.4330001 2.2950001 9
2.8829999 -5.3060002 2.3169999 9
2.8840001 -5.0380001 2.2980001 9
2.8840001 -5.0320001 2.302 9
2.8840001 -5.1859999 2.325 9
2.8840001 -5.0770001 2.303 9
2.8829999 -5.3119998 2.3239999 9
2.8840001 -5.2989998 2.339 9
2.8829999 -5.375 2.3269999 9
2.8829999 -5.348 2.3199999 9
2.882 -5.4450002 2.3150001 9
2.8840001 -5.3010001 2.3440001 9
2.8829999 -5.2600002 2.312 9
2.8840001 -5.375 2.3599999 9
2.882 -5.3509998 2.299 9
2.8840001 -5.3969998 2.346 9
2.882 -5.4780002 2.3169999 9
2.8840001 -5.0180001 2.286 9
2.8829999 -5.1869998 2.2969999 9
2.8840001 -5.243 2.3380001 9
2.8840001 -5.178 2.3269999 9
2.8840001 -5.244 2.3239999 9
2.8829999 -5.2810001 2.316 9
2.8829999 -5.348 2.332 9
2.8840001 -5.2639999 2.322 9
2.8840001 -5.348 2.336 9
2.882 -5.3470001 2.3010001 9
2.8829999 -5.1929998 2.303 9
2.882 -5.4520001 2.3210001 9
2.8840001 -5.1500001 2.312 9
2.881 -5.4520001 2.2909999 9
2.8829999 -5.4180002 2.326 9
2.8840001 -5.46 2.365 9
2.882 -5.3889999 2.3099999 9
2.881 -5.4369998 2.2850001 9
2.882 -5.3969998 2.3080001 9
2.8829999 -5.414 2.3310001 9
2.8840001 -5.112 2.306 9
2.8840001 -5.4640002 2.3789999 9
2.8840001 -5.3649998 2.3529999 9
2.8840001 -5.3130002 2.336 9
2.8829999 -5.335 2.322 9
2.8829999 -5.3610001 2.3069999 9
2.8840001 -5.3759999 2.3499999 9
2.8840001 -5.2389998 2.339 9
2.8840001 -5.2030001 2.3329999 9
2.8840001 -5.1919999 2.306 9
2.8829999 -5.3889999 2.339 9
2.882 -5.3439999 2.2920001 9
2.8840001 -4.987 2.293 9
2.8840001 -5.2210002 2.325 9
2.8829999 -5.2979999 2.3139999 9
2.8829999 -5.4679999 2.348 9
2.882 -5.3000002 2.2869999 9
2.8840001 -5.4349999 2.375 9
2.8840001 -5.0760002 2.2869999 9
2.8840001 -5.2069998 2.3210001 9
2.8840001 -5.3200002 2.3510001 9
2.8829999 -5.2290001 2.2920001 9
2.8829999 -5.2340002 2.2869999 9
2.882 -5.427 2.302 9
2.882 -5.3189998 2.296 9
2.882 -5.4089999 2.2939999 9
2.8840001 -5.3439999 2.3559999 9
2.881 -5.4860001 2.2850001 9
2.8840001 -5.4450002 2.3729999 9
2.8829999 -5.4109998 2.3410001 9
2.8840001 -5.4250002 2.359 9
2.882 -5.4200001 2.2909999 9
2.8840001 -5.3449998 2.352 9
2.8840001 -5.23 2.322 9
2.8829999 -5.2519999 2.2980001 9
2.8840001 -5.053 2.3 9
2.8829999 -5.369 2.312 9
2.881 -5.4710002 2.293 9
2.8840001 -5.3319998 2.3559999 9
2.8840001 -5.1389999 2.313 9
2.8840001 -5.2690001 2.335 9
2.8829999 -5.427 2.3469999 9
2.882 -5.4429998 2.2969999 9
2.882 -5.3109999 2.2850001 9
2.8840001 -5.145 2.2969999 9
2.8829999 -5.4569998 2.3380001 9
2.882 -5.4590001 2.3099999 9
2.8840001 -4.9910002 2.2920001 9
2.8840001 -5.415 2.346 9
2.8829999 -5.4530001 2.3469999 9
2.8840001 -5.079 2.3099999 9
2.882 -5.4569998 2.306 9
2.8840001 -5.448 2.3610001 9
2.8840001 -5.3940001 2.348 9
2.8829999 -5.2319999 2.29 9
2.8840001 -4.9840002 2.2869999 9
2.8840001 -5.1399999 2.3199999 9
2.8840001 -5.4460001 2.3540001 9
2.8840001 -5.2880001 2.3440001 9
2.882 -5.3260002 2.2920001 9
2.8829999 -5.2620001 2.3080001 9
2.8840001 -5.0619998 2.2980001 9
2.8829999 -5.4419999 2.349 9
2.881 -5.434 2.289 9
2.8829999 -5.3660002 2.312 9
2.882 -5.4749999 2.3269999 9
2.881 -5.4559999 2.2850001 9
2.8840001 -5.191 2.3180001 9
2.8829999 -5.3639998 2.309 9
2.8829999 -5.2519999 2.309 9
2.882 -5.3340001 2.296 9
2.8840001 -4.9840002 2.2950001 9
2.8840001 -5.2470002 2.3369999 9
2.8829999 -5.4499998 2.3239999 9
2.882 -5.4640002 2.2969999 9
2.8829999 -5.3979998 2.322 9
2.8829999 -5.2290001 2.299 9
2.882 -5.302 2.2920001 9
2.881 -5.4790001 2.2980001 9
2.8840001 -5.0500002 2.3150001 9
2.8840001 -5.2389998 2.365 9
2.8829999 -4.941 2.355 9
2.8840001 -5.1059999 2.349 9
2.8840001 -5.0100002 2.322 9
2.8840001 -4.9400001 2.3169999 9
2.8840001 -5.3150001 2.3740001 9
2.8840001 -5.3610001 2.3800001 9
2.8840001 -5.2690001 2.3800001 9
2.8840001 -5.3119998 2.369 9
2.8840001 -4.9380002 2.335 9
2.8840001 -5.2740002 2.3729999 9
2.8840001 -5.1100001 2.3670001 9
2.8840001 -5.0100002 2.336 9
2.8840001 -4.9400001 2.316 9
2.8840001 -5.0100002 2.3110001 9
2.8840001 -5.1820002 2.336 9
2.8840001 -5.2049999 2.375 9
2.8840001 -5.086 2.3169999 9
2.8840001 -5.098 2.3559999 9
2.8840001 -5.1300001 2.3729999 9
2.8840001 -5.2259998 2.342 9
2.8840001 -5.1399999 2.3800001 9
2.8840001 -5.0539999 2.335 9
2.8840001 -5.3130002 2.368 9
2.8840001 -5.1950002 2.342 9
2.8840001 -4.9219999 2.3299999 9
2.8840001 -5.2880001 2.358 9
2.8840001 -5.125 2.3629999 9
2.8840001 -5.112 2.3640001 9
2.8840001 -5.244 2.3599999 9
2.8840001 -5.1259999 2.3239999 9
2.8840001 -5.0609999 2.3610001 9
2.8840001 -5.085 2.335 9
2.8840001 -5.3239999 2.3759999 9
2.8829999 -4.961 2.3659999 9
2.8840001 -5.0100002 2.329 9
2.8840001 -5.277 2.369 9
2.8840001 -5.02 2.309 9
2.8840001 -4.9050002 2.286 9
2.8840001 -5.1799998 2.365 9
2.8840001 -4.9359999 2.293 9
2.8840001 -5.2529998 2.3699999 9
2.8840001 -5.0479999 2.3199999 9
2.8840001 -4.9699998 2.303 9
2.8840001 -5.0159998 2.3369999 9
2.8840001 -5.2049999 2.3629999 9
2.8840001 -4.9749999 2.3199999 9
2.885 -5.447 2.3800001 9
2.8840001 -5.0190001 2.3570001 9
2.8829999 -4.9450002 2.359 9
2.8840001 -5.086 2.3410001 9
2.8840001 -5.2080002 2.3369999 9
2.8840001 -5.0339999 2.3510001 9
2.8840001 -5.2259998 2.362 9
2.8840001 -5.0840001 2.3699999 9
2.8840001 -4.9699998 2.3180001 9
2.8840001 -5.2319999 2.372 9
2.8840001 -5.0310001 2.326 9
2.8829999 -5.0710001 2.3699999 9
2.8840001 -5.2909999 2.3710001 9
2.8840001 -5.0149999 2.349 9
2.8840001 -5.0100002 2.345 9
2.8840001 -4.9289999 2.2939999 9
2.8840001 -5.2290001 2.3789999 9
2.8840001 -4.921 2.3039999 9
2.8840001 -5.0970001 2.3570001 9
2.8840001 -5.007 2.3180001 9
2.8840001 -5.086 2.369 9
2.8829999 -5.02 2.3729999 9
2.8840001 -5.0159998 2.3099999 9
2.8840001 -4.9089999 2.3099999 9
2.8840001 -5.362 2.3789999 9
2.8840001 -5.165 2.352 9
2.8840001 -5.2529998 2.3640001 9
2.8840001 -5.3990002 2.3729999 9
2.8840001 -4.908 2.303 9
2.8840001 -5.296 2.378 9
2.8840001 -5.2449999 2.346 9
2.8840001 -5.1040001 2.3610001 9
2.8840001 -5.0500002 2.3069999 9
2.8829999 -4.9790001 2.3659999 9
2.8840001 -5.1750002 2.3429999 9
2.8840001 -5.0430002 2.316 9
2.8840001 -5.026 2.346 9
2.8840001 -4.9650002 2.3150001 9
2.8829999 -5.0890002 2.3800001 9
2.8840001 -5.21 2.3759999 9
2.8840001 -5.2529998 2.381 9
2.8840001 -5.211 2.3789999 9
2.8840001 -5.237 2.3740001 9
2.8840001 -4.9590001 2.296 9
2.8840001 -5.3060002 2.372 9
2.8840001 -5.217 2.348 9
2.8840001 -5.2129998 2.3469999 9
2.8840001 -4.8990002 2.2980001 9
2.8840001 -4.9219999 2.293 9
2.8840001 -4.993 2.3329999 9
2.8829999 -5.079 2.3729999 9
2.8829999 -5.0110002 2.3770001 9
2.8840001 -4.915 2.2939999 9
2.8840001 -5.1760001 2.3510001 9
2.8840001 -4.9949999 2.3429999 9
2.8840001 -4.9260001 2.286 9
2.8840001 -4.9829998 2.3369999 9
2.8840001 -5.3119998 2.3570001 9
2.8840001 -4.921 2.312 9
2.8840001 -5.2199998 2.3410001 9
2.8840001 -5.1329999 2.335 9
2.8840001 -5.0710001 2.342 9
2.8829999 -4.9959998 2.359 9
2.8829999 -4.9569998 2.3570001 9
2.8840001 -5.1069999 2.375 9
2.8829999 -4.9640002 2.3510001 9
2.8840001 -5.0510001 2.3280001 9
2.8840001 -5.0019999 2.3529999 9
2.8840001 -5.1620002 2.3529999 9
2.8840001 -5.2909999 2.3759999 9
2.8840001 -5.0219998 2.326 9
2.8840001 -5.2059999 2.381 9
2.8840001 -4.9759998 2.349 9
2.8840001 -4.9720001 2.316 9
2.8840001 -4.993 2.3529999 9
2.8840001 -5.171 2.3329999 9
2.8840001 -5.4099998 2.3740001 9
2.8840001 -5.0770001 2.3340001 9
2.8840001 -5.1869998 2.375 9
2.8840001 -5.2480001 2.3559999 9
2.8840001 -5.1560001 2.378 9
2.8840001 -5.0650001 2.3399999 9
2.8840001 -5.2480001 2.3640001 9
2.8840001 -4.9109998 2.3 9
2.8840001 -4.9809999 2.336 9
2.8829999 -5.0890002 2.378 9
2.8829999 -5.0029998 2.3659999 9
2.8840001 -5.1040001 2.3529999 9
2.8840001 -5.2740002 2.3640001 9
2.8840001 -5.1849999 2.3770001 9
2.8840001 -5.0999999 2.3169999 9
2.8840001 -5.0419998 2.3099999 9
2.8840001 -5.3210001 2.3670001 9
2.8840001 -5.0469999 2.3610001 9
2.8840001 -5.1620002 2.3269999 9
2.8840001 -5.1929998 2.3329999 9
2.8840001 -5.2600002 2.3659999 9
2.8840001 -5.039 2.335 9
2.8840001 -4.9749999 2.293 9
2.8840001 -5.3870001 2.381 9
2.8840001 -4.961 2.323 9
2.8840001 -4.9310002 2.322 9
2.8840001 -5.0479999 2.3599999 9
2.8840001 -5.3870001 2.3789999 9
2.8840001 -5.0089998 2.3150001 9
2.8840001 -5.0469999 2.3410001 9
2.8840001 -5.1090002 2.3199999 9
2.8840001 -5.323 2.3629999 9
2.8829999 -4.9650002 2.3510001 9
2.8840001 -5.1469998 2.342 9
2.8840001 -5.3639998 2.3710001 9
2.8840001 -5.2290001 2.349 9
2.8840001 -5.3109999 2.3670001 9
2.8840001 -5.1799998 2.3729999 9
2.8840001 -5.131 2.3299999 9
2.8840001 -5.0159998 2.3540001 9
2.8840001 -4.9920001 2.3269999 9
2.8840001 -5.0190001 2.346 9
2.8840001 -5.1440001 2.3369999 9
2.8840001 -5.1609998 2.3540001 9
2.8840001 -4.9320002 2.313 9
2.8840001 -5.2779999 2.378 9
2.8840001 -5.0019999 2.3050001 9
2.8840001 -4.9689999 2.3369999 9
2.8840001 -5.2719998 2.359 9
2.8840001 -5.198 2.359 9
2.8840001 -5.1999998 2.352 9
2.8840001 -5.1269999 2.3789999 9
2.8840001 -5.1199999 2.3559999 9
2.8840001 -5.0819998 2.3399999 9
2.8840001 -5.1880002 2.362 9
2.8840001 -5.1989999 2.3710001 9
2.8829999 -5.0999999 2.3759999 9
2.8840001 -5.1139998 2.3410001 9
2.8840001 -5.198 2.3440001 9
2.8840001 -5.2789998 2.3699999 9
2.8840001 -5.0089998 2.3139999 9
2.8840001 -4.994 2.349 9
2.8840001 -5.145 2.332 9
2.8840001 -4.9330001 2.3080001 9
2.8840001 -4.9829998 2.2969999 9
2.8840001 -4.9400001 2.309 9
2.8840001 -5.1739998 2.378 9
2.8829999 -4.9920001 2.3800001 9
2.8840001 -4.9710002 2.2980001 9
2.8829999 -4.9759998 2.359 9
2.8840001 -5.046 2.348 9
2.8840001 -5.3720002 2.372 9
2.8840001 -5.0489998 2.349 9
2.8829999 -4.9580002 2.349 9
2.8840001 -5.0320001 2.3210001 9
2.8840001 -4.9549999 2.3180001 9
2.8840001 -5.039 2.3110001 9
2.8840001 -5.1030002 2.319 9
2.8840001 -5.2160001 2.3499999 9
2.8840001 -5.0819998 2.3150001 9
2.8840001 -5.165 2.3440001 9
2.8840001 -5.4089999 2.378 9
2.8840001 -5.0079999 2.309 9
2.8840001 -5.3049998 2.3670001 9
2.8840001 -5.1849999 2.352 9
2.8840001 -5.119 2.372 9
2.8840001 -5.0250001 2.322 9
2.8840001 -5.1869998 2.369 9
2.8829999 -5.1100001 2.3770001 9
2.8840001 -5.3049998 2.3599999 9
2.8840001 -5.1110001 2.3380001 9
2.8840001 -5.2690001 2.372 9
2.8840001 -5.1009998 2.3239999 9
2.8840001 -5.21 2.375 9
2.8840001 -4.9629998 2.3380001 9
2.8840001 -5.0819998 2.3280001 9
2.8840001 -5.224 2.346 9
2.8829999 -5.0289998 2.369 9
2.8840001 -5.3779998 2.372 9
2.8829999 -4.948 2.355 9
2.8840001 -5 2.3499999 9
2.8840001 -5.2020001 2.355 9
2.8840001 -5.158 2.332 9
2.8840001 -5.165 2.372 9
2.8840001 -5.105 2.3380001 9
2.8840001 -5.0100002 2.323 9
2.8840001 -5.2329998 2.362 9
2.8840001 -5.2909999 2.3729999 9
2.8840001 -4.9310002 2.3199999 9
2.8840001 -5.0450001 2.345 9
2.8840001 -5.2750001 2.372 9
2.8829999 -5.0570002 2.3740001 9
2.8840001 -5.1659999 2.378 9
2.8829999 -5.0170002 2.3629999 9
2.8840001 -5.4130001 2.3800001 9
2.8840001 -5.1630001 2.3429999 9
2.8829999 -5.0079999 2.3789999 9
2.8840001 -5.1409998 2.3269999 9
2.8840001 -5.0139999 2.3499999 9
2.8840001 -4.9200001 2.29 9
2.8840001 -5.4000001 2.3740001 9
2.8840001 -4.9910002 2.3010001 9
2.8840001 -5.2069998 2.365 9
2.8829999 -5.0560002 2.381 9
2.8840001 -4.9580002 2.303 9
2.8840001 -5.0079999 2.302 9
2.8829999 -5.0650001 2.378 9
2.8840001 -5.0539999 2.3369999 9
2.8840001 -5.191 2.3699999 9
2.8829999 -5.013 2.3610001 9
2.8840001 -4.9780002 2.348 9
2.8840001 -5.2399998 2.349 9
2.8840001 -5.1230001 2.3759999 9
2.8840001 -5.1090002 2.3469999 9
2.8840001 -5.1110001 2.3640001 9
2.8840001 -5.0289998 2.345 9
2.8840001 -5.1149998 2.3740001 9
2.8840001 -4.7930002 2.322 9
2.8840001 -4.902 2.3239999 9
2.8840001 -4.8670001 2.325 9
2.8840001 -4.8759999 2.332 9
2.8840001 -4.8829999 2.323 9
2.8840001 -4.835 2.29 9
2.8840001 -4.7919998 2.313 9
2.8840001 -4.7659998 2.299 9
2.8840001 -4.7329998 2.3080001 9
2.8840001 -4.8559999 2.2950001 9
2.8840001 -4.915 2.339 9
2.8840001 -4.8660002 2.289 9
2.8829999 -4.9109998 2.349 9
2.8840001 -4.8439999 2.3269999 9
2.8840001 -4.882 2.3 9
2.8840001 -4.8330002 2.3169999 9
2.8840001 -4.7270002 2.286 9
2.8829999 -4.8340001 2.346 9
2.8840001 -4.7870002 2.3239999 9
2.8840001 -4.7210002 2.299 9
2.8840001 -4.6529999 2.2980001 9
2.8829999 -4.8070002 2.3340001 9
2.8829999 -4.8889999 2.352 9
2.8840001 -4.8340001 2.3329999 9
2.8829999 -4.8790002 2.346 9
2.8829999 -4.8049998 2.335 9
2.8829999 -4.8540001 2.345 9
2.8829999 -4.8449998 2.345 9
2.8840001 -4.7709999 2.293 9
2.8840001 -4.9109998 2.3299999 9
2.8840001 -4.8590002 2.2880001 9
2.8840001 -4.8590002 2.319 9
2.8840001 -4.7810001 2.289 9
2.8840001 -4.7160001 2.3039999 9
2.8840001 -4.7849998 2.322 9
2.8829999 -4.855 2.3429999 9
2.8829999 -4.9089999 2.358 9
2.8840001 -4.8740001 2.329 9
2.8840001 -4.8860002 2.306 9
2.8840001 -4.8720002 2.2909999 9
2.8829999 -4.8449998 2.3440001 9
2.8840001 -4.8610001 2.332 9
2.8840001 -4.6279998 2.29 9
2.8829999 -4.8720002 2.349 9
2.8840001 -4.8790002 2.3139999 9
2.8840001 -4.908 2.3369999 9
2.8840001 -4.665 2.289 9
2.8840001 -4.7620001 2.2920001 9
2.8829999 -4.8909998 2.348 9
2.8840001 -4.7810001 2.2909999 9
2.8840001 -4.8829999 2.3150001 9
2.8829999 -4.7859998 2.332 9
2.8840001 -4.8039999 2.309 9
2.8840001 -4.783 2.3010001 9
2.8840001 -4.8000002 2.322 9
2.8840001 -4.6849999 2.2909999 9
2.8829999 -4.9169998 2.355 9
2.8840001 -4.8439999 2.3269999 9
2.8840001 -4.816 2.3310001 9
2.8840001 -4.796 2.3010001 9
2.8840001 -4.8930001 2.3199999 9
2.8840001 -4.848 2.296 9
2.8840001 -4.7779999 2.3210001 9
2.8840001 -4.7800002 2.2980001 9
2.8840001 -4.809 2.3080001 9
2.8829999 -4.8850002 2.3559999 9
2.8840001 -4.6009998 2.2850001 9
2.8840001 -4.881 2.336 9
2.8840001 -4.6919999 2.309 9
2.8840001 -4.7690001 2.3180001 9
2.8840001 -4.743 2.309 9
2.8840001 -4.711 2.3069999 9
2.8840001 -4.8509998 2.3080001 9
2.8840001 -4.7600002 2.313 9
2.8840001 -4.8499999 2.289 9
2.8829999 -4.8130002 2.342 9
2.8840001 -4.8309999 2.3180001 9
2.8829999 -4.8889999 2.346 9
2.8840001 -4.6760001 2.3 9
2.8829999 -4.9200001 2.3610001 9
2.8840001 -4.7119999 2.2909999 9
2.8840001 -4.8169999 2.332 9
2.8840001 -4.8130002 2.309 9
2.8840001 -4.8759999 2.3199999 9
2.8840001 -4.658 2.293 9
2.8840001 -4.8889999 2.3269999 9
2.8840001 -4.8759999 2.3340001 9
2.8840001 -4.8829999 2.2920001 9
2.8829999 -4.9190001 2.3529999 9
2.8840001 -4.849 2.29 9
2.8840001 -4.835 2.3210001 9
2.8840001 -4.652 2.289 9
2.8840001 -4.8740001 2.3099999 9
2.8840001 -4.8699999 2.3310001 9
2.8840001 -4.8179998 2.3269999 9
2.8829999 -4.8870001 2.355 9
2.8840001 -4.7199998 2.312 9
2.8840001 -4.8449998 2.2920001 9
2.8840001 -4.8600001 2.319 9
2.8840001 -4.756 2.2920001 9
2.8840001 -4.7509999 2.3039999 9
2.8840001 -4.7979999 2.3139999 9
2.8840001 -4.8720002 2.306 9
2.8840001 -4.704 2.3099999 9
2.8840001 -4.6700001 2.2880001 9
2.8840001 -4.7620001 2.3050001 9
2.8829999 -4.8850002 2.3399999 9
2.8840001 -4.8049998 2.3139999 9
2.8829999 -4.8899999 2.349 9
2.8840001 -4.8379998 2.326 9
2.8840001 -4.684 2.3069999 9
2.8829999 -4.9159999 2.3570001 9
2.8840001 -4.7080002 2.2980001 9
2.8840001 -4.7909999 2.3 9
2.8840001 -4.7049999 2.2920001 9
2.8840001 -4.757 2.2880001 9
2.8840001 -4.8579998 2.3099999 9
2.8840001 -4.6539998 2.3 9
2.8840001 -4.7839999 2.306 9
2.8840001 -4.6960001 2.303 9
2.8829999 -4.842 2.335 9
2.8840001 -4.7680001 2.326 9
2.8840001 -4.802 2.3169999 9
2.8840001 -4.7360001 2.2950001 9
2.8840001 -4.777 2.312 9
2.8840001 -4.8759999 2.2980001 9
2.8840001 -4.7550001 2.313 9
2.8829999 -4.9499998 2.3740001 9
2.8840001 -4.711 2.2920001 9
2.8840001 -4.7589998 2.3099999 9
2.8840001 -4.7189999 2.303 9
2.8840001 -4.8540001 2.3110001 9
2.8840001 -4.8709998 2.2850001 9
2.8840001 -4.7620001 2.3050001 9
2.8829999 -4.8179998 2.339 9
2.8840001 -4.7670002 2.2980001 9
2.8870001 -4.27 2.3729999 9
2.8840001 -4.671 2.362 9
2.885 -4.4460001 2.309 9
2.885 -4.5 2.3310001 9
2.885 -4.5669999 2.319 9
2.8859999 -4.3940001 2.362 9
2.885 -4.4959998 2.3340001 9
2.8870001 -4.2420001 2.335 9
2.8840001 -4.6020002 2.3139999 9
