# .PCD v0.7 - Point Cloud Data file format
VERSION 0.7
FIELDS x y z label
SIZE 4 4 4 4
TYPE F F F U
COUNT 1 1 1 1
WIDTH 1618
HEIGHT 1
VIEWPOINT 0 0 0 1 0 0 0
POINTS 1618
DATA ascii
6.948 -5.4860001 2.717 9
6.9400001 -5.4899998 2.7119999 9
6.9840002 -5.4699998 2.7409999 9
6.9619999 -5.4809999 2.7379999 9
6.9629998 -5.4829998 2.7650001 9
6.9640002 -5.4780002 2.7160001 9
6.974 -5.473 2.717 9
6.9450002 -5.4879999 2.721 9
6.9629998 -5.4770002 2.7090001 9
6.9310002 -5.4949999 2.717 9
7.0440001 -5.4359999 2.727 9
7.0289998 -5.4439998 2.7219999 9
6.993 -5.4650002 2.747 9
6.9759998 -5.474 2.7479999 9
7.0180001 -5.4499998 2.7309999 9
6.9889998 -5.4650002 2.727 9
6.8969998 -5.5110002 2.691 9
6.9980001 -5.46 2.72 9
6.9629998 -5.4780002 2.717 9
6.9829998 -5.4710002 2.7460001 9
7 -5.4590001 2.72 9
7.0250001 -5.4460001 2.7249999 9
6.9450002 -5.4910002 2.743 9
7.0300002 -5.4429998 2.7249999 9
7.0170002 -5.4520001 2.74 9
6.9239998 -5.4980001 2.7090001 9
7.0009999 -5.461 2.7449999 9
6.9349999 -5.4920001 2.7019999 9
6.9229999 -5.4980001 2.7049999 9
6.948 -5.487 2.7290001 9
6.947 -5.4889998 2.74 9
6.9580002 -5.4819999 2.7219999 9
6.9489999 -5.4860001 2.7190001 9
7.0100002 -5.4559999 2.74 9
6.9369998 -5.4910002 2.701 9
6.9169998 -5.5019999 2.7079999 9
6.9990001 -5.461 2.7320001 9
6.9809999 -5.4710002 2.7360001 9
6.9580002 -5.48 2.707 9
6.9790001 -5.4720001 2.7409999 9
6.9239998 -5.4990001 2.7149999 9
6.9159999 -5.5029998 2.7119999 9
6.961 -5.4819999 2.74 9
6.9879999 -5.4679999 2.7479999 9
7.0250001 -5.447 2.7279999 9
6.9239998 -5.4990001 2.7160001 9
7.0019999 -5.46 2.743 9
6.9530001 -5.487 2.7550001 9
7.0219998 -5.448 2.7309999 9
6.9949999 -5.4629998 2.7320001 9
6.9650002 -5.4809999 2.7490001 9
7.0089998 -5.4549999 2.7249999 9
6.973 -5.473 2.7160001 9
7.0019999 -5.4580002 2.7260001 9
6.9710002 -5.4759998 2.734 9
6.9619999 -5.4910002 2.5039999 9
7.052 -5.4320002 2.579 9
7.026 -5.4489999 2.5829999 9
7.0539999 -5.4310002 2.619 9
7.0339999 -5.4439998 2.6619999 9
6.9970002 -5.4679999 2.5480001 9
7.0500002 -5.4330001 2.658 9
7.013 -5.4580002 2.5120001 9
7.0560002 -5.4299998 2.5899999 9
7.0139999 -5.4569998 2.5409999 9
7.0549998 -5.4299998 2.651 9
6.9749999 -5.4829998 2.5179999 9
6.987 -5.474 2.575 9
7.0409999 -5.4390001 2.6800001 9
7.02 -5.4530001 2.6489999 9
7.0500002 -5.4330001 2.5350001 9
7.007 -5.4619999 2.52 9
6.9689999 -5.4860001 2.5309999 9
7.0359998 -5.4419999 2.5220001 9
7.0310001 -5.4460001 2.6300001 9
7.053 -5.4320002 2.5880001 9
7.0149999 -5.4559999 2.6210001 9
7.0029998 -5.4640002 2.585 9
7.0359998 -5.4419999 2.6760001 9
7.0009999 -5.4660001 2.543 9
7.0050001 -5.4629998 2.51 9
6.993 -5.4710002 2.5239999 9
7.0489998 -5.434 2.6889999 9
7.0580001 -5.4289999 2.5739999 9
6.9829998 -5.4770002 2.5510001 9
7.0450001 -5.4369998 2.7019999 9
7.0549998 -5.4299998 2.648 9
7.0409999 -5.4390001 2.5869999 9
6.9819999 -5.4780002 2.51 9
7.0440001 -5.4369998 2.602 9
7.0440001 -5.4369998 2.6760001 9
7.0110002 -5.4590001 2.572 9
6.9889998 -5.473 2.533 9
7.007 -5.4619999 2.5480001 9
6.9650002 -5.4889998 2.507 9
7.0310001 -5.4460001 2.553 9
7.0440001 -5.4380002 2.612 9
7.0040002 -5.4640002 2.54 9
7.0570002 -5.4289999 2.618 9
7.0370002 -5.4419999 2.6259999 9
7.006 -5.4619999 2.5109999 9
6.961 -5.4920001 2.5020001 9
7.0209999 -5.4520001 2.5829999 9
7.02 -5.4530001 2.533 9
6.9879999 -5.474 2.5680001 9
7.027 -5.4489999 2.5280001 9
7.0279999 -5.448 2.539 9
6.9889998 -5.473 2.563 9
7.0279999 -5.448 2.6370001 9
6.9990001 -5.467 2.5680001 9
7.0489998 -5.434 2.5369999 9
6.9829998 -5.4770002 2.5420001 9
7.0079999 -5.461 2.543 9
7.013 -5.4569998 2.602 9
6.9990001 -5.467 2.533 9
7.0219998 -5.4520001 2.562 9
6.9850001 -5.4759998 2.569 9
7.0139999 -5.4569998 2.5829999 9
7.0489998 -5.434 2.539 9
6.9990001 -5.467 2.5669999 9
7.033 -5.4450002 2.654 9
7.0219998 -5.4520001 2.536 9
7.0570002 -5.4289999 2.5309999 9
6.9720001 -5.4840002 2.54 9
7.0279999 -5.447 2.6500001 9
7.0139999 -5.4569998 2.569 9
7.0300002 -5.4460001 2.582 9
7.0219998 -5.4520001 2.6359999 9
7.0009999 -5.4650002 2.513 9
7.0430002 -5.4380002 2.585 9
7.0120001 -5.4580002 2.612 9
7.0349998 -5.4429998 2.671 9
7.0630002 -5.4250002 2.5550001 9
7.0359998 -5.4429998 2.539 9
7.0159998 -5.4559999 2.549 9
7.0419998 -5.4390001 2.5999999 9
7.0300002 -5.4460001 2.612 9
7.059 -5.428 2.5940001 9
7.0349998 -5.4429998 2.6719999 9
7.0219998 -5.4520001 2.5369999 9
6.9749999 -5.4819999 2.5250001 9
7.046 -5.4359999 2.559 9
7.0289998 -5.447 2.6010001 9
7.0040002 -5.4629998 2.5999999 9
6.994 -5.4699998 2.585 9
7.02 -5.4530001 2.5220001 9
7.027 -5.448 2.6359999 9
7.0170002 -5.4549999 2.5179999 9
7.027 -5.4489999 2.5220001 9
6.9689999 -5.4860001 2.523 9
7.033 -5.4439998 2.655 9
7.0229998 -5.4510002 2.5780001 9
7.0510001 -5.4330001 2.556 9
7.0380001 -5.441 2.6340001 9
6.9910002 -5.4720001 2.506 9
7.0380001 -5.441 2.658 9
7.0300002 -5.447 2.5710001 9
7.0310001 -5.4460001 2.605 9
6.9699998 -5.4860001 2.5250001 9
7.0180001 -5.4549999 2.589 9
7.052 -5.4320002 2.563 9
6.9790001 -5.48 2.5150001 9
7 -5.4660001 2.5880001 9
7.0419998 -5.4390001 2.5320001 9
7.033 -5.4450002 2.6630001 9
7.033 -5.4439998 2.563 9
6.9840002 -5.4759998 2.5599999 9
7.0549998 -5.4299998 2.517 9
7.033 -5.4450002 2.5209999 9
6.9949999 -5.4699998 2.5539999 9
7.013 -5.4580002 2.5599999 9
7.059 -5.428 2.527 9
7.066 -5.4229999 2.533 9
7.066 -5.4229999 2.53 9
7.0019999 -5.4650002 2.5369999 9
7.0560002 -5.4289999 2.553 9
7.0149999 -5.4559999 2.5929999 9
7.006 -5.4619999 2.602 9
6.98 -5.4790001 2.507 9
7.046 -5.4359999 2.6429999 9
6.9850001 -5.4759998 2.53 9
7.053 -5.4320002 2.553 9
7.0440001 -5.4369998 2.7019999 9
7.0500002 -5.434 2.592 9
7.052 -5.4330001 2.5190001 9
7.0430002 -5.4380002 2.6140001 9
7.0139999 -5.4569998 2.5179999 9
7.053 -5.4320002 2.5599999 9
7.0159998 -5.4559999 2.6140001 9
7.0549998 -5.4299998 2.652 9
7.0240002 -5.4499998 2.645 9
7.0250001 -5.4499998 2.6210001 9
7.052 -5.4320002 2.527 9
7.0219998 -5.4510002 2.608 9
6.9790001 -5.48 2.5139999 9
7.0159998 -5.4549999 2.533 9
7.0139999 -5.4569998 2.608 9
6.7529998 -4.362 2.7449999 9
6.777 -4.3460002 2.717 9
6.802 -4.401 2.7449999 9
6.7360001 -4.3439999 2.7420001 9
6.7670002 -4.3449998 2.723 9
6.7919998 -4.3660002 2.724 9
6.7389998 -4.3559999 2.75 9
6.7740002 -4.3779998 2.7449999 9
6.7729998 -4.381 2.7479999 9
6.7969999 -4.3909998 2.7409999 9
6.7950001 -4.375 2.7290001 9
6.744 -4.3639998 2.7520001 9
6.8049998 -4.3860002 2.7309999 9
6.809 -4.3899999 2.7320001 9
6.7620001 -4.3709998 2.747 9
6.743 -4.355 2.7460001 9
6.7529998 -4.3369999 2.7249999 9
6.757 -4.3720002 2.7509999 9
6.7909999 -4.3790002 2.734 9
6.73 -4.3629999 2.7609999 9
6.7189999 -4.3530002 2.76 9
6.7740002 -4.3460002 2.72 9
6.7459998 -4.3660002 2.753 9
6.7649999 -4.3730001 2.7460001 9
6.7340002 -4.3629999 2.7590001 9
6.7789998 -4.349 2.7179999 9
6.7480001 -4.3649998 2.7509999 9
6.7740002 -4.3769999 2.744 9
6.77 -4.342 2.7190001 9
6.783 -4.3610001 2.7260001 9
6.7719998 -4.3779998 2.7460001 9
6.7389998 -4.355 2.7490001 9
6.7750001 -4.368 2.7360001 9
6.7350001 -4.349 2.7460001 9
6.77 -4.3579998 2.7309999 9
6.7519999 -4.3559999 2.7409999 9
6.7940001 -4.375 2.7290001 9
6.7329998 -4.3590002 2.756 9
6.723 -4.3530002 2.757 9
6.7820001 -4.355 2.7219999 9
6.8080001 -4.3930001 2.7349999 9
6.7589998 -4.362 2.7420001 9
6.7459998 -4.3460002 2.737 9
6.7740002 -4.3499999 2.7219999 9
6.757 -4.3670001 2.747 9
6.7729998 -4.3460002 2.72 9
6.737 -4.3629999 2.756 9
6.7610002 -4.381 2.7550001 9
6.8600001 -4.3639998 2.7179999 9
6.8169999 -4.3460002 2.714 9
6.8899999 -4.3730001 2.7190001 9
6.8449998 -4.3839998 2.7260001 9
6.8979998 -4.375 2.7190001 9
6.8429999 -4.3660002 2.72 9
6.8540001 -4.3629999 2.7179999 9
6.868 -4.3940001 2.7279999 9
6.7930002 -4.3530002 2.7179999 9
6.8870001 -4.381 2.7219999 9
6.8379998 -4.3870001 2.7279999 9
6.8449998 -4.355 2.7149999 9
6.8899999 -4.382 2.7219999 9
6.8119998 -4.3509998 2.7160001 9
6.822 -4.3769999 2.7249999 9
6.8319998 -4.3860002 2.7279999 9
6.796 -4.355 2.7190001 9
6.8249998 -4.408 2.737 9
6.8400002 -4.3670001 2.72 9
6.842 -4.3660002 2.72 9
6.8790002 -4.3709998 2.7190001 9
6.8870001 -4.3720002 2.7190001 9
6.8390002 -4.4039998 2.734 9
6.8319998 -4.349 2.714 9
6.8590002 -4.3909998 2.7279999 9
6.829 -4.368 2.721 9
6.8239999 -4.3740001 2.724 9
6.8260002 -4.3909998 2.73 9
6.8579998 -4.3579998 2.7149999 9
6.8260002 -4.3930001 2.7309999 9
6.8569999 -4.3899999 2.7279999 9
6.8610001 -4.3930001 2.7279999 9
6.842 -4.3649998 2.7190001 9
6.8470001 -4.395 2.73 9
6.8010001 -4.342 2.7130001 9
6.7989998 -4.3520002 2.717 9
6.9000001 -4.3720002 2.7179999 9
6.8410001 -4.3559999 2.7160001 9
6.8860002 -4.3800001 2.7219999 9
6.8410001 -4.355 2.7160001 9
6.8649998 -4.3670001 2.7179999 9
6.8280001 -4.3969998 2.7320001 9
6.783 -4.335 2.7119999 9
6.8340001 -4.3639998 2.72 9
6.822 -4.3889999 2.73 9
6.8189998 -4.3759999 2.7249999 9
6.7979999 -4.3600001 2.72 9
6.8639998 -4.381 2.724 9
6.8010001 -4.3499999 2.717 9
6.802 -4.369 2.724 9
6.8060002 -4.3520002 2.717 9
6.8800001 -4.4120002 2.7379999 9
6.8629999 -4.4060001 2.7349999 9
6.8829999 -4.4089999 2.7360001 9
6.8520002 -4.4109998 2.737 9
6.8940001 -4.4089999 2.7360001 9
6.8740001 -4.3979998 2.73 9
6.8590002 -4.4000001 2.7309999 9
6.8870001 -4.4070001 2.7349999 9
6.915 -4.4159999 2.74 9
6.881 -4.4180002 2.7409999 9
6.8769999 -4.408 2.7360001 9
6.8779998 -4.4099998 2.737 9
6.9039998 -4.421 2.743 9
6.908 -4.3730001 2.7179999 9
6.9109998 -4.4109998 2.7379999 9
6.908 -4.3759999 2.72 9
6.8990002 -4.415 2.74 9
6.9060001 -4.4000001 2.7320001 9
6.8569999 -4.4120002 2.7379999 9
6.8720002 -4.4120002 2.7379999 9
6.901 -4.4000001 2.7320001 9
6.875 -4.4070001 2.7349999 9
6.9070001 -4.3940001 2.7290001 9
6.8649998 -4.4039998 2.734 9
6.8829999 -4.4190001 2.7420001 9
6.915 -4.415 2.74 9
6.8790002 -4.3990002 2.7309999 9
6.8940001 -4.401 2.7320001 9
6.9590001 -4.4749999 2.7449999 9
7.007 -4.46 2.7349999 9
6.9980001 -4.454 2.7279999 9
7.0029998 -4.4629998 2.737 9
6.9549999 -4.4770002 2.7460001 9
6.9860001 -4.4580002 2.7320001 9
6.9879999 -4.4580002 2.7320001 9
6.9910002 -4.4580002 2.7320001 9
7.0079999 -4.4499998 2.7260001 9
6.9780002 -4.4710002 2.743 9
6.987 -4.4759998 2.7479999 9
6.9949999 -4.4520001 2.727 9
6.9530001 -4.4439998 2.7390001 9
6.9850001 -4.4499998 2.7290001 9
6.9460001 -4.447 2.7420001 9
6.9400001 -4.4419999 2.743 9
6.9390001 -4.4530001 2.7460001 9
6.9949999 -4.4419999 2.724 9
6.9429998 -4.4390001 2.7409999 9
6.9569998 -4.474 2.744 9
7 -4.4369998 2.721 9
6.947 -4.4400001 2.74 9
6.9770002 -4.4429998 2.73 9
6.9330001 -4.4359999 2.744 9
6.9959998 -4.4460001 2.724 9
6.9629998 -4.4419999 2.7349999 9
6.994 -4.4489999 2.7260001 9
6.9780002 -4.4520001 2.7320001 9
6.9959998 -4.447 2.724 9
6.954 -4.4590001 2.7420001 9
6.9840002 -4.448 2.7290001 9
6.9489999 -4.4349999 2.7390001 9
6.974 -4.4619999 2.7360001 9
6.9970002 -4.4460001 2.724 9
6.9510002 -4.4660001 2.7449999 9
6.987 -4.4239998 2.7190001 9
6.9310002 -4.4060001 2.7290001 9
6.9400001 -4.414 2.7309999 9
6.947 -4.4310002 2.7379999 9
7.0100002 -4.4359999 2.717 9
6.9489999 -4.427 2.7349999 9
6.9809999 -4.4250002 2.7219999 9
6.915 -4.3850002 2.723 9
6.9720001 -4.4200001 2.7219999 9
6.9180002 -4.408 2.7349999 9
6.9580002 -4.4200001 2.727 9
6.9130001 -4.3909998 2.727 9
6.9899998 -4.4239998 2.717 9
6.9559999 -4.4130001 2.724 9
6.9460001 -4.3969998 2.7179999 9
6.98 -4.4190001 2.7179999 9
6.9520001 -4.4109998 2.724 9
6.9499998 -4.3979998 2.717 9
6.9499998 -4.4299998 2.7360001 9
6.9489999 -4.4000001 2.7190001 9
6.9320002 -4.421 2.7379999 9
6.9349999 -4.4099998 2.73 9
6.9169998 -4.3920002 2.7260001 9
6.921 -4.3909998 2.724 9
6.9699998 -4.434 2.7309999 9
6.9400001 -4.3990002 2.721 9
6.9130001 -4.3779998 2.72 9
6.9419999 -4.401 2.7219999 9
6.974 -4.4219999 2.7219999 9
6.9920001 -4.4330001 2.7219999 9
6.9330001 -4.4099998 2.7309999 9
6.9790001 -4.4159999 2.717 9
7.0050001 -4.4809999 2.7479999 9
7.0580001 -4.5 2.7379999 9
7.046 -4.507 2.7390001 9
7.0580001 -4.5040002 2.7379999 9
7.0149999 -4.4970002 2.7449999 9
7.0300002 -4.506 2.7420001 9
7.013 -4.4889998 2.7460001 9
7.0219998 -4.5040002 2.743 9
7.0139999 -4.494 2.7460001 9
7.0310001 -4.5029998 2.7420001 9
7.0149999 -4.5009999 2.7449999 9
7.02 -4.4640002 2.7320001 9
7.0359998 -4.4850001 2.7390001 9
7.073 -4.4990001 2.733 9
7.0149999 -4.4460001 2.7219999 9
7.0289998 -4.4629998 2.727 9
7.0739999 -4.5040002 2.7349999 9
7.0710001 -4.4970002 2.7320001 9
7.0479999 -4.4819999 2.7320001 9
7.0100002 -4.4699998 2.7409999 9
7.033 -4.4590001 2.7219999 9
7.0430002 -4.474 2.7279999 9
7.02 -4.4829998 2.7449999 9
7.0450001 -4.4860001 2.7360001 9
7.0300002 -4.4629998 2.727 9
7.0190001 -4.4489999 2.7219999 9
7.0250001 -4.461 2.7279999 9
7.0539999 -4.4920001 2.7360001 9
7.0149999 -4.4559999 2.7290001 9
7.0219998 -4.4450002 2.7179999 9
7.027 -4.467 2.7309999 9
7.0320001 -4.4759998 2.7349999 9
7.0219998 -4.4489999 2.721 9
7.0339999 -4.4699998 2.73 9
7.0549998 -4.4819999 2.7279999 9
7.0489998 -4.467 2.7219999 9
7.118 -4.5209999 2.7279999 9
7.1009998 -4.5089998 2.727 9
7.073 -4.4910002 2.727 9
7.1329999 -4.5310001 2.7290001 9
7.073 -4.4910002 2.727 9
7.0939999 -4.5040002 2.727 9
7.1490002 -4.5440001 2.7309999 9
7.066 -4.4780002 2.721 9
7.0640001 -4.4850001 2.727 9
7.0749998 -4.4889998 2.7249999 9
7.1129999 -4.52 2.73 9
7.0440001 -4.46 2.7190001 9
7.1160002 -4.5300002 2.74 9
7.1059999 -4.5300002 2.7539999 9
7.1170001 -4.539 2.7609999 9
7.125 -4.54 2.7520001 9
7.099 -4.5180001 2.7379999 9
7.1370001 -4.5430002 2.743 9
7.112 -4.5289998 2.7449999 9
7.131 -4.54 2.744 9
7.1300001 -4.5370002 2.7379999 9
7.1290002 -4.539 2.743 9
7.1259999 -4.5359998 2.7420001 9
7.1079998 -4.5339999 2.76 9
7.1170001 -4.533 2.747 9
7.099 -4.5180001 2.7379999 9
7.1059999 -4.5310001 2.757 9
7.1220002 -4.5339999 2.744 9
7.0949998 -4.5149999 2.7349999 9
7.1999998 -5.1069999 2.7520001 9
7.1960001 -5.0949998 2.75 9
7.2010002 -5.0890002 2.7490001 9
7.2030001 -5.1009998 2.7509999 9
7.2010002 -5.0869999 2.7490001 9
7.2080002 -5.098 2.75 9
7.21 -5.1040001 2.7509999 9
7.2150002 -5.0799999 2.7479999 9
7.211 -5.0739999 2.747 9
7.1900001 -5.1020002 2.7509999 9
7.2090001 -5.099 2.75 9
7.2049999 -5.1110001 2.7520001 9
7.2119999 -4.757 2.747 9
7.2080002 -4.7709999 2.7449999 9
7.2020001 -4.7639999 2.747 9
7.2010002 -4.7600002 2.7479999 9
7.2150002 -4.777 2.743 9
7.204 -4.77 2.7460001 9
7.2030001 -4.7519999 2.7490001 9
7.211 -4.7470002 2.7490001 9
7.2049999 -4.7740002 2.7449999 9
7.2049999 -4.7480001 2.75 9
7.2049999 -4.7399998 2.7509999 9
7.2150002 -4.717 2.7449999 9
7.2080002 -4.7280002 2.75 9
7.2259998 -4.7690001 2.7409999 9
7.2199998 -4.7280002 2.7420001 9
7.2249999 -4.7319999 2.7390001 9
7.2329998 -4.7090001 2.7309999 9
7.2329998 -4.7119999 2.7309999 9
7.2270002 -4.776 2.7409999 9
7.2459998 -4.724 2.723 9
7.224 -4.724 2.7390001 9
7.2140002 -4.7080002 2.7449999 9
7.2119999 -4.7329998 2.7479999 9
7.2350001 -4.737 2.7320001 9
7.243 -4.7319999 2.7260001 9
7.2360001 -4.7340002 2.7309999 9
7.2319999 -4.7270002 2.734 9
7.2220001 -4.7389998 2.7420001 9
7.2360001 -4.7340002 2.7309999 9
7.2410002 -4.7290001 2.727 9
7.2319999 -4.7340002 2.734 9
7.2090001 -4.723 2.75 9
7.2189999 -4.7490001 2.744 9
7.217 -4.73 2.744 9
7.223 -4.7360001 2.74 9
7.2249999 -4.7329998 2.7390001 9
7.1999998 -4.7059999 2.7550001 9
7.2509999 -4.7049999 2.721 9
7.2090001 -4.7049999 2.7490001 9
7.2199998 -4.7010002 2.7479999 9
7.23 -4.6869998 2.7579999 9
7.2210002 -4.684 2.7679999 9
7.2480001 -4.7069998 2.7219999 9
7.2420001 -4.704 2.7290001 9
7.2259998 -4.6880002 2.76 9
7.211 -4.7010002 2.753 9
7.223 -4.6890001 2.7609999 9
7.2259998 -4.6789999 2.7709999 9
7.2129998 -4.6939998 2.7609999 9
7.2259998 -4.6799998 2.7690001 9
7.2069998 -4.6989999 2.7579999 9
7.2509999 -5.0310001 2.7320001 9
7.2410002 -5.0549998 2.737 9
7.2470002 -5.053 2.7349999 9
7.2319999 -5.072 2.7420001 9
7.2189999 -5.079 2.747 9
7.2360001 -5.0580001 2.7390001 9
7.2690001 -5.0149999 2.7249999 9
7.2309999 -5.0749998 2.7420001 9
7.2140002 -5.0910001 2.7490001 9
7.2350001 -5.0500002 2.7390001 9
7.223 -5.0840001 2.7449999 9
7.2249999 -5.0679998 2.744 9
7.2189999 -5.1020002 2.7479999 9
7.2340002 -5.0669999 2.74 9
7.2470002 -5.0479999 2.7349999 9
7.2350001 -5.0450001 2.7390001 9
7.2589998 -5.0300002 2.7290001 9
7.2579999 -5.0339999 2.73 9
7.2410002 -4.9699998 2.744 9
7.2280002 -5.0469999 2.743 9
7.2290001 -4.9689999 2.7509999 9
7.2459998 -4.9949999 2.7390001 9
7.2350001 -4.973 2.747 9
7.237 -5.0019999 2.743 9
7.2350001 -4.96 2.7490001 9
7.237 -4.9980001 2.743 9
7.23 -4.9429998 2.753 9
7.2290001 -4.9429998 2.7539999 9
7.2490001 -4.9899998 2.7379999 9
7.2319999 -5.02 2.744 9
7.2579999 -4.9970002 2.7320001 9
7.2259998 -4.9629998 2.753 9
7.2319999 -5.0050001 2.7449999 9
7.2449999 -4.9879999 2.74 9
7.2350001 -4.9860001 2.7460001 9
7.2389998 -4.9650002 2.7460001 9
7.2270002 -5.0349998 2.744 9
7.2649999 -5.0009999 2.7279999 9
7.237 -4.9720001 2.7460001 9
7.2290001 -5.0240002 2.7449999 9
7.2709999 -4.9990001 2.7249999 9
7.2379999 -5.006 2.7420001 9
7.2670002 -5.0100002 2.7260001 9
7.2340002 -4.9840002 2.7460001 9
7.2579999 -5.0159998 2.73 9
7.2420001 -5.0029998 2.74 9
7.2470002 -5 2.7379999 9
7.23 -4.9520001 2.7520001 9
7.2360001 -4.974 2.7460001 9
7.276 -5.0029998 2.7219999 9
7.2420001 -5.0040002 2.74 9
7.256 -5.007 2.7320001 9
7.277 -4.9640002 2.72 9
7.2670002 -4.9429998 2.7260001 9
7.2719998 -4.8670001 2.72 9
7.2600002 -4.9619999 2.7320001 9
7.2550001 -4.9029999 2.734 9
7.2529998 -4.8889999 2.734 9
7.243 -4.934 2.744 9
7.2750001 -4.921 2.72 9
7.2750001 -4.8839998 2.7179999 9
7.2540002 -4.9200001 2.7349999 9
7.2680001 -4.9330001 2.7260001 9
7.2709999 -4.9640002 2.724 9
7.2639999 -4.915 2.727 9
7.2709999 -4.9790001 2.7249999 9
7.263 -4.9530001 2.7290001 9
7.2750001 -4.98 2.7219999 9
7.27 -4.9780002 2.7249999 9
7.2470002 -4.9120002 2.74 9
7.2729998 -4.9970002 2.724 9
7.2709999 -4.9619999 2.724 9
7.2729998 -4.9510002 2.7219999 9
7.25 -4.961 2.7390001 9
7.2709999 -4.9250002 2.723 9
7.2680001 -4.9749999 2.727 9
7.2750001 -4.8959999 2.7190001 9
7.2670002 -4.987 2.7279999 9
7.2620001 -4.9450002 2.73 9
7.263 -4.9689999 2.73 9
7.2680001 -4.9070001 2.724 9
7.277 -4.9549999 2.7190001 9
7.27 -4.9299998 2.723 9
7.263 -4.9569998 2.73 9
7.2470002 -4.9299998 2.7409999 9
7.2540002 -4.9050002 2.734 9
7.2350001 -4.9229999 2.7490001 9
7.2750001 -4.8600001 2.717 9
7.2649999 -4.868 2.7249999 9
7.2550001 -4.8850002 2.733 9
7.2620001 -4.8850002 2.7279999 9
7.2579999 -4.9549999 2.733 9
7.2550001 -4.9660001 2.7360001 9
7.2659998 -4.9569998 2.727 9
7.2579999 -4.8959999 2.7309999 9
7.2750001 -4.9790001 2.7219999 9
7.2399998 -4.9310002 2.7460001 9
7.2470002 -4.9400001 2.7409999 9
7.27 -4.9190001 2.723 9
7.2719998 -4.9000001 2.721 9
7.2740002 -4.9400001 2.721 9
7.2579999 -4.882 2.73 9
7.2719998 -4.8470001 2.7190001 9
7.2610002 -4.842 2.7249999 9
7.257 -4.8569999 2.7290001 9
7.237 -4.8390002 2.74 9
7.2550001 -4.8280001 2.727 9
7.263 -4.8460002 2.724 9
7.2270002 -4.8790002 2.7509999 9
7.2449999 -4.868 2.7379999 9
7.243 -4.8579998 2.7379999 9
7.2319999 -4.7989998 2.74 9
7.2490001 -4.881 2.7360001 9
7.2579999 -4.8460002 2.727 9
7.2420001 -4.8499999 2.7379999 9
7.237 -4.8730001 2.744 9
7.2719998 -4.8509998 2.7179999 9
7.2470002 -4.8959999 2.7390001 9
7.23 -4.8909998 2.75 9
7.2290001 -4.8779998 2.7490001 9
7.2270002 -4.9229999 2.7550001 9
7.2719998 -4.8390002 2.717 9
7.25 -4.8109999 2.7290001 9
7.2519999 -4.8169999 2.7279999 9
7.2610002 -4.8429999 2.7249999 9
7.2340002 -4.869 2.7449999 9
7.2589998 -4.8460002 2.7260001 9
7.2270002 -4.8369999 2.7460001 9
7.2280002 -4.8769999 2.7490001 9
7.2329998 -4.8579998 2.7449999 9
7.2319999 -4.7950001 2.7390001 9
7.2340002 -4.822 2.7409999 9
7.2259998 -4.816 2.7449999 9
7.2379999 -4.8530002 2.7409999 9
7.25 -4.8699999 2.7349999 9
7.2389998 -4.8060002 2.7360001 9
7.2259998 -4.8600001 2.7490001 9
7.2350001 -4.803 2.7379999 9
7.2360001 -4.8779998 2.7449999 9
7.256 -4.8709998 2.7309999 9
7.2399998 -4.8099999 2.7360001 9
7.2729998 -4.8410001 2.717 9
7.2659998 -4.8439999 2.7219999 9
7.2270002 -4.8210001 2.7449999 9
7.263 -4.8429999 2.724 9
7.2639999 -4.842 2.723 9
7.23 -4.902 2.75 9
7.2550001 -4.8260002 2.727 9
7.2329998 -4.8909998 2.7479999 9
7.244 -4.7389998 2.7260001 9
7.25 -4.724 2.72 9
7.25 -4.757 2.724 9
7.2319999 -4.7740002 2.7379999 9
7.244 -4.7789998 2.73 9
7.2350001 -4.756 2.733 9
7.256 -4.777 2.7219999 9
7.2410002 -4.7880001 2.733 9
7.2540002 -4.776 2.723 9
7.257 -4.7639999 2.72 9
7.244 -4.7870002 2.7309999 9
7.2639999 -4.809 2.72 9
7.243 -4.7859998 2.7309999 9
7.2680001 -4.7909999 2.7160001 9
7.2550001 -4.7470002 2.72 9
7.2470002 -4.7259998 2.7219999 9
7.2519999 -4.7979999 2.727 9
7.2550001 -4.7820001 2.723 9
7.2690001 -4.8049998 2.7160001 9
7.2589998 -4.7750001 2.72 9
7.2490001 -4.776 2.7260001 9
7.256 -4.7719998 2.7219999 9
7.2420001 -4.7610002 2.7290001 9
7.2379999 -4.7540002 2.7309999 9
7.2719998 -4.8189998 2.7160001 9
7.257 -4.75 2.7190001 9
7.2519999 -4.7449999 2.721 9
7.243 -4.7919998 2.7320001 9
7.237 -4.77 2.734 9
7.2690001 -4.8109999 2.717 9
7.2649999 -4.8099999 2.7190001 9
7.2399998 -4.789 2.734 9
6.5430002 -5.5029998 2.727 9
6.5739999 -5.513 2.7119999 9
6.5650001 -5.5219998 2.707 9
6.5450001 -5.5219998 2.71 9
6.5609999 -5.5170002 2.7119999 9
6.5190001 -5.5139999 2.7219999 9
6.5440001 -5.5279999 2.7049999 9
6.5139999 -5.5040002 2.7320001 9
6.54 -5.5180001 2.714 9
6.5669999 -5.5009999 2.724 9
6.5619998 -5.5100002 2.7179999 9
6.5549998 -5.5229998 2.707 9
6.5710001 -5.5170002 2.71 9
6.5549998 -5.5009999 2.7260001 9
6.5320001 -5.5180001 2.7160001 9
6.54 -5.52 2.7130001 9
6.5510001 -5.5139999 2.7160001 9
6.5749998 -5.507 2.7179999 9
6.5440001 -5.5100002 2.721 9
6.5510001 -5.5050001 2.724 9
6.552 -5.5219998 2.7090001 9
6.5780001 -5.506 2.7179999 9
6.5840001 -5.527 2.7060001 9
6.6290002 -5.5190001 2.7179999 9
6.5890002 -5.5170002 2.7119999 9
6.6789999 -5.5190001 2.727 9
6.5960002 -5.5240002 2.71 9
6.6830001 -5.5279999 2.723 9
6.638 -5.5289998 2.714 9
6.6199999 -5.5320001 2.71 9
6.619 -5.5250001 2.7130001 9
6.6040001 -5.5279999 2.7090001 9
6.665 -5.5300002 2.7190001 9
6.632 -5.5250001 2.7160001 9
6.6440001 -5.5289998 2.7160001 9
6.5819998 -5.5240002 2.707 9
6.6240001 -5.527 2.7130001 9
6.5960002 -5.527 2.7079999 9
6.6040001 -5.52 2.7130001 9
6.612 -5.5170002 2.7160001 9
6.5650001 -5.5289998 2.701 9
6.6820002 -5.526 2.724 9
6.5749998 -5.5279999 2.7030001 9
6.573 -5.5320001 2.701 9
6.6170001 -5.52 2.7160001 9
6.5929999 -5.5300002 2.7060001 9
6.711 -5.5229998 2.7320001 9
6.671 -5.526 2.723 9
6.6479998 -5.5229998 2.72 9
6.744 -5.527 2.7360001 9
6.7160001 -5.5289998 2.7290001 9
6.723 -5.526 2.7320001 9
6.5819998 -5.5300002 2.7030001 9
6.7030001 -5.526 2.7279999 9
6.6739998 -5.5170002 2.7279999 9
6.572 -5.5219998 2.7060001 9
6.6939998 -5.5300002 2.724 9
6.6030002 -5.5170002 2.7149999 9
6.691 -5.526 2.7260001 9
6.5609999 -5.5359998 2.6960001 9
6.5770001 -5.5250001 2.7049999 9
6.6869998 -5.5180001 2.7290001 9
6.6399999 -5.5320001 2.7130001 9
6.6570001 -5.5300002 2.7179999 9
6.5799999 -5.5159998 2.711 9
6.6040001 -5.5310001 2.707 9
6.789 -4.3449998 2.6370001 9
6.7659998 -4.335 2.661 9
6.77 -4.3410001 2.6229999 9
6.8189998 -4.3509998 2.6670001 9
6.6750002 -4.3179998 2.5669999 9
6.829 -4.355 2.6589999 9
6.7160001 -4.3249998 2.6170001 9
6.7620001 -4.329 2.6989999 9
6.803 -4.3429999 2.6900001 9
6.6929998 -4.3189998 2.6040001 9
6.684 -4.3210001 2.566 9
6.7849998 -4.3439999 2.638 9
6.7189999 -4.329 2.585 9
6.7360001 -4.329 2.635 9
6.842 -4.355 2.687 9
6.717 -4.329 2.5869999 9
6.698 -4.3210001 2.599 9
6.8850002 -4.3660002 2.707 9
6.8319998 -4.3520002 2.6919999 9
6.7059999 -4.3270001 2.575 9
6.6919999 -4.322 2.582 9
6.7290001 -4.3249998 2.652 9
6.8829999 -4.3660002 2.7049999 9
6.8010001 -4.3470001 2.648 9
6.7589998 -4.329 2.698 9
6.7620001 -4.3379998 2.6259999 9
6.7719998 -4.3400002 2.635 9
6.7610002 -4.3299999 2.6949999 9
6.7919998 -4.3410001 2.6819999 9
6.6609998 -4.316 2.55 9
6.776 -4.3390002 2.6500001 9
6.829 -4.3509998 2.6919999 9
6.8499999 -4.3579998 2.6900001 9
6.7589998 -4.329 2.697 9
6.7859998 -4.336 2.7060001 9
6.7150002 -4.329 2.5769999 9
6.7140002 -4.3260002 2.6029999 9
6.8740001 -4.362 2.7130001 9
6.7859998 -4.3449998 2.6329999 9
6.809 -4.349 2.655 9
6.776 -4.3379998 2.6600001 9
6.7340002 -4.3280001 2.6389999 9
6.777 -4.3410001 2.635 9
6.717 -4.3299999 2.579 9
6.8499999 -4.3579998 2.6819999 9
6.8270001 -4.3499999 2.6960001 9
6.8639998 -4.3600001 2.7060001 9
6.7659998 -4.3340001 2.6689999 9
6.8049998 -4.3439999 2.684 9
6.7150002 -4.3280001 2.5840001 9
6.77 -4.3340001 2.681 9
6.8039999 -4.348 2.654 9
6.8070002 -4.348 2.661 9
6.7490001 -4.3340001 2.6229999 9
6.7179999 -4.323 2.6329999 9
6.7779999 -4.342 2.632 9
6.7839999 -4.3439999 2.635 9
6.6939998 -4.323 2.576 9
6.6490002 -4.3140001 2.54 9
6.8080001 -4.3429999 2.7049999 9
6.7639999 -4.335 2.658 9
6.7179999 -4.3280001 2.599 9
6.6939998 -4.322 2.586 9
6.8249998 -4.3470001 2.7119999 9
6.77 -4.335 2.6700001 9
6.7880001 -4.3429999 2.6489999 9
6.7620001 -4.3319998 2.674 9
6.8429999 -4.3579998 2.6700001 9
6.7989998 -4.342 2.688 9
6.8369999 -4.3509998 2.7090001 9
6.7839999 -4.336 2.697 9
6.8369999 -4.3540001 2.6860001 9
6.8299999 -4.3540001 2.668 9
6.8600001 -4.3610001 2.6889999 9
6.7909999 -4.3410001 2.6760001 9
6.8369999 -4.3540001 2.6819999 9
6.7399998 -4.3270001 2.6600001 9
6.6760001 -4.3200002 2.556 9
6.7189999 -4.3280001 2.602 9
6.7049999 -4.3239999 2.598 9
6.7270002 -4.3239999 2.6530001 9
6.7470002 -4.3309999 2.6500001 9
6.6760001 -4.3189998 2.5580001 9
6.7360001 -4.3260002 2.6630001 9
6.7490001 -4.3280001 2.681 9
6.7940001 -4.342 2.6789999 9
6.862 -4.3610001 2.6930001 9
6.7140002 -4.3239999 2.619 9
6.763 -4.3400002 2.6140001 9
6.7989998 -4.3460002 2.651 9
6.743 -4.3309999 2.6329999 9
6.7550001 -4.3330002 2.651 9
6.7709999 -4.3309999 2.7090001 9
6.7519999 -4.335 2.622 9
6.71 -4.322 2.628 9
6.7880001 -4.3400002 2.675 9
6.8720002 -4.3629999 2.7019999 9
6.7740002 -4.336 2.677 9
6.7620001 -4.3319998 2.6760001 9
6.7680001 -4.3299999 2.71 9
6.7859998 -4.3429999 2.642 9
6.6859999 -4.3200002 2.5810001 9
6.724 -4.3270001 2.622 9
6.7600002 -4.329 2.6930001 9
6.7589998 -4.3340001 2.6489999 9
6.7639999 -4.3319998 2.6819999 9
6.7319999 -4.3270001 2.6389999 9
6.7389998 -4.329 2.6440001 9
6.8010001 -4.3439999 2.6760001 9
6.6570001 -4.3150001 2.546 9
6.7389998 -4.3260002 2.6719999 9
6.73 -4.3270001 2.6370001 9
6.7179999 -4.329 2.5899999 9
6.7639999 -4.3369999 2.641 9
6.789 -4.3369999 2.7030001 9
6.8629999 -4.3610001 2.697 9
6.6900001 -4.3200002 2.5869999 9
6.8590002 -4.3590002 2.698 9
6.8379998 -4.3530002 2.694 9
6.8520002 -4.3579998 2.6930001 9
6.7940001 -4.3460002 2.6429999 9
6.77 -4.3369999 2.6570001 9
6.7480001 -4.3280001 2.675 9
6.7680001 -4.3410001 2.6159999 9
6.6929998 -4.3200002 2.5940001 9
6.7719998 -4.3369999 2.6559999 9
6.8530002 -4.3579998 2.6960001 9
6.836 -4.3559999 2.665 9
6.7509999 -4.3330002 2.6389999 9
6.6620002 -4.316 2.549 9
6.8189998 -4.3520002 2.658 9
6.7490001 -4.3270001 2.687 9
6.803 -4.3439999 2.678 9
6.7680001 -4.3340001 2.674 9
6.8340001 -4.3530002 2.6849999 9
6.823 -4.348 2.6960001 9
6.7800002 -4.336 2.6919999 9
6.7319999 -4.3309999 2.6099999 9
6.7189999 -4.3239999 2.6300001 9
6.7049999 -4.3210001 2.6210001 9
6.8499999 -4.3569999 2.6340001 9
6.8649998 -4.3610001 2.6630001 9
6.7719998 -4.342 2.6129999 9
6.7800002 -4.3390002 2.5409999 9
6.829 -4.3499999 2.585 9
6.809 -4.3470001 2.596 9
6.8590002 -4.3569999 2.6010001 9
6.8860002 -4.3649998 2.668 9
6.7750001 -4.3400002 2.5810001 9
6.802 -4.3470001 2.6210001 9
6.822 -4.3470001 2.5420001 9
6.8210001 -4.348 2.563 9
6.7930002 -4.3410001 2.529 9
6.6690001 -4.3189998 2.5339999 9
6.757 -4.3379998 2.589 9
6.8600001 -4.3600001 2.6630001 9
6.8860002 -4.3590002 2.5539999 9
6.6659999 -4.3179998 2.5339999 9
6.7480001 -4.335 2.5639999 9
6.8579998 -4.355 2.582 9
6.8969998 -4.369 2.7030001 9
6.6820002 -4.3210001 2.5320001 9
6.816 -4.349 2.6059999 9
6.8800001 -4.3600001 2.5840001 9
6.862 -4.3569999 2.5969999 9
6.8000002 -4.342 2.539 9
6.8990002 -4.369 2.691 9
6.711 -4.3270001 2.5420001 9
6.835 -4.349 2.543 9
6.7030001 -4.3249998 2.5420001 9
6.7880001 -4.3400002 2.5409999 9
6.8330002 -4.3509998 2.5929999 9
6.7779999 -4.342 2.592 9
6.75 -4.336 2.582 9
6.7690001 -4.3400002 2.5899999 9
6.836 -4.3530002 2.6140001 9
6.8150001 -4.3470001 2.5699999 9
6.8610001 -4.3540001 2.5569999 9
6.6960001 -4.3239999 2.539 9
6.8730001 -4.3629999 2.6659999 9
6.8239999 -4.3520002 2.631 9
6.8740001 -4.3600001 2.6159999 9
6.7919998 -4.3429999 2.5810001 9
6.7849998 -4.342 2.5780001 9
6.848 -4.3559999 2.6170001 9
6.8239999 -4.348 2.5680001 9
6.7800002 -4.3410001 2.572 9
6.8909998 -4.368 2.704 9
6.8909998 -4.3579998 2.523 9
6.881 -4.3590002 2.5680001 9
6.7379999 -4.3299999 2.517 9
6.8940001 -4.368 2.6819999 9
6.7150002 -4.3280001 2.5439999 9
6.711 -4.3280001 2.5569999 9
6.8889999 -4.3670001 2.6860001 9
6.8369999 -4.349 2.5439999 9
6.7820001 -4.3410001 2.5680001 9
6.8319998 -4.3470001 2.5220001 9
6.7639999 -4.3390002 2.5910001 9
6.7319999 -4.3299999 2.533 9
6.8909998 -4.3610001 2.5739999 9
6.8940001 -4.3639998 2.6270001 9
6.8699999 -4.3540001 2.52 9
6.9070001 -4.3709998 2.7090001 9
6.822 -4.3499999 2.6059999 9
6.8460002 -4.3540001 2.5969999 9
6.8730001 -4.3610001 2.632 9
6.7179999 -4.3299999 2.5710001 9
6.8379998 -4.3540001 2.6129999 9
6.8959999 -4.3660002 2.6429999 9
6.717 -4.3270001 2.5250001 9
6.895 -4.3649998 2.6400001 9
6.6999998 -4.3239999 2.539 9
6.848 -4.3540001 2.589 9
6.6869998 -4.322 2.5369999 9
6.8569999 -4.3590002 2.6530001 9
6.8449998 -4.3499999 2.52 9
6.8210001 -4.348 2.573 9
6.7779999 -4.342 2.598 9
6.868 -4.3629999 2.681 9
6.7119999 -4.3270001 2.5510001 9
6.869 -4.3610001 2.652 9
6.9039998 -4.368 2.664 9
6.836 -4.348 2.5150001 9
6.763 -4.336 2.5339999 9
6.8439999 -4.3559999 2.635 9
6.737 -4.3340001 2.592 9
6.875 -4.3559999 2.5450001 9
6.8569999 -4.3590002 2.654 9
6.796 -4.3410001 2.5190001 9
6.7709999 -4.3400002 2.595 9
6.7740002 -4.3400002 2.582 9
6.8730001 -4.3579998 2.579 9
6.9060001 -4.3699999 2.6930001 9
6.6830001 -4.322 2.5439999 9
6.8639998 -4.3590002 2.6340001 9
6.7820001 -4.3429999 2.5969999 9
6.8060002 -4.348 2.6210001 9
6.8600001 -4.3590002 2.6459999 9
6.816 -4.349 2.6070001 9
6.7919998 -4.3449998 2.6029999 9
6.8039999 -4.348 2.628 9
6.8940001 -4.3610001 2.559 9
6.789 -4.342 2.559 9
6.8889999 -4.3639998 2.6400001 9
6.8520002 -4.355 2.5929999 9
6.7719998 -4.3410001 2.608 9
6.8800001 -4.3569999 2.54 9
6.8249998 -4.348 2.553 9
6.902 -4.368 2.6670001 9
6.7490001 -4.3330002 2.536 9
6.7989998 -4.3439999 2.5680001 9
6.756 -4.3379998 2.596 9
6.803 -4.348 2.635 9
6.8460002 -4.3520002 2.562 9
6.783 -4.3400002 2.552 9
6.8899999 -4.362 2.5880001 9
6.8889999 -4.3590002 2.5450001 9
6.8150001 -4.3470001 2.576 9
6.6890001 -4.322 2.5309999 9
6.822 -4.3509998 2.6129999 9
6.6989999 -4.3239999 2.53 9
6.8790002 -4.3579998 2.5550001 9
6.8530002 -4.3559999 2.608 9
6.8530002 -4.3509998 2.5239999 9
6.8909998 -4.3579998 2.5309999 9
6.882 -4.3600001 2.5929999 9
6.7950001 -4.3460002 2.6129999 9
6.7750001 -4.342 2.608 9
6.8600001 -4.3590002 2.641 9
6.7750001 -4.342 2.612 9
6.7880001 -4.3410001 2.5480001 9
6.8850002 -4.3579998 2.536 9
6.7309999 -4.3299999 2.543 9
6.8309999 -4.3470001 2.523 9
6.6599998 -4.316 2.5220001 9
6.7410002 -4.3309999 2.5150001 9
6.7740002 -4.3390002 2.566 9
6.8930001 -4.3610001 2.5650001 9
6.8899999 -4.3610001 2.5799999 9
6.717 -4.329 2.5680001 9
6.8520002 -4.3540001 2.5739999 9
6.9029999 -4.3709998 2.7090001 9
6.756 -4.3340001 2.529 9
6.79 -4.3449998 2.615 9
6.882 -4.362 2.632 9
6.737 -4.3330002 2.566 9
6.796 -4.3460002 2.615 9
6.8759999 -4.3579998 2.5739999 9
6.7639999 -4.3369999 2.5480001 9
6.7589998 -4.3369999 2.5650001 9
6.7969999 -4.3449998 2.585 9
6.7329998 -4.3330002 2.589 9
6.816 -4.3470001 2.575 9
6.8930001 -4.3600001 2.5580001 9
6.8709998 -4.3540001 2.5150001 9
6.8520002 -4.3569999 2.6210001 9
6.7550001 -4.3340001 2.5239999 9
6.8660002 -4.3540001 2.5369999 9
6.882 -4.3660002 2.684 9
6.7119999 -4.3270001 2.546 9
6.783 -4.3390002 2.523 9
6.8740001 -4.3639998 2.6900001 9
6.8439999 -4.3509998 2.5409999 9
6.7589998 -4.3379998 2.5840001 9
6.7189999 -4.3280001 2.5420001 9
6.835 -4.3509998 2.5799999 9
6.8039999 -4.3460002 2.5869999 9
6.8309999 -4.3470001 2.52 9
6.7529998 -4.335 2.563 9
6.7779999 -4.3379998 2.5309999 9
6.7490001 -4.3319998 2.5179999 9
6.7979999 -4.3429999 2.553 9
6.8520002 -4.3530002 2.566 9
6.8439999 -4.3559999 2.6429999 9
6.7389998 -4.3340001 2.586 9
6.8990002 -4.369 2.6960001 9
6.8150001 -4.3449998 2.526 9
6.8790002 -4.3590002 2.5869999 9
6.8660002 -4.3540001 2.5239999 9
6.8039999 -4.3460002 2.5899999 9
6.8080001 -4.3449998 2.556 9
6.8470001 -4.355 2.615 9
6.7160001 -4.329 2.5650001 9
6.835 -4.3499999 2.5599999 9
6.658 -4.316 2.5280001 9
6.6890001 -4.323 2.556 9
6.7940001 -4.3439999 2.5829999 9
6.7709999 -4.342 2.6170001 9
6.8150001 -4.3449998 2.543 9
6.7870002 -4.342 2.569 9
6.868 -4.3600001 2.6259999 9
6.777 -4.3369999 2.517 9
6.77 -4.3410001 2.6099999 9
6.8699999 -4.3629999 2.684 9
6.8449998 -4.355 2.6129999 9
6.6820002 -4.322 2.5480001 9
6.7709999 -4.3390002 2.573 9
6.8530002 -4.355 2.589 9
6.8759999 -4.3590002 2.5940001 9
6.8860002 -4.362 2.608 9
6.8759999 -4.3629999 2.654 9
6.8629999 -4.3579998 2.6170001 9
6.8270001 -4.3509998 2.5969999 9
6.7859998 -4.3439999 2.6140001 9
6.783 -4.3439999 2.625 9
6.8010001 -4.342 2.5339999 9
6.7059999 -4.3270001 2.5639999 9
6.8530002 -4.3530002 2.5480001 9
6.862 -4.3540001 2.549 9
6.8629999 -4.3600001 2.645 9
6.9000001 -4.3649998 2.6110001 9
6.7620001 -4.3369999 2.556 9
6.823 -4.3530002 2.6429999 9
6.8990002 -4.368 2.6789999 9
6.698 -4.323 2.5209999 9
6.7659998 -4.3369999 2.55 9
6.8649998 -4.3590002 2.619 9
6.816 -4.3470001 2.559 9
6.7249999 -4.329 2.536 9
6.9000001 -4.3670001 2.6589999 9
6.8280001 -4.3530002 2.6359999 9
6.8959999 -4.3660002 2.654 9
6.8130002 -4.3470001 2.5840001 9
6.8309999 -4.3540001 2.642 9
6.8509998 -4.355 2.595 9
6.8569999 -4.3590002 2.645 9
6.7620001 -4.3369999 2.5680001 9
6.8280001 -4.349 2.5650001 9
6.7199998 -4.3299999 2.566 9
6.842 -4.3520002 2.575 9
6.789 -4.3449998 2.6229999 9
6.8899999 -4.3639998 2.632 9
6.822 -4.3470001 2.5420001 9
6.869 -4.3569999 2.5810001 9
6.8270001 -4.3470001 2.5369999 9
6.8400002 -4.3520002 2.582 9
6.8699999 -4.3579998 2.5929999 9
6.8730001 -4.3579998 2.586 9
6.8850002 -4.3660002 2.678 9
6.6750002 -4.3189998 2.5309999 9
6.8150001 -4.3460002 2.549 9
6.7680001 -4.3390002 2.5840001 9
6.743 -4.335 2.5780001 9
6.7249999 -4.3319998 2.5829999 9
6.6869998 -4.3210001 2.527 9
6.8639998 -4.3600001 2.641 9
6.7989998 -4.342 2.536 9
6.8940001 -4.362 2.5829999 9
6.902 -4.3699999 2.6930001 9
6.8839998 -4.3610001 2.6029999 9
6.796 -4.3400002 2.5150001 9
6.8429999 -4.349 2.5220001 9
6.7849998 -4.342 2.5829999 9
6.8649998 -4.3559999 2.5739999 9
6.7399998 -4.3309999 2.5320001 9
6.6989999 -4.3249998 2.559 9
6.849 -4.3569999 2.6329999 9
6.8670001 -4.3569999 2.5810001 9
6.8889999 -4.3600001 2.566 9
6.8769999 -4.3629999 2.6600001 9
6.8369999 -4.3509998 2.5710001 9
6.796 -4.3429999 2.5510001 9
6.8870001 -4.3579998 2.5420001 9
6.8010001 -4.3460002 2.5940001 9
6.829 -4.348 2.5369999 9
6.7969999 -4.3429999 2.552 9
6.8319998 -4.355 2.658 9
6.717 -4.3270001 2.5309999 9
6.8610001 -4.3600001 2.6489999 9
6.9380002 -4.3889999 2.648 9
6.9330001 -4.3850002 2.5910001 9
6.9780002 -4.414 2.688 9
6.9050002 -4.3670001 2.5610001 9
6.9169998 -4.375 2.5880001 9
6.908 -4.3709998 2.684 9
6.9499998 -4.3969998 2.697 9
6.9099998 -4.3709998 2.648 9
6.9520001 -4.3969998 2.6400001 9
6.9569998 -4.4000001 2.6340001 9
6.9070001 -4.369 2.592 9
6.9169998 -4.3759999 2.6600001 9
6.9039998 -4.3670001 2.5910001 9
6.9320002 -4.3850002 2.655 9
6.941 -4.3909998 2.671 9
6.9640002 -4.4050002 2.664 9
6.9679999 -4.408 2.7119999 9
6.9419999 -4.3909998 2.6229999 9
6.9460001 -4.3930001 2.6070001 9
6.9349999 -4.3870001 2.6760001 9
6.9850001 -4.4180002 2.671 9
6.9970002 -4.4260001 2.701 9
6.928 -4.3829999 2.652 9
6.9559999 -4.401 2.7049999 9
6.9099998 -4.3730001 2.698 9
6.9400001 -4.3889999 2.592 9
6.9060001 -4.369 2.618 9
6.9200001 -4.3790002 2.7090001 9
6.9429998 -4.3920002 2.6689999 9
6.9120002 -4.3709998 2.5799999 9
6.915 -4.3740001 2.638 9
6.9120002 -4.3740001 2.7019999 9
6.9619999 -4.4050002 2.701 9
6.895 -4.3600001 2.536 9
6.9369998 -4.3889999 2.6800001 9
6.98 -4.4159999 2.714 9
6.9190001 -4.3759999 2.5680001 9
6.9029999 -4.3660002 2.5769999 9
6.9349999 -4.3860002 2.6170001 9
6.9330001 -4.3850002 2.586 9
6.9060001 -4.3699999 2.6830001 9
6.9089999 -4.3709998 2.6619999 9
7.0040002 -4.4299998 2.7079999 9
6.9070001 -4.3699999 2.6860001 9
6.9349999 -4.3870001 2.675 9
6.9850001 -4.4180002 2.6659999 9
6.9130001 -4.3730001 2.6040001 9
6.908 -4.369 2.5899999 9
6.9109998 -4.3720002 2.6389999 9
6.9359999 -4.3870001 2.5969999 9
6.9120002 -4.3709998 2.5450001 9
6.9109998 -4.3709998 2.5799999 9
6.9679999 -4.4070001 2.651 9
6.915 -4.3759999 2.7060001 9
6.9299998 -4.3829999 2.602 9
6.9520001 -4.3979998 2.701 9
6.948 -4.395 2.6500001 9
6.9549999 -4.4000001 2.684 9
6.9530001 -4.3979998 2.668 9
6.9219999 -4.3800001 2.6819999 9
6.9369998 -4.388 2.6229999 9
6.9289999 -4.382 2.5929999 9
6.9260001 -4.381 2.6600001 9
6.9429998 -4.3930001 2.681 9
6.9390001 -4.3899999 2.6830001 9
6.9569998 -4.401 2.6619999 9
6.961 -4.4039998 2.7090001 9
6.9060001 -4.369 2.6289999 9
6.9580002 -4.402 2.7090001 9
6.9390001 -4.3899999 2.681 9
6.9359999 -4.388 2.648 9
6.9400001 -4.3909998 2.6960001 9
6.9520001 -4.3969998 2.641 9
6.9299998 -4.3839998 2.6559999 9
6.9050002 -4.3660002 2.5369999 9
6.9330001 -4.3860002 2.6429999 9
6.9050002 -4.368 2.609 9
6.9679999 -4.408 2.677 9
6.901 -4.3649998 2.6210001 9
6.9770002 -4.414 2.6819999 9
6.902 -4.3660002 2.605 9
6.9429998 -4.3920002 2.6800001 9
6.941 -4.3909998 2.654 9
6.9219999 -4.3800001 2.7 9
6.974 -4.4120002 2.681 9
6.941 -4.3909998 2.664 9
6.9549999 -4.3990002 2.632 9
6.9450002 -4.3940001 2.6819999 9
6.947 -4.395 2.6860001 9
6.9000001 -4.3639998 2.5969999 9
6.9520001 -4.3979998 2.668 9
6.8920002 -4.3579998 2.523 9
6.947 -4.395 2.6819999 9
6.9629998 -4.4039998 2.678 9
6.993 -4.4239998 2.7149999 9
6.9099998 -4.3709998 2.5869999 9
6.9569998 -4.401 2.675 9
6.9629998 -4.4039998 2.6719999 9
6.901 -4.3639998 2.5469999 9
6.98 -4.415 2.6659999 9
6.9510002 -4.3979998 2.7 9
6.9109998 -4.3709998 2.596 9
6.9260001 -4.381 2.665 9
6.9260001 -4.382 2.668 9
7.0009999 -4.4289999 2.7030001 9
6.9619999 -4.4039998 2.6400001 9
6.9520001 -4.3979998 2.6860001 9
6.9710002 -4.4089999 2.655 9
6.9439998 -4.3920002 2.6500001 9
6.9720001 -4.4099998 2.674 9
6.967 -4.4070001 2.655 9
6.947 -4.3940001 2.631 9
6.9489999 -4.3959999 2.668 9
6.9120002 -4.3740001 2.697 9
6.9520001 -4.3979998 2.6889999 9
6.9510002 -4.3969998 2.6270001 9
6.914 -4.3720002 2.5599999 9
6.9169998 -4.3769999 2.7090001 9
6.9330001 -4.3850002 2.631 9
6.9460001 -4.395 2.7130001 9
6.9239998 -4.3800001 2.6600001 9
6.994 -4.4239998 2.698 9
6.921 -4.3779998 2.6429999 9
6.9109998 -4.3709998 2.5539999 9
6.934 -4.388 2.717 9
6.9219999 -4.3779998 2.5829999 9
6.9050002 -4.3670001 2.589 9
6.9520001 -4.3969998 2.619 9
6.9590001 -4.402 2.654 9
7.0009999 -4.428 2.691 9
7.0250001 -4.434 2.5599999 9
7.1009998 -4.5040002 2.7090001 9
7.039 -4.4460001 2.5650001 9
7.0359998 -4.4450002 2.589 9
7.0929999 -4.4970002 2.7 9
7.0180001 -4.4400001 2.7130001 9
7.0349998 -4.4439998 2.589 9
7.0190001 -4.4380002 2.6900001 9
7.0749998 -4.4780002 2.6259999 9
7.125 -4.5209999 2.6830001 9
7.0180001 -4.4330001 2.619 9
7.0570002 -4.4699998 2.7190001 9
7.0970001 -4.4990001 2.681 9
7.0229998 -4.441 2.684 9
7.0219998 -4.434 2.586 9
7.0910001 -4.4949999 2.7049999 9
7.0250001 -4.4390001 2.6259999 9
7.1329999 -4.5279999 2.7 9
7.0359998 -4.4429998 2.559 9
7.105 -4.506 2.6889999 9
7.0120001 -4.4239998 2.5550001 9
7.0650001 -4.4720001 2.661 9
7.0679998 -4.474 2.6489999 9
7.0510001 -4.4640002 2.691 9
7.0279999 -4.4439998 2.6730001 9
7.0630002 -4.4679999 2.6099999 9
7.0679998 -4.4710002 2.6040001 9
7.033 -4.447 2.664 9
7.1230001 -4.5219998 2.721 9
7.0580001 -4.4699998 2.697 9
7.0929999 -4.494 2.6559999 9
7.0809999 -4.4819999 2.6229999 9
7.0370002 -4.4439998 2.5699999 9
7.0469999 -4.4580002 2.6600001 9
7.1350002 -4.5300002 2.7049999 9
7.0960002 -4.4990001 2.6960001 9
7.0300002 -4.441 2.605 9
7.099 -4.5019999 2.7019999 9
7.0869999 -4.4920001 2.6960001 9
7.0710001 -4.474 2.6129999 9
7.0279999 -4.441 2.631 9
7.0939999 -4.4990001 2.7119999 9
7.0619998 -4.473 2.7049999 9
7.0149999 -4.4330001 2.655 9
7.098 -4.5009999 2.6960001 9
7.0929999 -4.4980001 2.7179999 9
7.0630002 -4.4660001 2.592 9
7.0689998 -4.4790001 2.704 9
7.0539999 -4.4640002 2.6630001 9
7.059 -4.4650002 2.6159999 9
7.079 -4.48 2.6159999 9
7.0500002 -4.4629998 2.7030001 9
7.1389999 -4.533 2.701 9
7.092 -4.494 2.678 9
7.0209999 -4.4320002 2.5769999 9
7.0489998 -4.4569998 2.6099999 9
7.0650001 -4.4710002 2.6429999 9
7.0819998 -4.487 2.6760001 9
7.0650001 -4.4749999 2.6949999 9
7.0229998 -4.4359999 2.6070001 9
7.1100001 -4.5089998 2.6760001 9
7.0320001 -4.4419999 2.5840001 9
7.0250001 -4.4429998 2.6860001 9
7.0240002 -4.4419999 2.6719999 9
7.059 -4.4710002 2.7 9
7.0809999 -4.487 2.6889999 9
7.0359998 -4.4450002 2.5910001 9
7.0689998 -4.4720001 2.602 9
7.0479999 -4.4530001 2.572 9
7.0640001 -4.4720001 2.6570001 9
7.1040001 -4.5040002 2.6760001 9
7.1149998 -4.5120001 2.675 9
7.0640001 -4.4699998 2.6400001 9
7.0279999 -4.4400001 2.6040001 9
7.0450001 -4.46 2.7060001 9
7.0419998 -4.4569998 2.6919999 9
7.0879998 -4.4910002 2.6760001 9
7.0689998 -4.48 2.72 9
7.0219998 -4.4390001 2.6600001 9
7.0320001 -4.4400001 2.556 9
7.0310001 -4.4489999 2.704 9
7.0999999 -4.5019999 2.6889999 9
7.0869999 -4.4889998 2.642 9
7.0570002 -4.4619999 2.608 9
7.0139999 -4.427 2.573 9
7.013 -4.4260001 2.5799999 9
7.0900002 -4.493 2.665 9
7.0339999 -4.448 2.658 9
7.073 -4.48 2.684 9
7.066 -4.4770002 2.707 9
7.02 -4.4330001 2.592 9
7.0310001 -4.4450002 2.6470001 9
7.0310001 -4.4439998 2.628 9
7.0139999 -4.4299998 2.6199999 9
7.0289998 -4.4460001 2.6830001 9
7.0890002 -4.493 2.6760001 9
7.0560002 -4.4660001 2.664 9
7.0339999 -4.448 2.645 9
7.0700002 -4.474 2.6270001 9
7.0760002 -4.4819999 2.6700001 9
7.0339999 -4.4419999 2.5669999 9
7.0840001 -4.4899998 2.707 9
7.105 -4.5040002 2.6589999 9
7.0289998 -4.4419999 2.632 9
7.0219998 -4.4330001 2.5669999 9
7.1529999 -4.546 2.7290001 9
7.0700002 -4.4749999 2.6459999 9
7.026 -4.441 2.6459999 9
7.0250001 -4.4359999 2.585 9
7.0500002 -4.4619999 2.6689999 9
7.0209999 -4.4419999 2.7149999 9
7.0170002 -4.428 2.559 9
7.0170002 -4.4390001 2.711 9
7.04 -4.4520001 2.6489999 9
7.112 -4.5100002 2.684 9
7.0689998 -4.4749999 2.6500001 9
7.0419998 -4.4530001 2.6329999 9
7.0110002 -4.421 2.52 9
7.04 -4.4489999 2.6029999 9
7.0679998 -4.4759998 2.678 9
7.0479999 -4.4629998 2.717 9
7.132 -4.5279999 2.714 9
7.0170002 -4.4330001 2.632 9
7.1090002 -4.5110002 2.7219999 9
7.0739999 -4.4770002 2.6329999 9
7.033 -4.448 2.6700001 9
7.0799999 -4.4840002 2.652 9
7.0479999 -4.461 2.684 9
7.0250001 -4.4380002 2.6170001 9
7.0929999 -4.4949999 2.671 9
7.1389999 -4.5339999 2.7160001 9
7.04 -4.4499998 2.622 9
7.0580001 -4.4619999 2.5880001 9
7.1020002 -4.5029998 2.678 9
7.0209999 -4.4299998 2.55 9
7.027 -4.4429998 2.6600001 9
7.0149999 -4.427 2.5699999 9
7.0840001 -4.4879999 2.6700001 9
7.131 -4.526 2.6960001 9
7.052 -4.4590001 2.609 9
7.0240002 -4.4429998 2.7049999 9
7.0349998 -4.4460001 2.6210001 9
7.039 -4.4450002 2.5599999 9
7.1160002 -4.5139999 2.6860001 9
7.039 -4.4559999 2.71 9
7.0279999 -4.4429998 2.641 9
7.0570002 -4.4619999 2.6010001 9
7.1560001 -4.5479999 2.7279999 9
7.013 -4.4219999 2.52 9
7.0619998 -4.4710002 2.6760001 9
7.0970001 -4.5009999 2.707 9
7.152 -4.5450001 2.721 9
7.013 -4.4260001 2.5780001 9
7.0349998 -4.4499998 2.674 9
7.0349998 -4.4429998 2.5710001 9
7.027 -4.4390001 2.609 9
7.0929999 -4.4970002 2.701 9
7.0910001 -4.494 2.6830001 9
7.0359998 -4.4530001 2.711 9
7.0219998 -4.4369998 2.635 9
7.0819998 -4.4840002 2.6329999 9
7.0300002 -4.4369998 2.5450001 9
7.0180001 -4.4330001 2.6259999 9
7.033 -4.4499998 2.6889999 9
7.0190001 -4.4310002 2.5829999 9
7.0570002 -4.4640002 2.618 9
7.0339999 -4.447 2.648 9
7.0489998 -4.4640002 2.7190001 9
7.0580001 -4.4679999 2.665 9
7.1350002 -4.5300002 2.7049999 9
7.0419998 -4.448 2.573 9
7.0149999 -4.427 2.563 9
7.039 -4.4520001 2.664 9
7.0960002 -4.5009999 2.7130001 9
7.0599999 -4.4720001 2.7079999 9
7.0300002 -4.4460001 2.6689999 9
7.0349998 -4.4460001 2.612 9
7.0650001 -4.474 2.6789999 9
7.0380001 -4.4499998 2.648 9
7.132 -4.5279999 2.7 9
7.1110001 -4.5100002 2.6819999 9
7.0630002 -4.4720001 2.6760001 9
7.0780001 -4.4860001 2.7060001 9
6.9619999 -4.3979998 2.5610001 9
6.9980001 -4.4200001 2.6040001 9
6.9860001 -4.414 2.5969999 9
7.0139999 -4.4349999 2.697 9
6.915 -4.3699999 2.516 9
6.927 -4.3759999 2.513 9
7.0019999 -4.4289999 2.6889999 9
6.902 -4.3629999 2.513 9
6.9840002 -4.4130001 2.6070001 9
6.9450002 -4.3860002 2.516 9
6.9689999 -4.4050002 2.602 9
7.0029998 -4.4159999 2.516 9
6.987 -4.4099998 2.536 9
6.9569998 -4.4000001 2.6170001 9
6.9580002 -4.3940001 2.54 9
6.9330001 -4.3829999 2.556 9
6.9829998 -4.415 2.6359999 9
7.0029998 -4.421 2.582 9
7.0019999 -4.4180002 2.5450001 9
6.9169998 -4.3730001 2.54 9
7.0040002 -4.427 2.6530001 9
6.9629998 -4.401 2.595 9
6.9829998 -4.4120002 2.602 9
7.0089998 -4.4330001 2.7 9
6.9749999 -4.4039998 2.553 9
7.0050001 -4.427 2.648 9
6.9790001 -4.4089999 2.5869999 9
6.9380002 -4.3870001 2.579 9
6.9889998 -4.4109998 2.5409999 9
6.9819999 -4.4159999 2.6500001 9
6.9489999 -4.3889999 2.5309999 9
6.9949999 -4.4159999 2.569 9
6.9530001 -4.3940001 2.563 9
7.0110002 -4.4310002 2.6559999 9
6.9879999 -4.415 2.602 9
7.0110002 -4.427 2.608 9
7.0050001 -4.4219999 2.5799999 9
6.9429998 -4.3899999 2.5880001 9
6.9369998 -4.3829999 2.533 9
6.993 -4.415 2.5680001 9
7.0029998 -4.421 2.5869999 9
6.9949999 -4.421 2.6289999 9
6.9619999 -4.4029999 2.6199999 9
6.9349999 -4.3829999 2.5510001 9
6.9899998 -4.4109998 2.5409999 9
6.96 -4.3979998 2.5650001 9
7.0089998 -4.421 2.5380001 9
6.9840002 -4.4120002 2.5999999 9
7.006 -4.4190001 2.533 9
6.9889998 -4.421 2.6700001 9
7.0050001 -4.4229999 2.592 9
6.9980001 -4.4180002 2.5699999 9
6.9499998 -4.3920002 2.5599999 9
6.9899998 -4.4130001 2.5669999 9
6.9520001 -4.395 2.5929999 9
6.9829998 -4.4089999 2.5569999 9
7.006 -4.4260001 2.6340001 9
6.9920001 -4.4130001 2.5569999 9
7.0029998 -4.4229999 2.612 9
7.0139999 -4.4330001 2.6659999 9
6.9650002 -4.4039998 2.6240001 9
7.007 -4.4200001 2.5369999 9
6.941 -4.3889999 2.589 9
7.0100002 -4.428 2.6289999 9
7.0040002 -4.4299998 2.694 9
6.9629998 -4.3979998 2.546 9
6.9559999 -4.3940001 2.546 9
7.0089998 -4.4260001 2.598 9
7.0100002 -4.421 2.5309999 9
6.9910002 -4.4180002 2.6199999 9
6.9860001 -4.415 2.6240001 9
6.9920001 -4.415 2.5739999 9
6.9619999 -4.3990002 2.5669999 9
6.9899998 -4.4099998 2.5309999 9
7.0050001 -4.4299998 2.6889999 9
6.9920001 -4.4159999 2.5899999 9
6.9980001 -4.4180002 2.566 9
6.947 -4.388 2.526 9
6.9299998 -4.3800001 2.5369999 9
6.994 -4.4200001 2.6289999 9
6.9390001 -4.3870001 2.566 9
6.98 -4.4120002 2.6159999 9
6.9429998 -4.388 2.5569999 9
6.9190001 -4.3740001 2.5409999 9
6.8990002 -4.362 2.5209999 9
7.0110002 -4.427 2.6070001 9
6.908 -4.3670001 2.5150001 9
6.993 -4.4120002 2.5320001 9
6.9499998 -4.388 2.5120001 9
6.9699998 -4.3990002 2.516 9
6.9809999 -4.4099998 2.586 9
6.902 -4.3639998 2.5250001 9
6.9109998 -4.369 2.5350001 9
6.9650002 -4.3990002 2.5510001 9
7.0009999 -4.4169998 2.5439999 9
6.9970002 -4.4239998 2.6689999 9
6.9190001 -4.3720002 2.513 9
6.994 -4.414 2.5580001 9
6.954 -4.3969998 2.598 9
6.967 -4.3990002 2.5309999 9
6.954 -4.3920002 2.533 9
6.9980001 -4.415 2.5339999 9
6.9770002 -4.4109998 2.6300001 9
6.9850001 -4.4109998 2.5739999 9
6.9790001 -4.4089999 2.5880001 9
6.974 -4.4070001 2.5940001 9
6.9720001 -4.4099998 2.641 9
6.9899998 -4.4099998 2.529 9
7.0110002 -4.434 2.701 9
6.9559999 -4.3920002 2.529 9
6.9949999 -4.4200001 2.6259999 9
6.974 -4.4089999 2.618 9
7.0149999 -4.4369998 2.7060001 9
6.993 -4.4169998 2.5910001 9
6.9920001 -4.4120002 2.5420001 9
6.9489999 -4.388 2.5120001 9
6.9380002 -4.3829999 2.529 9
6.96 -4.3959999 2.553 9
6.9829998 -4.4070001 2.5380001 9
6.9749999 -4.408 2.6059999 9
6.9720001 -4.408 2.622 9
6.973 -4.4029999 2.5480001 9
6.9250002 -4.3769999 2.5380001 9
7.0120001 -4.4299998 2.638 9
6.98 -4.4099998 2.5940001 9
6.9039998 -4.3649998 2.5239999 9
6.9520001 -4.3959999 2.6040001 9
6.9920001 -4.4130001 2.549 9
6.9770002 -4.4039998 2.5369999 9
