# .PCD v0.7 - Point Cloud Data file format
VERSION 0.7
FIELDS x y z label
SIZE 4 4 4 4
TYPE F F F U
COUNT 1 1 1 1
WIDTH 1587
HEIGHT 1
VIEWPOINT 0 0 0 1 0 0 0
POINTS 1587
DATA ascii
8.7299995 -8.3979998 2.0450001 9
8.7309999 -8.3999996 2.0139999 9
8.7299995 -8.3959999 2.033 9
8.7299995 -8.3979998 2.099 9
8.7309999 -8.4029999 2.0580001 9
8.7290001 -8.3929996 2.1129999 9
8.7299995 -8.3979998 2.1129999 9
8.7299995 -8.3979998 2.016 9
8.7309999 -8.4040003 2.0699999 9
8.7309999 -8.4040003 2.118 9
8.9680004 -8.4060001 1.924 9
8.9639997 -8.3900003 1.9400001 9
8.9549999 -8.3879995 1.91 9
8.9680004 -8.4090004 1.919 9
8.9650002 -8.401 1.923 9
8.9639997 -8.3929996 1.9349999 9
8.9639997 -8.3990002 1.924 9
8.9680004 -8.4020004 1.934 9
8.9639997 -8.3870001 1.944 9
8.9530001 -8.3800001 1.916 9
8.9700003 -8.4119997 1.918 9
8.96 -8.3830004 1.937 9
8.9619999 -8.3959999 1.9220001 9
8.9659996 -8.3889999 1.948 9
8.9639997 -8.3959999 1.955 9
8.96 -8.4049997 1.9579999 9
8.9639997 -8.4049997 1.947 9
8.9619999 -8.4069996 1.951 9
8.9610004 -8.4040003 1.957 9
8.9639997 -8.4029999 1.949 9
8.9659996 -8.4040003 1.944 9
8.9659996 -8.3879995 1.9529999 9
8.9779997 -8.3739996 2.1760001 9
8.9750004 -8.3800001 2.1600001 9
8.9659996 -8.3929996 2.119 9
8.9630003 -8.3909998 2.0220001 9
8.9720001 -8.3780003 2.095 9
8.9680004 -8.382 2.0550001 9
8.9619999 -8.3920002 2.0209999 9
8.9689999 -8.3879995 2.1159999 9
8.9659996 -8.3859997 2.059 9
8.9729996 -8.3780003 2.1159999 9
8.9680004 -8.3909998 2.128 9
8.9720001 -8.3809996 2.1170001 9
8.9729996 -8.3839998 2.1760001 9
8.9630003 -8.3879995 2.0090001 9
8.9630003 -8.3839998 1.9680001 9
8.9639997 -8.3920002 2.0680001 9
8.9680004 -8.3859997 2.089 9
8.9689999 -8.3870001 2.1170001 9
8.9549999 -8.4069996 2.0079999 9
8.9770002 -8.3739996 2.1659999 9
8.9639997 -8.3900003 2.04 9
8.9790001 -8.3760004 2.211 9
8.9659996 -8.3929996 2.1159999 9
8.967 -8.3830004 2.0350001 9
8.96 -8.401 2.0610001 9
8.9750004 -8.3769999 2.132 9
8.9560003 -8.4040003 2.026 9
8.9530001 -8.4069996 1.98 9
8.9589996 -8.3979998 2.016 9
8.9659996 -8.3870001 2.0669999 9
8.9659996 -8.3809996 1.9960001 9
8.9689999 -8.3870001 2.108 9
8.9639997 -8.3909998 2.053 9
8.9700003 -8.3850002 2.1259999 9
8.9720001 -8.3769999 2.0899999 9
8.9750004 -8.375 2.1259999 9
8.9589996 -8.3959999 1.99 9
8.9639997 -8.3830004 1.969 9
8.9639997 -8.3909998 2.0599999 9
8.9560003 -8.3999996 1.976 9
8.9630003 -8.3850002 1.9809999 9
8.9569998 -8.4020004 2.0090001 9
8.9560003 -8.401 1.993 9
8.9689999 -8.3889999 2.1470001 9
8.9700003 -8.3780003 2.0420001 9
8.967 -8.3809996 2.0190001 9
8.9580002 -8.3959999 1.987 9
8.9650002 -8.3920002 2.0880001 9
8.9639997 -8.3859997 1.999 9
8.9700003 -8.3789997 2.056 9
8.9610004 -8.401 2.076 9
8.9720001 -8.3809996 2.112 9
8.9709997 -8.3879995 2.152 9
8.9680004 -8.3859997 2.0940001 9
8.9729996 -8.3830004 2.148 9
8.9619999 -8.3920002 2.0190001 9
8.9650002 -8.3809996 1.98 9
8.9750004 -8.3809996 2.177 9
8.9610004 -8.3929996 2.0190001 9
8.9770002 -8.3789997 2.211 9
8.9549999 -8.4029999 1.976 9
8.9680004 -8.3859997 2.079 9
8.9799995 -8.3760004 2.2360001 9
8.9429998 -8.3570004 1.919 9
8.9429998 -8.3529997 1.927 9
8.9379997 -8.3479996 1.914 9
8.9420004 -8.3559999 1.916 9
8.9530001 -8.3669996 1.939 9
8.9420004 -8.3520002 1.924 9
8.9399996 -8.3540001 1.911 9
8.9460001 -8.3669996 1.9119999 9
8.9469995 -8.3570004 1.9349999 9
8.9490004 -8.3719997 1.913 9
8.948 -8.3590002 1.936 9
8.9499998 -8.375 1.913 9
8.9420004 -8.3590002 1.9119999 9
8.9790001 -8.368 2.2219999 9
8.9580002 -8.3479996 2.154 9
8.9549999 -8.3430004 2.164 9
8.9689999 -8.3629999 2.1500001 9
8.9709997 -8.3540001 2.2460001 9
8.9709997 -8.3710003 2.098 9
8.9530001 -8.3330002 2.2309999 9
8.9700003 -8.3760004 2.049 9
8.9689999 -8.3599997 2.1730001 9
8.9700003 -8.3699999 2.0999999 9
8.9619999 -8.3520002 2.1659999 9
8.9659996 -8.349 2.2309999 9
8.9659996 -8.3549995 2.1760001 9
8.9659996 -8.3629999 2.118 9
8.9569998 -8.3529997 2.0999999 9
8.9650002 -8.368 2.0610001 9
8.9589996 -8.3430004 2.207 9
8.9549999 -8.3439999 2.1570001 9
8.967 -8.3789997 1.994 9
8.9680004 -8.3559999 2.2 9
8.9519997 -8.335 2.197 9
8.96 -8.3409996 2.233 9
8.9650002 -8.3620005 2.1170001 9
8.974 -8.3629999 2.2060001 9
8.9560003 -8.342 2.1789999 9
8.9770002 -8.3710003 2.171 9
8.96 -8.3629999 2.052 9
8.9650002 -8.3690004 2.0550001 9
8.967 -8.3549995 2.1919999 9
8.974 -8.3710003 2.135 9
8.9689999 -8.375 2.05 9
8.9589996 -8.3430004 2.214 9
8.9700003 -8.3520002 2.2520001 9
8.9680004 -8.3610001 2.155 9
8.9619999 -8.3430004 2.2349999 9
8.9689999 -8.3660002 2.1240001 9
8.9750004 -8.3710003 2.151 9
8.9530001 -8.3369999 2.184 9
8.9759998 -8.3699999 2.1659999 9
8.9680004 -8.3500004 2.247 9
8.9530001 -8.3409996 2.1600001 9
8.9729996 -8.3699999 2.1359999 9
8.9759998 -8.3690004 2.1819999 9
8.9650002 -8.3669996 2.075 9
8.9770002 -8.3669996 2.2079999 9
8.9639997 -8.3459997 2.2349999 9
8.9610004 -8.3450003 2.214 9
8.9680004 -8.3540001 2.2160001 9
8.9650002 -8.3549995 2.177 9
8.9610004 -8.3430004 2.2290001 9
8.9540005 -8.3339996 2.224 9
8.9560003 -8.342 2.184 9
8.9659996 -8.3529997 2.201 9
8.9580002 -8.3409996 2.21 9
8.967 -8.3570004 2.1719999 9
8.9700003 -8.3640003 2.1600001 9
8.9639997 -8.3769999 1.974 9
8.9659996 -8.375 2.0120001 9
8.9630003 -8.3500004 2.1960001 9
8.9720001 -8.3610001 2.1919999 9
8.967 -8.3500004 2.2390001 9
8.9689999 -8.3590002 2.184 9
8.9639997 -8.3479996 2.224 9
8.9680004 -8.3760004 2.0309999 9
8.9630003 -8.3730001 1.999 9
8.9750004 -8.3710003 2.1459999 9
8.9659996 -8.3649998 2.0999999 9
8.9560003 -8.3409996 2.197 9
8.9650002 -8.3730001 2.0280001 9
8.9650002 -8.3599997 2.131 9
8.9750004 -8.3699999 2.164 9
8.9549999 -8.3450003 2.1530001 9
8.9659996 -8.3479996 2.237 9
8.9630003 -8.368 2.0420001 9
8.9700003 -8.3710003 2.095 9
8.9689999 -8.3559999 2.207 9
8.9689999 -8.3730001 2.063 9
8.9759998 -8.3690004 2.1760001 9
8.9540005 -8.342 2.1619999 9
8.9759998 -8.3660002 2.2119999 9
8.9569998 -8.3500004 2.132 9
8.9519997 -8.3369999 2.174 9
8.967 -8.3760004 2.0150001 9
8.9639997 -8.3549995 2.165 9
8.9700003 -8.3520002 2.25 9
8.9630003 -8.349 2.2 9
8.9650002 -8.3599997 2.125 9
8.9759998 -8.3640003 2.223 9
8.9549999 -8.3439999 2.1600001 9
8.9510002 -8.3479996 2.3180001 9
8.9519997 -8.3400002 2.2720001 9
8.9589996 -8.3500004 2.2939999 9
8.9530001 -8.3520002 2.329 9
8.9700003 -8.3559999 2.273 9
8.9689999 -8.3579998 2.2920001 9
8.9499998 -8.3310003 2.2379999 9
8.974 -8.3610001 2.283 9
8.9589996 -8.342 2.2520001 9
8.9680004 -8.3549995 2.2780001 9
8.9619999 -8.3520002 2.2880001 9
8.9610004 -8.3509998 2.289 9
8.9639997 -8.3540001 2.2880001 9
8.9530001 -8.335 2.2479999 9
8.9619999 -8.3549995 2.306 9
8.9549999 -8.3369999 2.2449999 9
8.9569998 -8.3439999 2.276 9
8.9720001 -8.3559999 2.2650001 9
8.9490004 -8.3330002 2.25 9
8.9510002 -8.3500004 2.3299999 9
8.9630003 -8.3450003 2.25 9
8.9630003 -8.3579998 2.312 9
8.9589996 -8.3479996 2.2869999 9
8.9659996 -8.3540001 2.2820001 9
8.974 -8.3620005 2.289 9
8.9569998 -8.3439999 2.2709999 9
8.9610004 -8.3540001 2.3039999 9
8.9429998 -8.3339996 2.082 9
8.9510002 -8.3430004 2.1110001 9
8.941 -8.3479996 1.927 9
8.9569998 -8.3690004 1.96 9
8.9499998 -8.349 2.046 9
8.9420004 -8.3339996 2.069 9
8.9510002 -8.3529997 2.0280001 9
8.9560003 -8.3579998 2.0439999 9
8.9580002 -8.3699999 1.954 9
8.9440002 -8.3380003 2.0550001 9
8.9549999 -8.3660002 1.956 9
8.9540005 -8.3540001 2.049 9
8.9499998 -8.3430004 2.0969999 9
8.9440002 -8.3389997 2.0599999 9
8.9499998 -8.3479996 2.046 9
8.9530001 -8.3520002 2.056 9
8.9519997 -8.3450003 2.109 9
8.9490004 -8.3559999 1.972 9
8.9429998 -8.3290005 2.1329999 9
8.9610004 -8.375 1.96 9
8.9460001 -8.3500004 1.969 9
8.9510002 -8.3479996 2.069 9
8.9309998 -8.3339996 1.926 9
8.9549999 -8.3549995 2.059 9
8.9589996 -8.3640003 2.0280001 9
8.9420004 -8.3389997 2.029 9
8.9440002 -8.3369999 2.0669999 9
8.9519997 -8.3590002 1.9809999 9
8.948 -8.3330002 2.1530001 9
8.9569998 -8.3669996 1.975 9
8.9639997 -8.3760004 1.978 9
8.9449997 -8.3400002 2.049 9
8.9499998 -8.3520002 2.0190001 9
8.9469995 -8.3280001 2.1949999 9
8.9490004 -8.3459997 2.053 9
8.948 -8.3339996 2.151 9
8.948 -8.3330002 2.1630001 9
8.9370003 -8.3360004 1.985 9
8.941 -8.3400002 1.998 9
8.9460001 -8.3380003 2.0910001 9
8.9460001 -8.3299999 2.168 9
8.9469995 -8.3369999 2.1170001 9
8.9490004 -8.3470001 2.0409999 9
8.9569998 -8.3649998 1.997 9
8.9350004 -8.3389997 1.926 9
8.9560003 -8.3599997 2.026 9
8.948 -8.3409996 2.0899999 9
8.9449997 -8.3299999 2.154 9
8.9440002 -8.3430004 2.0190001 9
8.9460001 -8.3509998 1.959 9
8.9499998 -8.3509998 2.023 9
8.9449997 -8.335 2.102 9
8.9569998 -8.3599997 2.036 9
8.9429998 -8.342 2.003 9
8.9469995 -8.3529997 1.96 9
8.9490004 -8.335 2.1589999 9
8.9510002 -8.3520002 2.033 9
8.948 -8.3559999 1.95 9
8.9490004 -8.3400002 2.1059999 9
8.9429998 -8.3330002 2.0880001 9
8.941 -8.3430004 1.975 9
8.9449997 -8.3450003 2.003 9
8.9449997 -8.3380003 2.073 9
8.9560003 -8.3559999 2.059 9
8.9469995 -8.3470001 2.023 9
8.9589996 -8.3640003 2.0280001 9
8.9440002 -8.342 2.0220001 9
8.9429998 -8.3290005 2.131 9
8.9420004 -8.342 1.998 9
8.9510002 -8.342 2.122 9
8.9490004 -8.3479996 2.0320001 9
8.9510002 -8.3470001 2.0739999 9
8.9519997 -8.3599997 1.978 9
8.9429998 -8.3500004 1.9400001 9
8.9510002 -8.349 2.056 9
8.9560003 -8.3620005 2.0139999 9
8.941 -8.3430004 1.9809999 9
8.9619999 -8.3710003 2.0020001 9
8.941 -8.3319998 2.069 9
8.948 -8.3430004 2.076 9
8.9449997 -8.3339996 2.1210001 9
8.9549999 -8.3509998 2.095 9
8.9379997 -8.3389997 1.964 9
8.948 -8.3559999 1.944 9
8.9610004 -8.3719997 1.987 9
8.9519997 -8.3470001 2.0899999 9
8.9359999 -8.3389997 1.939 9
8.9619999 -8.3760004 1.965 9
8.9610004 -8.3719997 1.983 9
8.9320002 -8.335 1.923 9
8.948 -8.3310003 2.2809999 9
8.948 -8.3319998 2.277 9
8.9490004 -8.3360004 2.276 9
8.948 -8.335 2.3080001 9
8.9490004 -8.3409996 2.3110001 9
8.9469995 -8.3310003 2.3399999 9
8.948 -8.3330002 2.3559999 9
8.9490004 -8.3380003 2.306 9
8.9490004 -8.3389997 2.289 9
8.9469995 -8.3290005 2.3010001 9
8.9499998 -8.3439999 2.332 9
8.9490004 -8.3380003 2.3050001 9
8.9490004 -8.3400002 2.332 9
8.948 -8.3369999 2.359 9
8.9490004 -8.342 2.348 9
8.9469995 -8.3269997 2.256 9
8.948 -8.3319998 2.2909999 9
8.7449999 -8.3730001 2.049 9
8.7539997 -8.3540001 2.1159999 9
8.7379999 -8.3780003 2.096 9
8.7270002 -8.3850002 2.177 9
8.7399998 -8.3769999 2.0840001 9
8.7620001 -8.3459997 2.0799999 9
8.7320004 -8.3950005 2.0050001 9
8.7379999 -8.3660002 2.2090001 9
8.7550001 -8.3549995 2.082 9
8.7709999 -8.3319998 2.098 9
8.743 -8.3640003 2.1570001 9
8.7419996 -8.3629999 2.1889999 9
8.7449999 -8.375 2.0239999 9
8.7349997 -8.3769999 2.145 9
8.7349997 -8.3710003 2.211 9
8.757 -8.349 2.1240001 9
8.7360001 -8.3719997 2.181 9
8.7609997 -8.3470001 2.0769999 9
8.7440004 -8.3710003 2.0699999 9
8.7399998 -8.3649998 2.194 9
8.7299995 -8.3950005 2.0320001 9
8.7659998 -8.3409996 2.0739999 9
8.7379999 -8.375 2.118 9
8.743 -8.3620005 2.1930001 9
8.7299995 -8.3950005 2.033 9
8.7589998 -8.3479996 2.1070001 9
8.757 -8.3540001 2.0769999 9
8.7329998 -8.3859997 2.079 9
8.7270002 -8.382 2.2130001 9
8.7510004 -8.3570004 2.1159999 9
8.7290001 -8.3800001 2.1919999 9
8.743 -8.3710003 2.095 9
8.7639999 -8.342 2.089 9
8.7460003 -8.3640003 2.1210001 9
8.7290001 -8.3760004 2.237 9
8.7299995 -8.3950005 2.033 9
8.7580004 -8.3459997 2.1270001 9
8.7290001 -8.3859997 2.138 9
8.7340002 -8.3769999 2.151 9
8.7349997 -8.375 2.164 9
8.7349997 -8.3839998 2.0780001 9
8.7670002 -8.3380003 2.0799999 9
8.7399998 -8.3800001 2.05 9
8.7510004 -8.3540001 2.1489999 9
8.7259998 -8.3800001 2.233 9
8.7419996 -8.3719997 2.098 9
8.7379999 -8.3839998 2.03 9
8.7349997 -8.3760004 2.161 9
8.7419996 -8.3789997 2.0239999 9
8.7489996 -8.3610001 2.112 9
8.7299995 -8.3780003 2.2090001 9
8.7340002 -8.3920002 2.0050001 9
8.7620001 -8.342 2.1099999 9
8.7580004 -8.3520002 2.0810001 9
8.7340002 -8.382 2.1070001 9
8.7349997 -8.3789997 2.1259999 9
8.7609997 -8.3470001 2.079 9
8.7419996 -8.3739996 2.0769999 9
8.7460003 -8.3669996 2.0880001 9
8.7539997 -8.3590002 2.049 9
8.7290001 -8.3780003 2.2190001 9
8.7370005 -8.3879995 2.0150001 9
8.7460003 -8.3640003 2.1259999 9
8.7370005 -8.3739996 2.1500001 9
8.75 -8.3579998 2.122 9
8.7370005 -8.3699999 2.1760001 9
8.7460003 -8.3640003 2.1199999 9
8.7270002 -8.3830004 2.197 9
8.743 -8.3669996 2.1329999 9
8.7309999 -8.382 2.151 9
8.7440004 -8.3710003 2.0840001 9
8.7639999 -8.3450003 2.0699999 9
8.7340002 -8.3929996 2.006 9
8.7449999 -8.3669996 2.102 9
8.75 -8.3620005 2.0899999 9
8.757 -8.3509998 2.0999999 9
8.7399998 -8.3649998 2.188 9
8.7309999 -8.382 2.141 9
8.7399998 -8.3739996 2.1140001 9
8.7320004 -8.3889999 2.0610001 9
8.7399998 -8.3809996 2.029 9
8.7650003 -8.3400002 2.0940001 9
8.7360001 -8.3739996 2.168 9
8.7370005 -8.368 2.204 9
8.7340002 -8.3929996 2.0050001 9
8.7440004 -8.368 2.108 9
8.7440004 -8.375 2.036 9
8.7360001 -8.368 2.2119999 9
8.7370005 -8.375 2.142 9
8.7449999 -8.3699999 2.0710001 9
8.7720003 -8.3310003 2.0869999 9
8.7390003 -8.3789997 2.063 9
8.743 -8.3690004 2.105 9
8.7659998 -8.3400002 2.0829999 9
8.7530003 -8.3570004 2.098 9
8.7519999 -8.3549995 2.1199999 9
8.7419996 -8.3760004 2.0550001 9
8.743 -8.375 2.0610001 9
8.7449999 -8.3739996 2.029 9
8.7279997 -8.3859997 2.145 9
8.7489996 -8.3640003 2.0840001 9
8.7539997 -8.3730001 1.962 9
8.7690001 -8.3529997 1.962 9
8.7390003 -8.3870001 2 9
8.7580004 -8.3640003 1.985 9
8.7390003 -8.3870001 1.995 9
8.7580004 -8.3579998 2.029 9
8.7349997 -8.3929996 1.987 9
8.7659998 -8.3570004 1.9680001 9
8.7670002 -8.3409996 2.066 9
8.757 -8.3660002 1.977 9
8.7720003 -8.3409996 2.0150001 9
8.7709999 -8.342 2.0209999 9
8.776 -8.3400002 1.99 9
8.7740002 -8.342 1.993 9
8.7679996 -8.3500004 1.995 9
8.7360001 -8.3900003 1.999 9
8.7639999 -8.3559999 1.985 9
8.7779999 -8.3409996 1.959 9
8.7580004 -8.3649998 1.973 9
8.7620001 -8.3610001 1.976 9
8.7370005 -8.3920002 1.9859999 9
8.7720003 -8.3509998 1.946 9
8.7539997 -8.3710003 1.969 9
8.7690001 -8.3409996 2.039 9
8.7700005 -8.3369999 2.059 9
8.7740002 -8.3389997 2.013 9
8.7650003 -8.3450003 2.0569999 9
8.7790003 -8.3330002 2.006 9
8.776 -8.3450003 1.956 9
8.7589998 -8.3669996 1.9529999 9
8.7690001 -8.3500004 1.985 9
8.743 -8.3850002 1.977 9
8.7700005 -8.3470001 1.9910001 9
8.783 -8.3360004 1.952 9
8.7749996 -8.3299999 2.0680001 9
8.7609997 -8.3599997 1.9910001 9
8.7639999 -8.3610001 1.947 9
8.7720003 -8.3459997 1.983 9
8.7559996 -8.3620005 2.0139999 9
8.7740002 -8.3280001 2.085 9
8.7740002 -8.3310003 2.069 9
8.7709999 -8.335 2.066 9
8.7700005 -8.3549995 1.942 9
8.743 -8.3850002 1.974 9
8.7600002 -8.3570004 2.0109999 9
8.7740002 -8.3500004 1.943 9
8.7580004 -8.3590002 2.0220001 9
8.7390003 -8.3850002 2.01 9
8.7629995 -8.3590002 1.975 9
8.7770004 -8.3389997 1.9910001 9
8.7779999 -8.342 1.955 9
8.7700005 -8.3430004 2.0239999 9
8.7609997 -8.3590002 1.993 9
8.7740002 -8.3450003 1.975 9
8.7600002 -8.3549995 2.03 9
8.7559996 -8.3579998 2.043 9
8.7670002 -8.3479996 2.0139999 9
8.7419996 -8.3850002 1.982 9
8.7679996 -8.3400002 2.059 9
8.7790003 -8.3369999 1.985 9
8.7600002 -8.3579998 2.007 9
8.7530003 -8.3629999 2.0320001 9
8.7709999 -8.3500004 1.964 9
8.7489996 -8.375 1.984 9
8.757 -8.3610001 2.0179999 9
8.7480001 -8.3719997 2.0190001 9
8.7709999 -8.3509998 1.9579999 9
8.7460003 -8.382 1.971 9
8.7480001 -8.3800001 1.9680001 9
8.7469997 -8.3780003 1.987 9
8.7659998 -8.3590002 1.947 9
8.7559996 -8.3699999 1.959 9
8.7779999 -8.3290005 2.277 9
8.7279997 -8.3769999 2.253 9
8.7609997 -8.3459997 2.273 9
8.7290001 -8.3760004 2.253 9
8.7770004 -8.3310003 2.2820001 9
8.7690001 -8.3389997 2.313 9
8.7659998 -8.3380003 2.168 9
8.7399998 -8.3649998 2.2290001 9
8.7390003 -8.3660002 2.2420001 9
8.7749996 -8.3299999 2.2060001 9
8.7519999 -8.3540001 2.2609999 9
8.7440004 -8.3610001 2.2149999 9
8.7550001 -8.349 2.1949999 9
8.743 -8.3629999 2.2550001 9
8.7609997 -8.3459997 2.2620001 9
8.7749996 -8.3310003 2.2449999 9
8.7690001 -8.3339996 2.135 9
8.7609997 -8.3439999 2.214 9
8.7690001 -8.3400002 2.3099999 9
8.7370005 -8.3669996 2.227 9
8.7709999 -8.3339996 2.1889999 9
8.7519999 -8.3540001 2.253 9
8.7600002 -8.3430004 2.142 9
8.7650003 -8.3389997 2.171 9
8.7340002 -8.3710003 2.2320001 9
8.7449999 -8.3599997 2.2149999 9
8.7790003 -8.3290005 2.2850001 9
8.7329998 -8.3730001 2.2520001 9
8.776 -8.3280001 2.142 9
8.7639999 -8.342 2.237 9
8.7539997 -8.3500004 2.165 9
8.757 -8.3479996 2.2060001 9
8.7609997 -8.3459997 2.267 9
8.7480001 -8.3570004 2.2019999 9
8.7559996 -8.3500004 2.2639999 9
8.7550001 -8.3509998 2.276 9
8.7659998 -8.3400002 2.223 9
8.7580004 -8.3479996 2.2290001 9
8.7620001 -8.3439999 2.2590001 9
8.7659998 -8.3389997 2.1819999 9
8.7550001 -8.3520002 2.2679999 9
8.7659998 -8.3389997 2.233 9
8.776 -8.3310003 2.2520001 9
8.7469997 -8.3590002 2.266 9
8.7729998 -8.3339996 2.263 9
8.7720003 -8.3360004 2.3050001 9
8.7690001 -8.3369999 2.2260001 9
8.7600002 -8.3450003 2.1860001 9
8.7469997 -8.3570004 2.187 9
8.7749996 -8.3330002 2.2839999 9
8.7279997 -8.3769999 2.2490001 9
8.776 -8.3290005 2.1949999 9
8.7740002 -8.3290005 2.1270001 9
8.7379999 -8.3669996 2.247 9
8.7740002 -8.3299999 2.145 9
8.7740002 -8.3319998 2.233 9
8.7740002 -8.3319998 2.234 9
8.7379999 -8.3669996 2.2539999 9
8.7539997 -8.3520002 2.2609999 9
8.7729998 -8.3319998 2.1960001 9
8.7580004 -8.3459997 2.1760001 9
8.7670002 -8.3400002 2.2679999 9
8.7600002 -8.3479996 2.302 9
8.7489996 -8.3559999 2.244 9
8.7620001 -8.3450003 2.283 9
8.7559996 -8.3500004 2.2479999 9
8.7340002 -8.3699999 2.224 9
8.7559996 -8.3479996 2.1930001 9
8.7419996 -8.3640003 2.2609999 9
8.7770004 -8.3290005 2.23 9
8.7629995 -8.3439999 2.279 9
8.7399998 -8.3640003 2.2179999 9
8.7709999 -8.3330002 2.1719999 9
8.7489996 -8.3549995 2.191 9
8.7589998 -8.3479996 2.2839999 9
8.7729998 -8.3310003 2.1470001 9
8.7620001 -8.3409996 2.131 9
8.7399998 -8.3649998 2.217 9
8.7749996 -8.3299999 2.201 9
8.75 -8.3529997 2.1830001 9
8.7530003 -8.3520002 2.1930001 9
8.7749996 -8.3330002 2.2939999 9
8.7729998 -8.335 2.3099999 9
8.7729998 -8.3360004 2.306 9
8.7620001 -8.3450003 2.2780001 9
8.7659998 -8.3400002 2.25 9
8.7480001 -8.3579998 2.2590001 9
8.7410002 -8.3649998 2.263 9
8.776 -8.3299999 2.204 9
8.7559996 -8.3500004 2.277 9
8.7679996 -8.3380003 2.2360001 9
8.9020004 -8.3339996 1.9119999 9
8.8889999 -8.3299999 2.1110001 9
8.9040003 -8.3330002 1.962 9
8.9239998 -8.3299999 2.0510001 9
8.8479996 -8.3339996 1.967 9
8.8839998 -8.3339996 1.932 9
8.8409996 -8.3339996 1.988 9
8.9379997 -8.3280001 2.1010001 9
8.9390001 -8.3280001 2.141 9
8.9309998 -8.3280001 2.128 9
8.8660002 -8.3319998 2.0220001 9
8.9169998 -8.3330002 1.925 9
8.9209995 -8.3330002 1.9119999 9
8.8559999 -8.335 1.934 9
8.8850002 -8.3319998 2.0339999 9
8.9040003 -8.3319998 1.964 9
8.9259996 -8.3299999 2.0569999 9
8.9049997 -8.3299999 2.0610001 9
8.8950005 -8.3319998 1.9809999 9
8.9200001 -8.3299999 2.0369999 9
8.842 -8.3330002 2.0109999 9
8.908 -8.3330002 1.929 9
8.8950005 -8.3319998 1.987 9
8.9370003 -8.3280001 2.102 9
8.8660002 -8.3319998 2.0450001 9
8.8479996 -8.3339996 1.959 9
8.8690004 -8.3339996 1.9579999 9
8.8959999 -8.3299999 2.075 9
8.8610001 -8.3339996 1.97 9
8.8970003 -8.3319998 1.9910001 9
8.9300003 -8.3290005 2.076 9
8.9309998 -8.3280001 2.1340001 9
8.8570004 -8.3339996 1.973 9
8.8999996 -8.3330002 1.9349999 9
8.9370003 -8.3280001 2.1199999 9
8.8789997 -8.3310003 2.082 9
8.9350004 -8.3280001 2.132 9
8.79 -8.3369999 1.92 9
8.8260002 -8.335 1.965 9
8.9060001 -8.3339996 1.911 9
8.9359999 -8.3280001 2.1110001 9
8.8959999 -8.3290005 2.122 9
8.8839998 -8.3330002 1.9630001 9
8.8719997 -8.3319998 2.0569999 9
8.9300003 -8.3269997 2.187 9
8.908 -8.3299999 2.073 9
8.8590002 -8.335 1.933 9
8.941 -8.3260002 2.1949999 9
8.868 -8.3319998 2.03 9
8.8940001 -8.3310003 2.0350001 9
8.9060001 -8.3310003 2.0150001 9
8.9350004 -8.3299999 2.0450001 9
8.8999996 -8.3319998 1.97 9
8.9420004 -8.3260002 2.2049999 9
8.8870001 -8.3310003 2.0539999 9
8.9169998 -8.3290005 2.1010001 9
8.8719997 -8.3330002 1.984 9
8.9020004 -8.3330002 1.943 9
8.9259996 -8.3269997 2.1800001 9
8.8950005 -8.3339996 1.918 9
8.8509998 -8.3330002 2.0120001 9
8.8929996 -8.3299999 2.1010001 9
8.8809996 -8.3319998 2.043 9
8.8500004 -8.3339996 1.972 9
8.8500004 -8.335 1.944 9
8.9259996 -8.3310003 2.0220001 9
8.8629999 -8.3330002 1.9809999 9
8.8570004 -8.3330002 2.0090001 9
8.8500004 -8.3339996 1.956 9
8.8870001 -8.3330002 1.988 9
8.9180002 -8.3290005 2.1059999 9
8.908 -8.3299999 2.0580001 9
8.9239998 -8.3280001 2.1630001 9
8.9049997 -8.3330002 1.933 9
8.8299999 -8.335 1.949 9
8.901 -8.3319998 2.0079999 9
8.8920002 -8.3310003 2.0409999 9
8.8800001 -8.3330002 1.979 9
8.9180002 -8.3310003 2.016 9
8.8500004 -8.3339996 1.972 9
8.9119997 -8.3290005 2.108 9
8.934 -8.3280001 2.1359999 9
8.8950005 -8.3299999 2.079 9
8.8780003 -8.3319998 2.027 9
8.8999996 -8.3319998 2.006 9
8.8699999 -8.3339996 1.965 9
8.882 -8.3339996 1.931 9
8.8839998 -8.3310003 2.056 9
8.8030005 -8.3360004 1.933 9
8.8950005 -8.3299999 2.1070001 9
8.9250002 -8.3299999 2.062 9
8.8249998 -8.335 1.9680001 9
8.9359999 -8.3280001 2.105 9
8.8879995 -8.3330002 1.9579999 9
8.9370003 -8.3290005 2.0769999 9
8.9200001 -8.3330002 1.9119999 9
8.9110003 -8.3310003 2.0079999 9
8.8909998 -8.3330002 1.936 9
8.8509998 -8.3339996 1.965 9
8.8030005 -8.3360004 1.934 9
8.9180002 -8.3290005 2.1259999 9
8.8839998 -8.3330002 1.948 9
8.875 -8.3330002 1.98 9
8.8610001 -8.3319998 2.033 9
8.8940001 -8.3310003 2.0510001 9
8.8719997 -8.3330002 1.985 9
8.9139996 -8.3310003 2.023 9
8.8690004 -8.3319998 2.0209999 9
8.868 -8.3339996 1.936 9
8.8450003 -8.3339996 1.959 9
8.8459997 -8.3330002 2.017 9
8.9429998 -8.3269997 2.1700001 9
8.934 -8.3269997 2.197 9
8.9219999 -8.3330002 1.936 9
8.9280005 -8.3299999 2.0309999 9
8.9280005 -8.3319998 1.942 9
8.8669996 -8.3330002 1.982 9
8.9250002 -8.3280001 2.128 9
8.8999996 -8.3330002 1.931 9
8.8319998 -8.3339996 1.98 9
8.9090004 -8.3290005 2.096 9
8.9219999 -8.3319998 1.9400001 9
8.8669996 -8.335 1.9220001 9
8.8889999 -8.3339996 1.926 9
8.9280005 -8.3280001 2.161 9
8.8809996 -8.3310003 2.0680001 9
8.8199997 -8.3360004 1.938 9
8.9289999 -8.3310003 1.9859999 9
8.8059998 -8.3360004 1.925 9
8.8920002 -8.3319998 2.007 9
8.8999996 -8.3319998 2.0120001 9
8.8760004 -8.3319998 2.016 9
8.9060001 -8.3319998 1.974 9
8.927 -8.3319998 1.97 9
8.9169998 -8.3280001 2.1500001 9
8.8290005 -8.3360004 1.927 9
8.8430004 -8.3330002 2.0109999 9
8.9259996 -8.3310003 2.0220001 9
8.7989998 -8.3369999 1.926 9
8.9390001 -8.3280001 2.1259999 9
8.9259996 -8.3280001 2.118 9
8.8369999 -8.3339996 2.003 9
8.8929996 -8.3299999 2.086 9
8.9259996 -8.3299999 2.0369999 9
8.8839998 -8.3319998 2.013 9
8.9209995 -8.3330002 1.921 9
8.8540001 -8.3339996 1.96 9
8.8430004 -8.335 1.946 9
8.9250002 -8.3330002 1.924 9
8.9130001 -8.3299999 2.0769999 9
8.8699999 -8.3339996 1.925 9
8.9020004 -8.3299999 2.0769999 9
8.9350004 -8.3280001 2.115 9
8.8640003 -8.3330002 2.003 9
8.8879995 -8.3310003 2.063 9
8.8140001 -8.3360004 1.936 9
8.8830004 -8.3339996 1.941 9
8.8149996 -8.3360004 1.943 9
8.9350004 -8.3280001 2.108 9
8.927 -8.3299999 2.039 9
8.8070002 -8.3360004 1.944 9
8.8439999 -8.3339996 1.974 9
8.9219999 -8.3319998 1.941 9
8.8900003 -8.3319998 2.0090001 9
8.8310003 -8.335 1.946 9
8.9200001 -8.3319998 1.954 9
8.8889999 -8.3299999 2.098 9
8.8970003 -8.3330002 1.962 9
8.7959995 -8.3369999 1.919 9
8.8839998 -8.3310003 2.0810001 9
8.8669996 -8.335 1.916 9
8.9359999 -8.3290005 2.0940001 9
8.8570004 -8.3330002 2.0309999 9
8.8470001 -8.3339996 1.961 9
8.8979998 -8.3310003 2.0439999 9
8.9239998 -8.3310003 1.999 9
8.8190002 -8.335 1.976 9
8.9200001 -8.3319998 1.974 9
8.8889999 -8.3330002 1.977 9
8.9060001 -8.3299999 2.0899999 9
8.8249998 -8.335 1.952 9
8.8149996 -8.3360004 1.949 9
8.8579998 -8.3339996 1.947 9
8.9060001 -8.3299999 2.0810001 9
8.941 -8.3269997 2.171 9
8.8870001 -8.3330002 1.95 9
8.8999996 -8.3319998 1.983 9
8.8690004 -8.335 1.92 9
8.8430004 -8.335 1.9529999 9
8.9060001 -8.3310003 2.0420001 9
8.8950005 -8.3310003 2.0250001 9
8.9209995 -8.3319998 1.982 9
8.9209995 -8.3319998 1.947 9
8.9069996 -8.3310003 2.04 9
8.8970003 -8.3290005 2.1229999 9
8.8780003 -8.3339996 1.943 9
8.8929996 -8.3310003 2.056 9
8.8249998 -8.335 1.942 9
8.9359999 -8.3280001 2.1500001 9
8.9390001 -8.3269997 2.1500001 9
8.927 -8.3310003 1.979 9
8.9099998 -8.3319998 1.979 9
8.9440002 -8.3260002 2.188 9
8.934 -8.3269997 2.191 9
8.9230003 -8.3299999 2.063 9
8.9300003 -8.3280001 2.1370001 9
8.8269997 -8.335 1.966 9
8.9180002 -8.3319998 1.984 9
8.8479996 -8.3330002 2.016 9
8.8710003 -8.3339996 1.938 9
8.9160004 -8.3330002 1.939 9
8.9350004 -8.3290005 2.0639999 9
8.9250002 -8.3310003 2.007 9
8.8760004 -8.3319998 2.0050001 9
8.934 -8.3310003 1.999 9
8.8970003 -8.3319998 2 9
8.9230003 -8.3319998 1.973 9
8.8479996 -8.335 1.952 9
8.8769999 -8.3330002 1.977 9
8.8999996 -8.3310003 2.023 9
8.927 -8.3319998 1.941 9
8.9119997 -8.3299999 2.0699999 9
8.8649998 -8.335 1.916 9
8.9280005 -8.3310003 1.998 9
8.8850002 -8.3280001 2.151 9
8.8830004 -8.3299999 2.1059999 9
8.9370003 -8.3260002 2.214 9
8.7880001 -8.3290005 2.0680001 9
8.776 -8.3280001 2.0880001 9
8.9420004 -8.3260002 2.217 9
8.8319998 -8.3280001 2.1270001 9
8.8669996 -8.3280001 2.1300001 9
8.8979998 -8.3269997 2.164 9
8.8450003 -8.3330002 2.03 9
8.8079996 -8.3319998 2.0350001 9
8.8290005 -8.3339996 2 9
8.8430004 -8.3330002 2.0309999 9
8.8400002 -8.3330002 2.026 9
8.9060001 -8.3290005 2.145 9
8.8570004 -8.3310003 2.0639999 9
8.7980003 -8.3360004 1.946 9
8.8219995 -8.3310003 2.053 9
8.8509998 -8.3310003 2.0680001 9
8.8339996 -8.3299999 2.079 9
8.8070002 -8.3280001 2.095 9
8.8870001 -8.3290005 2.1329999 9
8.8330002 -8.3319998 2.0339999 9
8.8629999 -8.3299999 2.0940001 9
8.8789997 -8.3299999 2.102 9
8.7860003 -8.3339996 1.971 9
8.823 -8.3319998 2.0339999 9
8.8620005 -8.3280001 2.1270001 9
8.8400002 -8.3310003 2.0580001 9
8.8260002 -8.3299999 2.0829999 9
8.8789997 -8.3290005 2.1300001 9
8.8900003 -8.3280001 2.138 9
8.7889996 -8.3330002 2.003 9
8.9200001 -8.3269997 2.178 9
8.8210001 -8.3299999 2.072 9
8.9040003 -8.3280001 2.1619999 9
8.8299999 -8.3330002 2.013 9
8.7930002 -8.335 1.969 9
8.9139996 -8.3260002 2.194 9
8.8889999 -8.3280001 2.138 9
8.8570004 -8.3310003 2.073 9
8.8140001 -8.3280001 2.108 9
8.8079996 -8.3299999 2.0680001 9
8.8389997 -8.3310003 2.072 9
8.783 -8.3319998 2.006 9
8.882 -8.3290005 2.132 9
8.8179998 -8.3330002 2.013 9
8.8850002 -8.3290005 2.1329999 9
8.8970003 -8.3269997 2.177 9
8.7849998 -8.3330002 1.994 9
8.7980003 -8.3299999 2.066 9
8.8439999 -8.3280001 2.125 9
8.8950005 -8.3269997 2.164 9
8.8290005 -8.3290005 2.102 9
8.8999996 -8.3280001 2.1489999 9
8.8310003 -8.3290005 2.099 9
8.8509998 -8.3319998 2.052 9
8.8450003 -8.3299999 2.0929999 9
8.8950005 -8.3260002 2.1789999 9
8.8439999 -8.3269997 2.1370001 9
8.7959995 -8.3319998 2.0209999 9
8.8030005 -8.3339996 1.987 9
8.7919998 -8.3310003 2.0339999 9
8.8760004 -8.3269997 2.164 9
8.8540001 -8.3269997 2.1500001 9
8.8590002 -8.3299999 2.0929999 9
8.8800001 -8.3299999 2.1040001 9
8.8290005 -8.3299999 2.079 9
8.8039999 -8.3310003 2.0510001 9
8.8140001 -8.3330002 2.016 9
8.901 -8.3280001 2.1489999 9
8.7939997 -8.3299999 2.0539999 9
8.809 -8.3339996 1.982 9
8.8610001 -8.3310003 2.0710001 9
8.8140001 -8.335 1.9680001 9
8.8559999 -8.3299999 2.0829999 9
8.7889996 -8.3280001 2.0869999 9
8.8059998 -8.335 1.975 9
8.79 -8.3310003 2.0380001 9
8.8360004 -8.3280001 2.1159999 9
8.8760004 -8.3280001 2.132 9
8.7860003 -8.3299999 2.0650001 9
8.8190002 -8.3280001 2.1099999 9
8.9230003 -8.3269997 2.1900001 9
8.79 -8.3360004 1.933 9
8.8719997 -8.3290005 2.112 9
8.9359999 -8.3260002 2.2119999 9
8.8059998 -8.3280001 2.0969999 9
8.8509998 -8.3310003 2.063 9
8.7880001 -8.3299999 2.0569999 9
8.8170004 -8.3280001 2.115 9
8.7770004 -8.3299999 2.0539999 9
8.8149996 -8.3319998 2.029 9
8.8789997 -8.3299999 2.102 9
8.8690004 -8.3290005 2.1129999 9
8.8219995 -8.3280001 2.118 9
8.8129997 -8.3319998 2.0239999 9
8.8800001 -8.3290005 2.125 9
8.8170004 -8.3299999 2.063 9
8.8380003 -8.3299999 2.0810001 9
8.8430004 -8.3319998 2.049 9
8.9300003 -8.3260002 2.204 9
8.823 -8.3290005 2.0910001 9
8.8400002 -8.3280001 2.1300001 9
8.9239998 -8.3269997 2.1789999 9
8.8509998 -8.3319998 2.0409999 9
8.8129997 -8.3290005 2.0940001 9
8.7969999 -8.3319998 2.03 9
8.7869997 -8.3339996 1.9859999 9
8.842 -8.3269997 2.135 9
8.8950005 -8.3269997 2.1719999 9
8.9020004 -8.3280001 2.145 9
8.7849998 -8.3330002 1.9960001 9
8.7779999 -8.3299999 2.0450001 9
8.8369999 -8.3290005 2.105 9
8.8369999 -8.3299999 2.076 9
8.8210001 -8.3299999 2.073 9
8.7770004 -8.3280001 2.0880001 9
8.8179998 -8.3299999 2.069 9
8.7910004 -8.3339996 1.988 9
8.7980003 -8.3299999 2.0699999 9
8.8620005 -8.3299999 2.0880001 9
8.8409996 -8.3319998 2.036 9
8.8079996 -8.3280001 2.1029999 9
8.8739996 -8.3290005 2.125 9
8.8330002 -8.3330002 2.013 9
8.8719997 -8.3299999 2.109 9
8.7880001 -8.3280001 2.0969999 9
8.8380003 -8.3290005 2.105 9
8.8210001 -8.3330002 2.0179999 9
8.8280001 -8.3310003 2.066 9
8.7860003 -8.335 1.962 9
8.8280001 -8.3310003 2.0550001 9
8.8649998 -8.3280001 2.1389999 9
8.8859997 -8.3290005 2.118 9
8.7880001 -8.3310003 2.0450001 9
8.8710003 -8.3299999 2.098 9
8.8950005 -8.3290005 2.138 9
8.8269997 -8.3319998 2.0280001 9
8.7919998 -8.335 1.967 9
8.8059998 -8.3319998 2.03 9
8.8249998 -8.3310003 2.052 9
8.9259996 -8.3269997 2.184 9
8.8699999 -8.3299999 2.1029999 9
8.8909998 -8.3299999 2.1170001 9
8.7880001 -8.3319998 2.0120001 9
8.9280005 -8.3269997 2.1949999 9
8.7779999 -8.3299999 2.0539999 9
8.8129997 -8.3339996 1.99 9
8.8710003 -8.3299999 2.102 9
8.7910004 -8.3319998 2.0109999 9
8.7959995 -8.3330002 2.0090001 9
8.8929996 -8.3290005 2.122 9
8.8039999 -8.3299999 2.0569999 9
8.7779999 -8.3299999 2.0580001 9
8.8629999 -8.3310003 2.0739999 9
8.8450003 -8.3319998 2.046 9
8.7959995 -8.3280001 2.098 9
8.79 -8.3360004 1.934 9
8.8620005 -8.335 2.3710001 9
8.7889996 -8.3280001 2.3380001 9
8.849 -8.3310003 2.3570001 9
8.8219995 -8.3310003 2.352 9
8.8470001 -8.3290005 2.3529999 9
8.7849998 -8.3290005 2.339 9
8.8210001 -8.3339996 2.358 9
8.8360004 -8.3299999 2.352 9
8.868 -8.3299999 2.3599999 9
8.8050003 -8.3299999 2.3469999 9
8.915 -8.3310003 2.3710001 9
8.9040003 -8.3310003 2.369 9
8.79 -8.3299999 2.342 9
8.8339996 -8.3319998 2.3559999 9
8.8170004 -8.3360004 2.3629999 9
8.8079996 -8.3360004 2.3610001 9
8.8870001 -8.3290005 2.362 9
8.8970003 -8.3319998 2.3699999 9
8.8260002 -8.335 2.362 9
8.8199997 -8.3319998 2.3540001 9
8.8319998 -8.3360004 2.3670001 9
8.8179998 -8.3290005 2.3469999 9
8.7969999 -8.3319998 2.349 9
8.8559999 -8.3299999 2.3570001 9
8.9069996 -8.3310003 2.369 9
8.7919998 -8.3280001 2.2869999 9
8.8649998 -8.3269997 2.2060001 9
8.849 -8.3269997 2.184 9
8.8240004 -8.3269997 2.2739999 9
8.7910004 -8.3280001 2.1470001 9
8.8669996 -8.3269997 2.2460001 9
8.7910004 -8.3280001 2.1659999 9
8.8389997 -8.3269997 2.2920001 9
8.8319998 -8.3269997 2.1730001 9
8.8199997 -8.3269997 2.2130001 9
8.7980003 -8.3280001 2.119 9
8.7950001 -8.3280001 2.1110001 9
8.8800001 -8.3260002 2.1960001 9
8.7819996 -8.3280001 2.217 9
8.8900003 -8.3260002 2.188 9
8.7860003 -8.3280001 2.277 9
8.8190002 -8.3269997 2.2550001 9
8.8100004 -8.3269997 2.24 9
8.9110003 -8.3260002 2.24 9
8.7930002 -8.3280001 2.1240001 9
8.8540001 -8.3269997 2.266 9
8.8310003 -8.3269997 2.2920001 9
8.8470001 -8.3269997 2.1470001 9
8.8629999 -8.3269997 2.2309999 9
8.802 -8.3269997 2.273 9
8.8190002 -8.3269997 2.306 9
8.8000002 -8.3280001 2.1110001 9
8.8030005 -8.3280001 2.1229999 9
8.7969999 -8.3280001 2.276 9
8.8109999 -8.3269997 2.184 9
8.8360004 -8.3269997 2.1500001 9
8.8409996 -8.3269997 2.2460001 9
8.8330002 -8.3269997 2.187 9
8.7790003 -8.3280001 2.217 9
8.7980003 -8.3280001 2.227 9
8.7849998 -8.3280001 2.2920001 9
8.8260002 -8.3269997 2.168 9
8.7950001 -8.3280001 2.2739999 9
8.8299999 -8.3269997 2.24 9
8.8149996 -8.3269997 2.2179999 9
8.8850002 -8.3260002 2.25 9
8.9160004 -8.3260002 2.2149999 9
8.8059998 -8.3269997 2.2869999 9
8.9440002 -8.3260002 2.2249999 9
8.8369999 -8.3269997 2.2820001 9
8.802 -8.3280001 2.1489999 9
8.7860003 -8.3280001 2.2679999 9
8.8400002 -8.3269997 2.1919999 9
8.9280005 -8.3260002 2.23 9
8.783 -8.3280001 2.1240001 9
8.8269997 -8.3269997 2.2490001 9
8.7930002 -8.3280001 2.131 9
8.8459997 -8.3269997 2.221 9
8.783 -8.3280001 2.2609999 9
8.8009996 -8.3280001 2.164 9
8.8809996 -8.3260002 2.2609999 9
8.79 -8.3280001 2.312 9
8.7959995 -8.3280001 2.1919999 9
8.8739996 -8.3269997 2.1849999 9
8.8050003 -8.3269997 2.165 9
8.7989998 -8.3280001 2.1259999 9
8.8859997 -8.3260002 2.2019999 9
8.8549995 -8.3269997 2.197 9
8.7819996 -8.3280001 2.244 9
8.8140001 -8.3269997 2.2490001 9
8.8079996 -8.3269997 2.3069999 9
8.7930002 -8.3280001 2.164 9
8.849 -8.3269997 2.2160001 9
8.7939997 -8.3280001 2.1429999 9
8.8249998 -8.3269997 2.2590001 9
8.823 -8.3269997 2.1340001 9
8.7779999 -8.3280001 2.151 9
8.7790003 -8.3280001 2.161 9
8.835 -8.3269997 2.2820001 9
8.8509998 -8.3269997 2.2160001 9
8.8219995 -8.3269997 2.2349999 9
8.8369999 -8.3269997 2.253 9
8.8339996 -8.3269997 2.2509999 9
8.9169998 -8.3260002 2.211 9
8.8439999 -8.3269997 2.2420001 9
8.783 -8.3280001 2.286 9
8.8280001 -8.3269997 2.1470001 9
8.8120003 -8.3269997 2.21 9
8.802 -8.3280001 2.2750001 9
8.8979998 -8.3260002 2.197 9
8.7869997 -8.3280001 2.3280001 9
8.875 -8.3269997 2.2019999 9
8.8780003 -8.3260002 2.2550001 9
8.7860003 -8.3280001 2.1110001 9
8.8280001 -8.3269997 2.2119999 9
8.882 -8.3260002 2.221 9
8.8249998 -8.3269997 2.2049999 9
8.8109999 -8.3269997 2.138 9
8.8620005 -8.3269997 2.2309999 9
8.8699999 -8.3269997 2.23 9
8.8070002 -8.3269997 2.135 9
8.7790003 -8.3280001 2.1159999 9
8.7869997 -8.3280001 2.2869999 9
8.8900003 -8.3260002 2.2190001 9
8.8959999 -8.3260002 2.243 9
8.8240004 -8.3269997 2.161 9
8.9049997 -8.3260002 2.2460001 9
8.8649998 -8.3269997 2.26 9
8.8660002 -8.3269997 2.2490001 9
8.8070002 -8.3269997 2.2119999 9
8.8050003 -8.3269997 2.3150001 9
8.7860003 -8.3280001 2.108 9
8.8190002 -8.3269997 2.2980001 9
8.8140001 -8.3269997 2.2720001 9
8.8660002 -8.3269997 2.2679999 9
8.835 -8.3269997 2.1370001 9
8.809 -8.3269997 2.181 9
8.882 -8.3260002 2.2060001 9
8.8870001 -8.3260002 2.191 9
8.8280001 -8.3269997 2.2709999 9
8.8570004 -8.3269997 2.2360001 9
8.8629999 -8.3269997 2.2690001 9
8.8620005 -8.3269997 2.1659999 9
8.8649998 -8.3269997 2.2750001 9
8.802 -8.3280001 2.2290001 9
8.8280001 -8.3269997 2.191 9
8.8389997 -8.3269997 2.273 9
8.8590002 -8.3269997 2.1919999 9
8.8889999 -8.3260002 2.23 9
8.8000002 -8.3280001 2.26 9
8.79 -8.3280001 2.2739999 9
8.8730001 -8.3269997 2.26 9
8.9119997 -8.3260002 2.2260001 9
8.8100004 -8.3269997 2.177 9
8.7749996 -8.3280001 2.122 9
8.7869997 -8.3280001 2.2460001 9
8.8299999 -8.3269997 2.2390001 9
8.7989998 -8.3280001 2.194 9
8.9230003 -8.3260002 2.2090001 9
8.7770004 -8.3280001 2.1470001 9
8.835 -8.3269997 2.276 9
8.7810001 -8.3280001 2.161 9
8.7939997 -8.3280001 2.306 9
8.835 -8.3269997 2.194 9
8.8179998 -8.3269997 2.174 9
8.8179998 -8.3269997 2.152 9
8.7810001 -8.3280001 2.1159999 9
8.8219995 -8.3269997 2.227 9
8.8149996 -8.3269997 2.1830001 9
8.8540001 -8.3269997 2.2479999 9
8.8889999 -8.3260002 2.191 9
8.7939997 -8.3280001 2.214 9
8.9259996 -8.3260002 2.221 9
8.7819996 -8.3280001 2.102 9
8.8769999 -8.3269997 2.2509999 9
8.8249998 -8.3269997 2.148 9
8.8839998 -8.3260002 2.2550001 9
8.802 -8.3280001 2.1140001 9
8.7840004 -8.3280001 2.2980001 9
8.8990002 -8.3260002 2.194 9
8.8129997 -8.3269997 2.3080001 9
8.8009996 -8.3280001 2.151 9
8.8739996 -8.3269997 2.2690001 9
8.7930002 -8.3280001 2.2460001 9
8.8549995 -8.3269997 2.224 9
8.8389997 -8.3269997 2.211 9
8.8649998 -8.3269997 2.1930001 9
8.7980003 -8.3280001 2.2 9
8.809 -8.3269997 2.2639999 9
8.7770004 -8.3280001 2.1730001 9
8.79 -8.3280001 2.1199999 9
8.7980003 -8.3280001 2.2909999 9
8.9209995 -8.3260002 2.2179999 9
8.8339996 -8.3269997 2.2880001 9
8.8380003 -8.3269997 2.141 9
8.8210001 -8.3269997 2.2709999 9
8.823 -8.3269997 2.2479999 9
8.8520002 -8.3269997 2.174 9
8.7989998 -8.3280001 2.263 9
8.8500004 -8.3269997 2.1949999 9
8.8710003 -8.3269997 2.2639999 9
8.8620005 -8.3269997 2.22 9
8.8339996 -8.3269997 2.161 9
8.8809996 -8.3260002 2.2490001 9
8.8640003 -8.3269997 2.1989999 9
8.7919998 -8.3280001 2.214 9
8.8170004 -8.3269997 2.158 9
8.835 -8.3269997 2.279 9
8.8920002 -8.3260002 2.2550001 9
8.8850002 -8.3260002 2.2590001 9
8.9110003 -8.3260002 2.2360001 9
8.8479996 -8.3269997 2.175 9
8.79 -8.3280001 2.1459999 9
8.8269997 -8.3269997 2.289 9
8.835 -8.3269997 2.2590001 9
8.7919998 -8.3280001 2.119 9
8.8210001 -8.3269997 2.204 9
8.7810001 -8.3280001 2.306 9
8.7840004 -8.3280001 2.22 9
8.9239998 -8.3260002 2.2130001 9
8.8120003 -8.3269997 2.23 9
8.7860003 -8.3280001 2.2579999 9
8.8249998 -8.3269997 2.1329999 9
8.8269997 -8.3269997 2.168 9
8.8579998 -8.3269997 2.2609999 9
8.8570004 -8.3269997 2.1760001 9
8.8269997 -8.3269997 2.23 9
8.8649998 -8.3269997 2.2590001 9
8.8009996 -8.3280001 2.247 9
8.9090004 -8.3260002 2.2279999 9
8.8920002 -8.3260002 2.2030001 9
8.9099998 -8.3260002 2.2249999 9
8.8240004 -8.3269997 2.1300001 9
8.8009996 -8.3280001 2.2550001 9
8.8500004 -8.3280001 2.312 9
8.9329996 -8.3280001 2.3210001 9
8.9139996 -8.3260002 2.2490001 9
8.8859997 -8.3280001 2.3110001 9
8.8400002 -8.3280001 2.3150001 9
8.9029999 -8.3290005 2.3469999 9
8.9390001 -8.3290005 2.3380001 9
8.8459997 -8.3269997 2.3069999 9
8.8240004 -8.3269997 2.3139999 9
8.9239998 -8.3290005 2.359 9
8.8879995 -8.3269997 2.2880001 9
8.8140001 -8.3269997 2.3169999 9
8.915 -8.3269997 2.2909999 9
8.9320002 -8.3269997 2.263 9
8.9020004 -8.3290005 2.3629999 9
8.915 -8.3290005 2.3329999 9
8.7969999 -8.3280001 2.3369999 9
8.901 -8.3290005 2.359 9
8.9350004 -8.3280001 2.3269999 9
8.8800001 -8.3290005 2.346 9
8.9040003 -8.3269997 2.29 9
8.8549995 -8.3280001 2.3180001 9
8.8889999 -8.3269997 2.273 9
8.9219999 -8.3260002 2.244 9
8.9189997 -8.3290005 2.348 9
8.809 -8.3280001 2.323 9
8.8070002 -8.3280001 2.3380001 9
8.9420004 -8.3290005 2.342 9
8.9390001 -8.3269997 2.2920001 9
8.9230003 -8.3269997 2.28 9
8.835 -8.3269997 2.3139999 9
8.9379997 -8.3290005 2.3599999 9
8.9250002 -8.3260002 2.243 9
8.8870001 -8.3269997 2.2709999 9
8.9160004 -8.3269997 2.2939999 9
8.9309998 -8.3260002 2.2520001 9
8.8809996 -8.3280001 2.312 9
8.9280005 -8.3260002 2.2479999 9
8.8979998 -8.3269997 2.2709999 9
8.9280005 -8.3260002 2.2420001 9
8.8800001 -8.3269997 2.2939999 9
8.8809996 -8.3280001 2.3329999 9
8.9350004 -8.3290005 2.3469999 9
8.8640003 -8.3269997 2.299 9
8.8439999 -8.3280001 2.3340001 9
8.9189997 -8.3290005 2.3469999 9
8.8970003 -8.3269997 2.2679999 9
8.8470001 -8.3280001 2.3329999 9
8.9379997 -8.3280001 2.313 9
8.9399996 -8.3269997 2.286 9
8.9449997 -8.3269997 2.277 9
8.8529997 -8.3290005 2.3469999 9
8.9099998 -8.3290005 2.3440001 9
8.882 -8.3280001 2.3110001 9
8.9429998 -8.3260002 2.2290001 9
8.8430004 -8.3269997 2.303 9
8.8479996 -8.3280001 2.3199999 9
8.8830004 -8.3269997 2.2780001 9
8.8959999 -8.3269997 2.2850001 9
8.9230003 -8.3260002 2.257 9
8.9160004 -8.3269997 2.2820001 9
8.8839998 -8.3280001 2.306 9
8.8979998 -8.3280001 2.316 9
8.8540001 -8.3280001 2.329 9
8.9049997 -8.3269997 2.2690001 9
8.8450003 -8.3280001 2.3280001 9
8.8830004 -8.3269997 2.2820001 9
8.8610001 -8.3280001 2.336 9
8.9169998 -8.3269997 2.2620001 9
8.8769999 -8.3269997 2.299 9
8.8570004 -8.3269997 2.289 9
8.9309998 -8.3290005 2.329 9
8.8889999 -8.3269997 2.2839999 9
8.835 -8.3280001 2.342 9
8.9060001 -8.3269997 2.27 9
8.915 -8.3280001 2.316 9
8.8120003 -8.3280001 2.339 9
8.901 -8.3290005 2.359 9
8.8430004 -8.3269997 2.3 9
8.8669996 -8.3269997 2.2939999 9
8.9399996 -8.3290005 2.3369999 9
8.9060001 -8.3280001 2.3199999 9
8.9189997 -8.3290005 2.358 9
8.8170004 -8.3280001 2.3310001 9
8.9259996 -8.3269997 2.2620001 9
8.849 -8.3269997 2.3039999 9
8.9399996 -8.3290005 2.349 9
8.941 -8.3269997 2.263 9
8.9350004 -8.3280001 2.3280001 9
8.8719997 -8.3280001 2.3299999 9
8.8529997 -8.3269997 2.303 9
8.8459997 -8.3280001 2.3329999 9
8.868 -8.3280001 2.326 9
8.8079996 -8.3280001 2.3369999 9
8.875 -8.3280001 2.3239999 9
8.8959999 -8.3269997 2.286 9
8.9040003 -8.3290005 2.359 9
8.9090004 -8.3290005 2.3610001 9
8.908 -8.3280001 2.3099999 9
8.8990002 -8.3280001 2.3269999 9
8.9110003 -8.3280001 2.329 9
8.7910004 -8.3280001 2.3299999 9
8.823 -8.3269997 2.312 9
8.9390001 -8.3280001 2.3039999 9
8.9359999 -8.3299999 2.369 9
8.8439999 -8.3290005 2.3499999 9
8.9429998 -8.3260002 2.234 9
8.9320002 -8.3280001 2.3010001 9
8.8690004 -8.3269997 2.293 9
8.9300003 -8.3260002 2.2479999 9
8.8979998 -8.3269997 2.3010001 9
8.9329996 -8.3269997 2.2690001 9
8.9250002 -8.3280001 2.3010001 9
8.8500004 -8.3280001 2.345 9
8.9390001 -8.3280001 2.299 9
8.9429998 -8.3290005 2.355 9
8.8529997 -8.3280001 2.329 9
8.8730001 -8.3280001 2.335 9
8.9139996 -8.3269997 2.2909999 9
8.8789997 -8.3280001 2.309 9
8.8059998 -8.3280001 2.3380001 9
8.9250002 -8.3260002 2.247 9
8.9119997 -8.3290005 2.348 9
8.9460001 -8.3290005 2.3380001 9
8.8269997 -8.3269997 2.3069999 9
8.9790001 -8.4040003 2.1300001 9
8.9840002 -8.4020004 2.1570001 9
8.9809999 -8.3769999 2.2349999 9
8.9829998 -8.3999996 2.1600001 9
8.9840002 -8.3739996 2.2579999 9
8.9849997 -8.3719997 2.267 9
8.9860001 -8.408 2.145 9
8.9750004 -8.4069996 2.1059999 9
8.9750004 -8.401 2.128 9
8.9560003 -8.4099998 2.0309999 9
8.9849997 -8.3979998 2.174 9
8.9610004 -8.4040003 2.069 9
8.9790001 -8.3859997 2.1949999 9
8.9809999 -8.3780003 2.233 9
8.9809999 -8.375 2.243 9
8.9549999 -8.4090004 2.03 9
8.9829998 -8.4049997 2.145 9
8.9689999 -8.3970003 2.1210001 9
8.9610004 -8.4020004 2.075 9
8.9759998 -8.4040003 2.122 9
8.9849997 -8.3800001 2.2360001 9
8.9750004 -8.3879995 2.175 9
8.9650002 -8.4040003 2.0810001 9
8.9700003 -8.3950005 2.131 9
8.9610004 -8.4069996 2.0539999 9
8.9750004 -8.3850002 2.1830001 9
8.9829998 -8.4090004 2.131 9
8.9750004 -8.3950005 2.152 9
8.9840002 -8.4119997 2.122 9
8.9569998 -8.4069996 2.0420001 9
8.9659996 -8.4060001 2.079 9
8.9680004 -8.408 2.0799999 9
8.9689999 -8.4119997 2.069 9
8.9809999 -8.3789997 2.23 9
8.9849997 -8.3920002 2.1989999 9
8.9879999 -8.3950005 2.197 9
8.9820004 -8.3920002 2.1830001 9
8.9890003 -8.3990002 2.2839999 9
8.9790001 -8.3999996 2.296 9
8.9849997 -8.401 2.29 9
8.9809999 -8.4040003 2.296 9
8.9809999 -8.3999996 2.293 9
8.9829998 -8.3780003 2.2820001 9
8.9879999 -8.401 2.286 9
8.9860001 -8.3900003 2.2839999 9
8.9680004 -8.4069996 2.3110001 9
8.9790001 -8.4119997 2.3010001 9
8.9759998 -8.3850002 2.2920001 9
8.9809999 -8.3830004 2.286 9
8.9569998 -8.4099998 2.326 9
8.9879999 -8.3940001 2.2149999 9
8.9890003 -8.4029999 2.181 9
8.9890003 -8.4110003 2.1619999 9
8.9910002 -8.4110003 2.2679999 9
8.9860001 -8.3730001 2.2720001 9
8.9879999 -8.3990002 2.204 9
8.9890003 -8.3970003 2.244 9
8.9899998 -8.4040003 2.276 9
8.9899998 -8.3990002 2.2739999 9
8.9899998 -8.4029999 2.2809999 9
8.9890003 -8.3970003 2.267 9
8.9860001 -8.3780003 2.276 9
8.9899998 -8.4049997 2.2149999 9
8.9899998 -8.4060001 2.253 9
8.9899998 -8.4119997 2.158 9
8.9879999 -8.3940001 2.221 9
8.9890003 -8.408 2.171 9
8.9899998 -8.408 2.2 9
8.9890003 -8.3970003 2.2739999 9
8.9879999 -8.4020004 2.178 9
8.9860001 -8.3789997 2.26 9
8.9899998 -8.4020004 2.277 9
8.9849997 -8.3699999 2.2739999 9
8.9879999 -8.3940001 2.243 9
8.9870005 -8.3859997 2.263 9
8.9899998 -8.408 2.201 9
8.9899998 -8.408 2.2260001 9
8.9899998 -8.4029999 2.257 9
8.9879999 -8.3889999 2.2750001 9
8.9879999 -8.3920002 2.2650001 9
8.9879999 -8.3950005 2.198 9
8.9910002 -8.4049997 2.2750001 9
8.7270002 -8.3879995 2.2460001 9
8.7290001 -8.3959999 2.2 9
8.7299995 -8.401 2.2260001 9
8.7279997 -8.3900003 2.2449999 9
8.7299995 -8.3999996 2.2290001 9
8.7279997 -8.3920002 2.2060001 9
8.7299995 -8.4020004 2.161 9
8.7279997 -8.3900003 2.2090001 9
8.7270002 -8.3879995 2.247 9
8.7270002 -8.3830004 2.2349999 9
8.7290001 -8.3959999 2.253 9
8.7290001 -8.3940001 2.2119999 9
8.7279997 -8.3889999 2.2509999 9
8.7270002 -8.3870001 2.2509999 9
8.7290001 -8.3940001 2.1989999 9
8.7290001 -8.3950005 2.1930001 9
8.7279997 -8.3920002 2.2379999 9
8.7299995 -8.3979998 2.188 9
8.7559996 -8.3839998 2.319 9
8.7629995 -8.3879995 2.335 9
8.7299995 -8.3909998 2.2609999 9
8.7519999 -8.3909998 2.3110001 9
8.7440004 -8.4020004 2.2950001 9
8.7460003 -8.3879995 2.2980001 9
8.7360001 -8.4040003 2.276 9
8.7290001 -8.3909998 2.2579999 9
8.7510004 -8.3900003 2.3069999 9
8.75 -8.3889999 2.3050001 9
8.7530003 -8.3870001 2.313 9
8.7449999 -8.3850002 2.2950001 9
8.7559996 -8.3970003 2.319 9
8.7320004 -8.3920002 2.266 9
8.743 -8.3889999 2.2909999 9
8.7370005 -8.3809996 2.276 9
8.7299995 -8.3870001 2.26 9
8.7620001 -8.3459997 2.3069999 9
8.7530003 -8.3739996 2.3069999 9
8.7600002 -8.3579998 2.309 9
8.7580004 -8.3669996 2.313 9
8.7790003 -8.3369999 2.336 9
8.7419996 -8.3669996 2.2780001 9
8.7670002 -8.3769999 2.3380001 9
8.7349997 -8.3719997 2.266 9
8.7679996 -8.3780003 2.342 9
8.7530003 -8.368 2.302 9
8.7659998 -8.368 2.3299999 9
8.7559996 -8.3699999 2.309 9
8.757 -8.3640003 2.3080001 9
8.7650003 -8.3760004 2.3340001 9
8.757 -8.3520002 2.2980001 9
8.7449999 -8.3739996 2.2880001 9
8.7510004 -8.3570004 2.29 9
8.7700005 -8.3710003 2.3399999 9
8.7489996 -8.3809996 2.303 9
8.7679996 -8.368 2.3340001 9
8.7299995 -8.3789997 2.2609999 9
8.7639999 -8.3730001 2.3299999 9
8.7629995 -8.3509998 2.313 9
8.7589998 -8.3800001 2.322 9
8.7440004 -8.3780003 2.289 9
8.7629995 -8.3730001 2.3280001 9
8.7539997 -8.3540001 2.2950001 9
8.7480001 -8.3640003 2.2880001 9
8.7469997 -8.3649998 2.2869999 9
8.757 -8.3509998 2.299 9
8.7480001 -8.3809996 2.3 9
8.776 -8.3570004 2.3429999 9
8.802 -8.3380003 2.3640001 9
8.7860003 -8.3540001 2.3529999 9
8.7910004 -8.3319998 2.348 9
8.7810001 -8.3450003 2.3440001 9
8.7919998 -8.349 2.358 9
8.7980003 -8.342 2.362 9
8.7770004 -8.3730001 2.3510001 9
8.7779999 -8.349 2.342 9
8.7749996 -8.3620005 2.3440001 9
8.783 -8.3590002 2.352 9
8.7849998 -8.3470001 2.348 9
8.7290001 -8.3929996 2.187 9
8.7279997 -8.3920002 2.171 9
8.7279997 -8.3889999 2.122 9
8.7279997 -8.3909998 2.1960001 9
8.7279997 -8.3920002 2.184 9
8.7270002 -8.3839998 2.2279999 9
8.7270002 -8.3839998 2.2219999 9
8.7279997 -8.3879995 2.142 9
8.7259998 -8.3809996 2.2360001 9
8.7270002 -8.3859997 2.1689999 9
8.7259998 -8.382 2.2279999 9
8.7290001 -8.3920002 2.1259999 9
8.7279997 -8.3879995 2.1670001 9
8.8570004 -8.3830004 1.906 9
8.8660002 -8.3889999 1.906 9
8.8000002 -8.3979998 1.904 9
8.8789997 -8.3830004 1.906 9
8.9139996 -8.3430004 1.909 9
8.8839998 -8.3690004 1.9069999 9
8.9259996 -8.3699999 1.908 9
8.8219995 -8.3950005 1.905 9
8.8470001 -8.3900003 1.905 9
8.802 -8.4060001 1.904 9
8.8400002 -8.382 1.906 9
8.8369999 -8.3990002 1.905 9
8.9399996 -8.3710003 1.908 9
8.802 -8.3999996 1.904 9
8.8809996 -8.3710003 1.9069999 9
8.8950005 -8.3640003 1.908 9
8.8079996 -8.3950005 1.904 9
8.8669996 -8.3839998 1.906 9
8.8330002 -8.3900003 1.905 9
8.8990002 -8.3610001 1.908 9
8.8400002 -8.3889999 1.905 9
8.8540001 -8.3900003 1.906 9
8.934 -8.3739996 1.908 9
8.849 -8.3839998 1.906 9
8.8299999 -8.3900003 1.905 9
8.941 -8.3719997 1.908 9
8.875 -8.3889999 1.906 9
8.8129997 -8.3950005 1.904 9
8.9130001 -8.3719997 1.908 9
8.9130001 -8.3430004 1.909 9
8.9420004 -8.375 1.908 9
8.9180002 -8.3719997 1.908 9
8.9359999 -8.3809996 1.908 9
8.8809996 -8.3590002 1.908 9
8.8629999 -8.3780003 1.906 9
8.8260002 -8.3999996 1.904 9
8.8959999 -8.3509998 1.909 9
8.927 -8.3739996 1.908 9
8.816 -8.3929996 1.905 9
8.8990002 -8.3599997 1.908 9
8.8219995 -8.4040003 1.904 9
8.9130001 -8.3599997 1.908 9
8.8970003 -8.3549995 1.908 9
8.8520002 -8.401 1.905 9
8.8290005 -8.3940001 1.905 9
8.8400002 -8.3859997 1.905 9
8.9320002 -8.3610001 1.909 9
8.8050003 -8.3999996 1.904 9
8.8549995 -8.3570004 1.909 9
8.8459997 -8.3479996 1.911 9
8.7799997 -8.3509998 1.9119999 9
8.8850002 -8.3500004 1.909 9
8.7810001 -8.3889999 1.906 9
8.7770004 -8.3599997 1.911 9
8.8059998 -8.3439999 1.913 9
8.7819996 -8.3950005 1.905 9
8.802 -8.3730001 1.908 9
8.7910004 -8.3520002 1.9119999 9
8.8959999 -8.3380003 1.911 9
8.7969999 -8.3540001 1.911 9
8.8889999 -8.335 1.911 9
8.8129997 -8.3649998 1.909 9
8.8120003 -8.3660002 1.909 9
8.79 -8.368 1.909 9
8.8030005 -8.3800001 1.9069999 9
8.7889996 -8.3620005 1.91 9
8.7810001 -8.401 1.904 9
8.823 -8.3769999 1.9069999 9
8.8140001 -8.3549995 1.911 9
8.7819996 -8.401 1.904 9
8.7530003 -8.4029999 1.905 9
8.8570004 -8.3439999 1.911 9
8.8109999 -8.3690004 1.908 9
8.7609997 -8.3920002 1.906 9
8.7959995 -8.3900003 1.906 9
8.8859997 -8.3439999 1.91 9
8.8439999 -8.3610001 1.909 9
