# .PCD v0.7 - Point Cloud Data file format
VERSION 0.7
FIELDS x y z label
SIZE 4 4 4 4
TYPE F F F U
COUNT 1 1 1 1
WIDTH 1
HEIGHT 1483
VIEWPOINT 0 0 0 1 0 0 0
POINTS 1483
DATA ascii
8.7480001 -1.548 2.2 9
8.7819996 -1.568 2.2820001 9
8.7740002 -1.571 2.207 9
8.7799997 -1.572 2.2320001 9
8.8000002 -1.585 2.2679999 9
8.7639999 -1.571 2.1370001 9
8.7790003 -1.577 2.1960001 9
8.7399998 -1.535 2.243 9
8.7709999 -1.561 2.2620001 9
8.7869997 -1.579 2.2309999 9
8.743 -1.538 2.2409999 9
8.7700005 -1.566 2.2130001 9
8.7650003 -1.563 2.207 9
8.7799997 -1.568 2.27 9
8.7720003 -1.561 2.266 9
8.7810001 -1.5829999 2.1630001 9
8.7930002 -1.594 2.1630001 9
8.7650003 -1.572 2.1370001 9
8.8039999 -1.589 2.2750001 9
8.7880001 -1.575 2.266 9
8.7910004 -1.586 2.2090001 9
8.7880001 -1.584 2.1989999 9
8.7840004 -1.577 2.224 9
8.7609997 -1.558 2.22 9
8.7790003 -1.587 2.1140001 9
8.776 -1.566 2.2550001 9
8.776 -1.575 2.191 9
8.7770004 -1.577 2.1789999 9
8.7700005 -1.568 2.198 9
8.7939997 -1.5829999 2.247 9
8.7889996 -1.5930001 2.142 9
8.7440004 -1.541 2.23 9
8.776 -1.5779999 2.1619999 9
8.7720003 -1.5829999 2.105 9
8.8030005 -1.5829999 2.302 9
8.8070002 -1.5930001 2.263 9
8.783 -1.575 2.2349999 9
8.7580004 -1.562 2.164 9
8.7779999 -1.5779999 2.1789999 9
8.7779999 -1.569 2.2409999 9
8.7709999 -1.569 2.2030001 9
8.79 -1.594 2.1429999 9
8.783 -1.591 2.1170001 9
8.8170004 -1.595 2.3150001 9
8.7950001 -1.5829999 2.256 9
8.7799997 -1.5930001 2.082 9
8.757 -1.558 2.187 9
8.7419996 -1.539 2.2360001 9
8.7449999 -1.545 2.2049999 9
8.7889996 -1.5829999 2.2130001 9
8.7620001 -1.5599999 2.2079999 9
8.7589998 -1.5599999 2.1830001 9
8.757 -1.5599999 2.1719999 9
8.7559996 -1.548 2.2590001 9
8.7639999 -1.567 2.1670001 9
8.7959995 -1.5880001 2.227 9
8.7919998 -1.579 2.2639999 9
8.7910004 -1.589 2.1819999 9
8.7519999 -1.553 2.194 9
8.7950001 -1.594 2.1730001 9
8.7539997 -1.553 2.211 9
8.7770004 -1.582 2.1429999 9
8.7810001 -1.584 2.148 9
8.7749996 -1.5779999 2.1589999 9
8.7469997 -1.544 2.23 9
8.7799997 -1.586 2.1340001 9
8.7580004 -1.553 2.233 9
8.816 -1.5930001 2.319 9
8.7860003 -1.575 2.2539999 9
8.757 -1.554 2.2190001 9
8.7950001 -1.577 2.293 9
8.7860003 -1.592 2.1270001 9
8.7559996 -1.556 2.1989999 9
8.7650003 -1.567 2.1700001 9
8.7559996 -1.5599999 2.168 9
8.7650003 -1.554 2.27 9
8.7810001 -1.585 2.148 9
8.7639999 -1.563 2.1949999 9
8.816 -1.596 2.3010001 9
8.7709999 -1.58 2.1170001 9
8.7989998 -1.59 2.2249999 9
8.776 -1.568 2.2409999 9
8.8149996 -1.595 2.2969999 9
8.7650003 -1.566 2.178 9
8.7639999 -1.571 2.141 9
8.7849998 -1.573 2.2679999 9
8.7919998 -1.594 2.1570001 9
8.7910004 -1.592 2.161 9
8.7700005 -1.562 2.2479999 9
8.8050003 -1.589 2.28 9
8.7720003 -1.5829999 2.1040001 9
8.7770004 -1.582 2.1440001 9
8.8059998 -1.591 2.2650001 9
8.7609997 -1.552 2.263 9
8.7559996 -1.559 2.1689999 9
8.7969999 -1.589 2.2249999 9
8.7910004 -1.589 2.178 9
8.783 -1.577 2.223 9
8.8190002 -1.596 2.316 9
8.776 -1.586 2.1099999 9
8.7670002 -1.5599999 2.243 9
8.7519999 -1.552 2.2 9
8.7889996 -1.581 2.234 9
8.7609997 -1.564 2.1659999 9
8.7779999 -1.576 2.1949999 9
8.7749996 -1.5829999 2.119 9
8.7819996 -1.576 2.2160001 9
8.7950001 -1.594 2.175 9
8.7690001 -1.559 2.2590001 9
8.7720003 -1.571 2.1930001 9
8.7530003 -1.557 2.1719999 9
8.79 -1.594 2.135 9
8.7889996 -1.582 2.227 9
8.7810001 -1.587 2.1329999 9
8.7930002 -1.59 2.1919999 9
8.8079996 -1.5880001 2.306 9
8.7849998 -1.581 2.197 9
8.7860003 -1.585 2.1789999 9
8.7889996 -1.581 2.2309999 9
8.783 -1.575 2.2379999 9
8.8170004 -1.596 2.3050001 9
8.7969999 -1.5880001 2.2349999 9
8.8030005 -1.586 2.2809999 9
8.757 -1.557 2.194 9
8.7629995 -1.562 2.2030001 9
8.7740002 -1.567 2.2360001 9
8.8179998 -1.597 2.3 9
8.7849998 -1.59 2.1340001 9
8.7539997 -1.554 2.197 9
8.8030005 -1.59 2.2509999 9
8.9259996 -1.5880001 2.1099999 9
8.9209995 -1.59 2.1960001 9
8.809 -1.5930001 2.075 9
8.9440002 -1.589 2.2219999 9
8.8579998 -1.592 2.1259999 9
8.9589996 -1.587 2.141 9
8.96 -1.5880001 2.2060001 9
8.9370003 -1.5880001 2.105 9
8.882 -1.59 2.082 9
8.967 -1.587 2.152 9
8.9519997 -1.587 2.0769999 9
8.9309998 -1.5880001 2.128 9
8.9589996 -1.587 2.1040001 9
8.8669996 -1.591 2.1300001 9
8.9379997 -1.591 2.2620001 9
8.9020004 -1.591 2.178 9
8.9119997 -1.5880001 2.0829999 9
8.8809996 -1.59 2.1129999 9
8.9580002 -1.59 2.2880001 9
8.9169998 -1.589 2.1389999 9
8.9300003 -1.5880001 2.1159999 9
8.9189997 -1.59 2.204 9
8.9379997 -1.589 2.1989999 9
8.9499998 -1.5880001 2.175 9
8.8459997 -1.592 2.099 9
8.9280005 -1.589 2.174 9
8.8610001 -1.591 2.119 9
8.9309998 -1.5880001 2.118 9
8.934 -1.59 2.211 9
8.8669996 -1.591 2.092 9
8.8780003 -1.591 2.151 9
8.849 -1.592 2.155 9
8.8739996 -1.591 2.1589999 9
8.8529997 -1.591 2.082 9
8.9650002 -1.587 2.112 9
8.882 -1.591 2.154 9
8.9289999 -1.59 2.2349999 9
8.8730001 -1.592 2.1630001 9
8.868 -1.591 2.112 9
8.8620005 -1.591 2.099 9
8.868 -1.591 2.118 9
8.9250002 -1.5880001 2.079 9
8.9390001 -1.587 2.098 9
8.9250002 -1.589 2.135 9
8.8669996 -1.591 2.099 9
8.8629999 -1.592 2.168 9
8.9189997 -1.59 2.214 9
8.8870001 -1.59 2.099 9
8.9460001 -1.587 2.0810001 9
8.9119997 -1.589 2.1300001 9
8.9259996 -1.5880001 2.1059999 9
8.8640003 -1.592 2.1400001 9
8.8039999 -1.594 2.102 9
8.8760004 -1.592 2.178 9
8.9329996 -1.59 2.217 9
8.823 -1.5930001 2.128 9
8.9390001 -1.59 2.234 9
8.8830004 -1.592 2.191 9
8.9200001 -1.589 2.1240001 9
8.8929996 -1.591 2.1589999 9
8.8430004 -1.592 2.132 9
8.8859997 -1.591 2.1589999 9
8.8929996 -1.589 2.066 9
8.8529997 -1.591 2.0999999 9
8.8529997 -1.592 2.131 9
8.8769999 -1.592 2.1800001 9
8.8579998 -1.592 2.1470001 9
8.9200001 -1.591 2.243 9
8.8710003 -1.59 2.0799999 9
8.8269997 -1.592 2.0829999 9
8.9119997 -1.591 2.2049999 9
8.9139996 -1.5880001 2.0869999 9
8.8590002 -1.592 2.152 9
8.96 -1.5880001 2.1589999 9
8.9189997 -1.59 2.1700001 9
8.8809996 -1.592 2.191 9
8.9289999 -1.589 2.145 9
8.9639997 -1.59 2.3069999 9
8.842 -1.5930001 2.1400001 9
8.8640003 -1.591 2.089 9
8.8649998 -1.592 2.154 9
8.8839998 -1.591 2.1530001 9
8.8450003 -1.592 2.1429999 9
8.9180002 -1.59 2.1960001 9
8.8669996 -1.592 2.171 9
8.9379997 -1.5880001 2.1370001 9
8.9230003 -1.591 2.2460001 9
8.9370003 -1.589 2.171 9
8.9259996 -1.59 2.1849999 9
8.9390001 -1.5880001 2.1270001 9
8.9300003 -1.589 2.181 9
8.9029999 -1.589 2.076 9
8.8940001 -1.591 2.2060001 9
8.8859997 -1.59 2.128 9
8.9379997 -1.591 2.2739999 9
8.9209995 -1.5880001 2.0940001 9
8.96 -1.587 2.1300001 9
8.8179998 -1.5930001 2.1010001 9
8.9110003 -1.59 2.1919999 9
8.9619999 -1.5880001 2.198 9
8.8870001 -1.591 2.1570001 9
8.9370003 -1.59 2.2349999 9
8.9280005 -1.589 2.142 9
8.9090004 -1.59 2.154 9
8.8940001 -1.59 2.142 9
8.9259996 -1.589 2.1489999 9
8.8559999 -1.592 2.1589999 9
8.9119997 -1.591 2.2049999 9
8.8990002 -1.591 2.2130001 9
8.8240004 -1.5930001 2.1159999 9
8.8400002 -1.592 2.0929999 9
8.8839998 -1.589 2.0669999 9
8.8509998 -1.591 2.092 9
8.9449997 -1.59 2.2249999 9
8.901 -1.591 2.198 9
8.9530001 -1.5880001 2.168 9
8.8830004 -1.591 2.1440001 9
8.8859997 -1.59 2.099 9
8.8339996 -1.592 2.102 9
8.9239998 -1.589 2.1559999 9
8.9499998 -1.587 2.122 9
8.9610004 -1.586 2.096 9
8.7950001 -1.594 2.085 9
8.967 -1.587 2.1589999 9
8.8879995 -1.591 2.161 9
8.8920002 -1.591 2.187 9
8.9460001 -1.589 2.221 9
8.9359999 -1.587 2.0739999 9
8.9650002 -1.587 2.119 9
8.8950005 -1.591 2.21 9
8.9469995 -1.5880001 2.171 9
8.9309998 -1.589 2.188 9
8.941 -1.5880001 2.1059999 9
8.8669996 -1.591 2.1210001 9
8.8559999 -1.591 2.1010001 9
8.9619999 -1.587 2.145 9
8.8620005 -1.592 2.138 9
8.948 -1.5880001 2.1240001 9
8.8660002 -1.591 2.089 9
8.9399996 -1.589 2.1949999 9
8.802 -1.5930001 2.0829999 9
8.8549995 -1.591 2.1040001 9
8.9329996 -1.587 2.073 9
8.8979998 -1.591 2.1960001 9
8.8920002 -1.591 2.1589999 9
8.8260002 -1.5930001 2.1170001 9
8.9689999 -1.589 2.27 9
8.9709997 -1.586 2.0780001 9
8.9499998 -1.587 2.1040001 9
8.9029999 -1.59 2.125 9
8.9379997 -1.589 2.1530001 9
8.9420004 -1.587 2.095 9
8.9359999 -1.589 2.1730001 9
8.9510002 -1.587 2.076 9
8.8769999 -1.591 2.1370001 9
8.9119997 -1.591 2.224 9
8.9020004 -1.589 2.095 9
8.9379997 -1.589 2.2030001 9
8.8719997 -1.591 2.1340001 9
8.9200001 -1.59 2.1700001 9
8.8999996 -1.591 2.2130001 9
8.9560003 -1.589 2.211 9
8.9549999 -1.59 2.2939999 9
8.9309998 -1.587 2.073 9
8.9569998 -1.589 2.25 9
8.8360004 -1.592 2.099 9
8.9110003 -1.589 2.1129999 9
8.9469995 -1.587 2.073 9
8.8559999 -1.591 2.069 9
8.8909998 -1.59 2.119 9
8.8719997 -1.591 2.1170001 9
8.9429998 -1.59 2.2460001 9
8.9580002 -1.587 2.1199999 9
8.8839998 -1.589 2.069 9
8.8050003 -1.5930001 2.0929999 9
8.9580002 -1.586 2.0810001 9
8.7880001 -1.594 2.076 9
8.9180002 -1.59 2.1889999 9
8.8859997 -1.589 2.079 9
8.875 -1.592 2.174 9
8.8640003 -1.591 2.0880001 9
8.8520002 -1.591 2.0799999 9
8.9569998 -1.589 2.2309999 9
8.9300003 -1.5880001 2.1240001 9
8.927 -1.587 2.066 9
8.9650002 -1.586 2.0699999 9
8.8620005 -1.592 2.1789999 9
8.9469995 -1.587 2.1070001 9
8.9060001 -1.589 2.1289999 9
8.9440002 -1.587 2.1029999 9
8.948 -1.587 2.119 9
8.875 -1.591 2.1329999 9
8.9110003 -1.59 2.191 9
8.8339996 -1.592 2.1010001 9
8.8640003 -1.592 2.1459999 9
8.967 -1.5880001 2.1760001 9
8.8839998 -1.59 2.0780001 9
8.9219999 -1.589 2.125 9
8.9189997 -1.59 2.197 9
8.9469995 -1.586 2.063 9
8.9569998 -1.59 2.29 9
8.8059998 -1.5930001 2.0810001 9
8.9399996 -1.591 2.27 9
8.9250002 -1.589 2.1340001 9
8.8430004 -1.592 2.089 9
8.948 -1.587 2.0910001 9
8.8850002 -1.59 2.1199999 9
8.8809996 -1.59 2.0799999 9
8.9160004 -1.59 2.194 9
8.9519997 -1.5880001 2.1470001 9
8.9169998 -1.5880001 2.096 9
8.9499998 -1.587 2.1099999 9
8.9160004 -1.589 2.1170001 9
8.8690004 -1.592 2.1659999 9
8.9580002 -1.586 2.0669999 9
8.8889999 -1.592 2.2049999 9
8.9510002 -1.587 2.0880001 9
8.8999996 -1.59 2.1400001 9
8.9300003 -1.59 2.1919999 9
8.9379997 -1.5880001 2.1229999 9
8.8909998 -1.59 2.095 9
8.8900003 -1.59 2.118 9
8.9630003 -1.587 2.1370001 9
8.8369999 -1.5930001 2.1459999 9
8.9689999 -1.59 2.2880001 9
8.8509998 -1.591 2.0880001 9
8.9499998 -1.589 2.2349999 9
8.9180002 -1.5880001 2.075 9
8.9040003 -1.589 2.119 9
8.9560003 -1.589 2.2479999 9
8.8570004 -1.592 2.1600001 9
8.9659996 -1.589 2.2679999 9
8.9659996 -1.586 2.092 9
8.8710003 -1.592 2.168 9
8.8660002 -1.591 2.092 9
8.9329996 -1.5880001 2.1159999 9
8.9289999 -1.59 2.1900001 9
8.9350004 -1.589 2.1730001 9
8.8979998 -1.591 2.1919999 9
8.9580002 -1.59 2.299 9
8.8719997 -1.592 2.1800001 9
8.8990002 -1.59 2.112 9
8.908 -1.59 2.1689999 9
8.9219999 -1.59 2.21 9
8.8719997 -1.59 2.1010001 9
8.8170004 -1.597 2.2520001 9
8.8590002 -1.595 2.2509999 9
8.8409996 -1.594 2.197 9
8.8839998 -1.595 2.3199999 9
8.8369999 -1.594 2.188 9
8.8120003 -1.595 2.178 9
8.8900003 -1.5930001 2.243 9
8.8330002 -1.597 2.277 9
8.8249998 -1.594 2.175 9
8.8649998 -1.595 2.279 9
8.8210001 -1.595 2.174 9
8.8870001 -1.594 2.2820001 9
8.9359999 -1.592 2.3069999 9
8.8610001 -1.5930001 2.2079999 9
8.8450003 -1.594 2.191 9
8.8170004 -1.5930001 2.1270001 9
8.8000002 -1.595 2.152 9
8.8669996 -1.595 2.2750001 9
8.8719997 -1.592 2.198 9
8.875 -1.594 2.2490001 9
8.9160004 -1.592 2.2650001 9
8.8570004 -1.596 2.283 9
8.8219995 -1.598 2.2939999 9
8.8330002 -1.5930001 2.1489999 9
8.8850002 -1.5930001 2.2409999 9
8.823 -1.596 2.234 9
8.9219999 -1.592 2.2739999 9
8.8170004 -1.5930001 2.128 9
8.9060001 -1.5930001 2.2969999 9
8.9630003 -1.59 2.3150001 9
8.8520002 -1.595 2.267 9
8.9119997 -1.5930001 2.303 9
8.8699999 -1.594 2.2449999 9
8.8549995 -1.596 2.303 9
8.8870001 -1.594 2.2950001 9
8.8629999 -1.594 2.2219999 9
8.809 -1.595 2.155 9
8.8780003 -1.592 2.2 9
8.8850002 -1.5930001 2.2379999 9
8.8529997 -1.5930001 2.1889999 9
8.7959995 -1.595 2.131 9
8.8830004 -1.5930001 2.2579999 9
8.8540001 -1.5930001 2.1889999 9
8.8459997 -1.597 2.2909999 9
8.8559999 -1.595 2.257 9
8.8599997 -1.596 2.299 9
8.8690004 -1.594 2.2349999 9
8.8599997 -1.5930001 2.207 9
8.8599997 -1.5930001 2.197 9
8.8520002 -1.594 2.2260001 9
8.9350004 -1.592 2.309 9
8.8459997 -1.595 2.237 9
8.9219999 -1.592 2.2839999 9
8.882 -1.595 2.299 9
8.8470001 -1.597 2.306 9
8.8140001 -1.595 2.1700001 9
8.8199997 -1.596 2.234 9
8.8240004 -1.596 2.2409999 9
8.8850002 -1.5930001 2.2620001 9
8.8039999 -1.596 2.175 9
8.8839998 -1.595 2.3180001 9
8.8559999 -1.595 2.2579999 9
8.8710003 -1.595 2.2809999 9
8.8979998 -1.594 2.316 9
8.8249998 -1.598 2.3110001 9
8.8409996 -1.5930001 2.168 9
8.79 -1.595 2.1240001 9
8.9370003 -1.591 2.277 9
8.8549995 -1.594 2.2060001 9
8.8640003 -1.596 2.3139999 9
8.835 -1.598 2.309 9
8.8629999 -1.595 2.2639999 9
8.9049997 -1.592 2.2420001 9
8.8570004 -1.595 2.273 9
8.8889999 -1.5930001 2.2460001 9
8.8789997 -1.594 2.276 9
8.8389997 -1.594 2.1789999 9
8.8649998 -1.595 2.27 9
8.8669996 -1.5930001 2.21 9
8.941 -1.591 2.283 9
8.8339996 -1.5930001 2.1530001 9
8.8459997 -1.594 2.197 9
8.9119997 -1.592 2.2820001 9
8.8970003 -1.592 2.2449999 9
8.9200001 -1.592 2.28 9
8.8500004 -1.596 2.266 9
8.9029999 -1.592 2.257 9
8.8219995 -1.597 2.256 9
8.8789997 -1.5930001 2.2449999 9
8.8789997 -1.595 2.3150001 9
8.8219995 -1.596 2.2249999 9
8.8900003 -1.5930001 2.2520001 9
8.849 -1.595 2.2520001 9
8.8369999 -1.598 2.325 9
8.882 -1.5930001 2.25 9
8.8579998 -1.596 2.2850001 9
8.8079996 -1.594 2.118 9
8.9209995 -1.591 2.2550001 9
8.8240004 -1.5930001 2.1370001 9
8.8030005 -1.595 2.1630001 9
8.8299999 -1.594 2.1819999 9
8.8710003 -1.594 2.2690001 9
8.8979998 -1.594 2.302 9
8.8669996 -1.595 2.2839999 9
8.8520002 -1.595 2.263 9
8.8970003 -1.5930001 2.2780001 9
8.9469995 -1.591 2.29 9
8.8640003 -1.596 2.3199999 9
8.875 -1.594 2.279 9
8.8470001 -1.595 2.253 9
8.8479996 -1.597 2.2980001 9
8.8579998 -1.594 2.2219999 9
8.8109999 -1.597 2.2379999 9
8.8450003 -1.594 2.2179999 9
8.8409996 -1.594 2.1860001 9
8.8520002 -1.597 2.309 9
8.8549995 -1.5930001 2.1800001 9
8.7969999 -1.595 2.1470001 9
8.8100004 -1.596 2.2160001 9
8.8979998 -1.594 2.3110001 9
8.8520002 -1.594 2.2119999 9
8.8649998 -1.594 2.2479999 9
8.8660002 -1.5930001 2.198 9
8.7980003 -1.594 2.1159999 9
8.9280005 -1.592 2.286 9
8.9130001 -1.5930001 2.2909999 9
8.8669996 -1.5930001 2.2160001 9
8.8529997 -1.595 2.253 9
8.8269997 -1.594 2.181 9
8.9420004 -1.592 2.312 9
8.8030005 -1.596 2.177 9
8.934 -1.591 2.2920001 9
8.8699999 -1.594 2.2379999 9
8.8479996 -1.595 2.227 9
8.8030005 -1.594 2.115 9
8.8400002 -1.594 2.1760001 9
8.9020004 -1.594 2.3099999 9
8.8179998 -1.595 2.188 9
8.8260002 -1.599 2.323 9
8.8900003 -1.595 2.3169999 9
8.875 -1.592 2.201 9
8.8000002 -1.595 2.132 9
8.8699999 -1.595 2.293 9
8.9219999 -1.5930001 2.309 9
8.8310003 -1.598 2.319 9
8.8339996 -1.597 2.2880001 9
8.8789997 -1.595 2.3039999 9
8.8509998 -1.595 2.2609999 9
8.8629999 -1.594 2.247 9
8.8889999 -1.594 2.2880001 9
8.7930002 -1.595 2.1259999 9
8.9139996 -1.5930001 2.306 9
8.8579998 -1.596 2.313 9
8.8039999 -1.596 2.1860001 9
8.8030005 -1.596 2.2 9
8.823 -1.598 2.29 9
8.8940001 -1.5930001 2.2750001 9
8.8240004 -1.5930001 2.1370001 9
8.8439999 -1.595 2.2379999 9
8.908 -1.5930001 2.2809999 9
8.809 -1.5930001 2.1110001 9
8.8610001 -1.592 2.178 9
8.9239998 -1.5930001 2.313 9
8.8769999 -1.592 2.211 9
8.8599997 -1.594 2.2409999 9
8.8590002 -1.5930001 2.2 9
8.8710003 -1.5930001 2.214 9
8.8800001 -1.594 2.2579999 9
8.882 -1.592 2.2219999 9
8.8959999 -1.592 2.243 9
8.823 -1.597 2.273 9
8.7910004 -1.595 2.119 9
8.8369999 -1.596 2.267 9
8.8739996 -1.595 2.283 9
8.8529997 -1.597 2.3210001 9
8.8500004 -1.597 2.3210001 9
8.8999996 -1.592 2.2590001 9
8.842 -1.597 2.2980001 9
8.9130001 -1.5930001 2.316 9
8.9180002 -1.592 2.2809999 9
8.835 -1.596 2.2579999 9
8.816 -1.598 2.2750001 9
8.8009996 -1.595 2.1619999 9
8.8140001 -1.597 2.244 9
8.8610001 -1.594 2.2379999 9
8.8699999 -1.5930001 2.227 9
8.8299999 -1.594 2.1819999 9
8.8570004 -1.596 2.309 9
8.8629999 -1.577 1.9400001 9
8.7930002 -1.587 2.023 9
8.8310003 -1.581 1.978 9
8.8579998 -1.582 1.976 9
8.908 -1.58 1.954 9
8.8520002 -1.585 1.998 9
8.8269997 -1.585 2.0050001 9
8.882 -1.5779999 1.9450001 9
8.8249998 -1.58 1.969 9
8.875 -1.5829999 1.982 9
8.8570004 -1.582 1.977 9
8.8369999 -1.577 1.949 9
8.816 -1.586 2.0109999 9
8.8620005 -1.581 1.972 9
8.8789997 -1.581 1.964 9
8.8199997 -1.581 1.979 9
8.7810001 -1.5930001 2.069 9
8.8380003 -1.579 1.96 9
8.79 -1.5829999 1.997 9
8.802 -1.579 1.964 9
8.8179998 -1.589 2.029 9
8.8879995 -1.5779999 1.948 9
8.8599997 -1.581 1.973 9
8.8500004 -1.579 1.96 9
8.8290005 -1.58 1.966 9
8.8280001 -1.585 2.0039999 9
8.9250002 -1.5779999 1.936 9
8.8809996 -1.579 1.954 9
8.7969999 -1.587 2.0220001 9
8.8199997 -1.5880001 2.0239999 9
8.8579998 -1.579 1.9579999 9
8.8050003 -1.589 2.036 9
8.8870001 -1.5829999 1.977 9
8.8260002 -1.5880001 2.0239999 9
8.8059998 -1.575 1.941 9
8.8549995 -1.58 1.965 9
8.809 -1.586 2.013 9
8.8380003 -1.5829999 1.9859999 9
8.8120003 -1.579 1.9680001 9
8.8079996 -1.581 1.9809999 9
8.8710003 -1.577 1.937 9
8.8509998 -1.582 1.98 9
8.8809996 -1.581 1.967 9
8.809 -1.582 1.989 9
8.8450003 -1.5829999 1.984 9
8.8360004 -1.582 1.98 9
8.8380003 -1.5779999 1.951 9
8.7880001 -1.579 1.9680001 9
8.835 -1.577 1.948 9
8.8190002 -1.5880001 2.0250001 9
8.7989998 -1.589 2.0320001 9
8.7939997 -1.5779999 1.961 9
8.7860003 -1.591 2.0539999 9
8.8310003 -1.579 1.964 9
8.8459997 -1.5779999 1.948 9
8.8219995 -1.59 2.0350001 9
8.8059998 -1.582 1.9859999 9
8.8149996 -1.59 2.0369999 9
8.8900003 -1.5779999 1.946 9
8.8409996 -1.579 1.962 9
8.7880001 -1.589 2.039 9
8.8610001 -1.581 1.967 9
8.835 -1.586 2.0079999 9
8.8059998 -1.587 2.0179999 9
8.8050003 -1.5880001 2.0309999 9
8.8179998 -1.584 2 9
8.8439999 -1.587 2.0109999 9
8.7810001 -1.592 2.0599999 9
8.7969999 -1.586 2.017 9
8.9110003 -1.5779999 1.943 9
8.8000002 -1.584 2.0039999 9
8.8599997 -1.582 1.98 9
8.8769999 -1.577 1.937 9
8.7959995 -1.582 1.985 9
8.835 -1.581 1.976 9
8.8170004 -1.585 2.0050001 9
8.9040003 -1.577 1.933 9
8.8179998 -1.579 1.962 9
8.9049997 -1.577 1.933 9
8.9189997 -1.577 1.929 9
8.79 -1.5829999 1.997 9
8.8439999 -1.576 1.941 9
8.7880001 -1.579 1.967 9
8.8360004 -1.586 2.0090001 9
8.8450003 -1.586 2.0090001 9
8.8789997 -1.579 1.95 9
8.8400002 -1.582 1.979 9
8.8120003 -1.59 2.0420001 9
8.8319998 -1.585 2.0039999 9
8.9090004 -1.58 1.951 9
8.8009996 -1.586 2.0120001 9
8.8500004 -1.577 1.942 9
8.8950005 -1.58 1.954 9
8.8070002 -1.591 2.0469999 9
8.8599997 -1.581 1.967 9
8.816 -1.576 1.942 9
8.9060001 -1.581 1.96 9
8.7869997 -1.587 2.027 9
8.8559999 -1.581 1.9680001 9
8.8629999 -1.5829999 1.98 9
8.8620005 -1.584 1.99 9
8.8339996 -1.584 1.9960001 9
8.9069996 -1.5779999 1.942 9
8.8629999 -1.581 1.973 9
8.9540005 -1.581 1.993 9
8.8649998 -1.587 2.0280001 9
8.9309998 -1.581 1.977 9
8.9460001 -1.581 1.987 9
8.9029999 -1.5880001 2.0639999 9
8.8839998 -1.584 1.987 9
8.9420004 -1.585 2.0380001 9
8.9020004 -1.585 2.0090001 9
8.8570004 -1.5880001 2.036 9
8.948 -1.586 2.0569999 9
8.8769999 -1.589 2.0539999 9
8.9379997 -1.582 1.988 9
8.8599997 -1.586 2.0090001 9
8.8240004 -1.59 2.0469999 9
8.9259996 -1.581 1.969 9
8.9420004 -1.5829999 2.0079999 9
8.9250002 -1.587 2.063 9
8.9460001 -1.581 1.983 9
8.8050003 -1.5930001 2.0669999 9
8.8990002 -1.5829999 1.984 9
8.8479996 -1.5880001 2.0220001 9
8.8909998 -1.5880001 2.0510001 9
8.927 -1.587 2.059 9
8.9040003 -1.584 2.01 9
8.8400002 -1.589 2.03 9
8.9099998 -1.586 2.0350001 9
8.9460001 -1.577 1.932 9
8.8970003 -1.5880001 2.052 9
8.7930002 -1.5930001 2.0699999 9
8.8290005 -1.59 2.0450001 9
8.9549999 -1.5829999 2.0209999 9
8.9460001 -1.577 1.928 9
8.882 -1.589 2.063 9
8.9549999 -1.581 1.995 9
8.9250002 -1.58 1.9630001 9
8.802 -1.5930001 2.0699999 9
8.8990002 -1.585 2.01 9
8.9040003 -1.582 1.982 9
8.9250002 -1.584 2.0209999 9
8.9510002 -1.584 2.0350001 9
8.9029999 -1.584 2.0079999 9
8.8669996 -1.59 2.059 9
8.915 -1.581 1.9680001 9
8.941 -1.58 1.973 9
8.8909998 -1.5880001 2.046 9
8.9580002 -1.585 2.0469999 9
8.8830004 -1.586 2.023 9
8.8509998 -1.5880001 2.0309999 9
8.9540005 -1.586 2.0539999 9
8.8780003 -1.587 2.0350001 9
8.9020004 -1.5829999 1.994 9
8.9239998 -1.58 1.956 9
8.9180002 -1.581 1.962 9
8.8199997 -1.591 2.0569999 9
8.8909998 -1.589 2.0639999 9
8.908 -1.581 1.962 9
8.8999996 -1.585 2.0109999 9
8.8769999 -1.587 2.0339999 9
8.8859997 -1.584 1.998 9
8.8339996 -1.591 2.0650001 9
8.9530001 -1.582 2.0079999 9
8.9630003 -1.584 2.036 9
8.9390001 -1.58 1.961 9
8.9200001 -1.5829999 1.9960001 9
8.823 -1.59 2.046 9
8.9209995 -1.582 1.985 9
8.7950001 -1.5930001 2.0599999 9
8.8199997 -1.592 2.0639999 9
8.8940001 -1.5880001 2.0550001 9
8.8909998 -1.585 2.01 9
8.8260002 -1.591 2.05 9
8.9040003 -1.585 2.0220001 9
8.8199997 -1.591 2.056 9
8.8769999 -1.589 2.0550001 9
8.8599997 -1.587 2.02 9
8.9589996 -1.582 2.003 9
8.8769999 -1.589 2.0550001 9
8.9280005 -1.586 2.039 9
8.9510002 -1.581 1.9859999 9
8.9619999 -1.5829999 2.029 9
8.96 -1.582 2.013 9
8.927 -1.586 2.0480001 9
8.8439999 -1.587 2.017 9
8.9320002 -1.5829999 2.0090001 9
8.9560003 -1.581 1.99 9
8.9530001 -1.581 1.989 9
8.9429998 -1.58 1.973 9
8.934 -1.586 2.0550001 9
8.8669996 -1.5880001 2.0339999 9
8.9239998 -1.582 1.992 9
8.9049997 -1.587 2.049 9
8.9549999 -1.581 1.984 9
8.9399996 -1.587 2.0599999 9
8.9250002 -1.584 2.0090001 9
8.9130001 -1.586 2.0420001 9
8.9390001 -1.584 2.023 9
8.941 -1.586 2.046 9
8.9110003 -1.586 2.0369999 9
8.8599997 -1.59 2.0610001 9
8.9429998 -1.5829999 2.0079999 9
8.948 -1.5829999 2.0090001 9
8.9189997 -1.5880001 2.062 9
8.9490004 -1.58 1.97 9
8.9639997 -1.5829999 2.0250001 9
8.9219999 -1.584 2.007 9
8.915 -1.5829999 1.997 9
8.9329996 -1.58 1.959 9
8.8889999 -1.586 2.023 9
8.9110003 -1.5829999 2 9
8.8660002 -1.5880001 2.0320001 9
8.9230003 -1.582 1.989 9
8.8859997 -1.585 2.0120001 9
8.9460001 -1.584 2.0339999 9
8.9189997 -1.585 2.0250001 9
8.9449997 -1.58 1.977 9
8.8380003 -1.591 2.069 9
8.9569998 -1.584 2.04 9
8.8660002 -1.5880001 2.0380001 9
8.9350004 -1.582 1.993 9
8.9350004 -1.581 1.982 9
8.8590002 -1.589 2.053 9
8.9099998 -1.585 2.017 9
8.9530001 -1.581 1.99 9
8.8380003 -1.59 2.053 9
8.8529997 -1.589 2.04 9
8.8050003 -1.592 2.0599999 9
8.8509998 -1.59 2.0639999 9
8.8870001 -1.587 2.03 9
8.9359999 -1.581 1.985 9
8.9390001 -1.584 2.0209999 9
8.901 -1.589 2.0650001 9
8.8950005 -1.586 2.03 9
8.9549999 -1.554 1.9299999 9
8.9519997 -1.567 1.931 9
8.9770002 -1.53 1.959 9
8.9589996 -1.526 1.923 9
8.9510002 -1.551 1.921 9
8.9700003 -1.526 1.944 9
8.9569998 -1.525 1.9170001 9
8.9619999 -1.531 1.9299999 9
8.9689999 -1.535 1.946 9
8.9530001 -1.5319999 1.914 9
8.9540005 -1.546 1.924 9
8.9549999 -1.549 1.928 9
8.9899998 -1.525 2.006 9
8.9569998 -1.564 1.946 9
8.9720001 -1.576 2.0420001 9
8.9630003 -1.581 2.0150001 9
8.9519997 -1.572 1.942 9
8.9820004 -1.543 2.013 9
8.9750004 -1.568 2.04 9
8.9589996 -1.566 1.9579999 9
8.9770002 -1.549 2.0009999 9
8.9899998 -1.526 2.0090001 9
8.9530001 -1.573 1.952 9
8.9750004 -1.5549999 2.007 9
8.9720001 -1.575 2.0439999 9
8.9799995 -1.551 2.0209999 9
8.9720001 -1.543 1.9680001 9
8.9650002 -1.551 1.9529999 9
8.9829998 -1.5420001 2.016 9
8.9779997 -1.53 1.965 9
8.9610004 -1.5779999 1.998 9
8.9469995 -1.576 1.928 9
8.9689999 -1.549 1.969 9
8.9530001 -1.5779999 1.9630001 9
8.9619999 -1.554 1.947 9
8.9530001 -1.5779999 1.961 9
8.9639997 -1.553 1.955 9
8.9610004 -1.576 1.993 9
8.9809999 -1.533 1.983 9
8.9639997 -1.571 1.9960001 9
8.9879999 -1.53 2.0109999 9
8.9560003 -1.572 1.9579999 9
8.9639997 -1.559 1.967 9
8.9569998 -1.567 1.956 9
8.9729996 -1.566 2.0220001 9
8.9680004 -1.582 2.0369999 9
8.9729996 -1.55 1.987 9
8.9840002 -1.535 2.0009999 9
8.9659996 -1.5700001 2.0009999 9
8.9840002 -1.54 2.016 9
8.9700003 -1.568 2.0139999 9
8.9619999 -1.5599999 1.96 9
8.9619999 -1.559 1.9579999 9
8.9759998 -1.5319999 1.9579999 9
8.9630003 -1.5549999 1.954 9
8.96 -1.562 1.957 9
8.9549999 -1.5650001 1.941 9
8.9639997 -1.575 2.0020001 9
8.9639997 -1.563 1.978 9
8.9549999 -1.564 1.939 9
8.9610004 -1.557 1.95 9
8.974 -1.548 1.989 9
8.9720001 -1.563 2.013 9
8.9589996 -1.564 1.9579999 9
8.9580002 -1.573 1.973 9
8.974 -1.559 2.013 9
8.9720001 -1.5829999 2.0769999 9
8.974 -1.5779999 2.1110001 9
8.9770002 -1.567 2.053 9
8.9759998 -1.571 2.086 9
8.9720001 -1.584 2.2639999 9
8.9870005 -1.536 2.0539999 9
8.9720001 -1.5829999 2.0910001 9
8.9709997 -1.587 2.2909999 9
8.9860001 -1.5420001 2.1329999 9
8.9899998 -1.529 2.1010001 9
8.9779997 -1.566 2.174 9
8.9770002 -1.567 2.112 9
8.9829998 -1.549 2.122 9
8.974 -1.576 2.2539999 9
8.9750004 -1.573 2.181 9
8.9879999 -1.533 2.056 9
8.9770002 -1.568 2.1289999 9
8.9729996 -1.579 2.1300001 9
8.9820004 -1.554 2.151 9
8.9890003 -1.531 2.049 9
8.9809999 -1.556 2.0680001 9
8.9799995 -1.5599999 2.154 9
8.9759998 -1.571 2.122 9
8.9750004 -1.574 2.177 9
8.9729996 -1.58 2.217 9
8.9770002 -1.569 2.244 9
8.9809999 -1.556 2.1589999 9
8.9729996 -1.58 2.089 9
8.9720001 -1.5829999 2.21 9
8.9829998 -1.549 2.0469999 9
8.9820004 -1.552 2.142 9
8.9729996 -1.58 2.2190001 9
8.9779997 -1.566 2.2030001 9
8.9790001 -1.561 2.1530001 9
8.9759998 -1.5700001 2.2219999 9
8.9820004 -1.553 2.0680001 9
8.9759998 -1.572 2.22 9
8.9870005 -1.5369999 2.0669999 9
8.9879999 -1.533 2.095 9
8.9820004 -1.554 2.119 9
8.9750004 -1.576 2.217 9
8.9820004 -1.551 2.128 9
8.9820004 -1.552 2.092 9
8.9799995 -1.558 2.052 9
8.9729996 -1.581 2.1530001 9
8.9750004 -1.575 2.154 9
8.974 -1.577 2.237 9
8.9790001 -1.563 2.2019999 9
8.9729996 -1.581 2.207 9
8.9779997 -1.566 2.21 9
8.974 -1.577 2.1110001 9
8.9720001 -1.5829999 2.1129999 9
8.9729996 -1.5779999 2.0580001 9
8.9829998 -1.548 2.0840001 9
8.9759998 -1.569 2.085 9
8.974 -1.576 2.1300001 9
8.974 -1.576 2.109 9
8.9770002 -1.569 2.2179999 9
8.9860001 -1.541 2.118 9
8.9870005 -1.5369999 2.066 9
8.9799995 -1.5599999 2.059 9
8.9729996 -1.581 2.1429999 9
8.9720001 -1.5829999 2.1470001 9
8.9809999 -1.554 2.0829999 9
8.9840002 -1.5470001 2.0510001 9
8.9829998 -1.551 2.1789999 9
8.9870005 -1.5369999 2.082 9
8.9779997 -1.5650001 2.066 9
8.9779997 -1.5650001 2.1559999 9
8.9899998 -1.527 2.0699999 9
8.9890003 -1.53 2.0710001 9
8.9720001 -1.5829999 2.1400001 9
8.9709997 -1.587 2.204 9
8.9860001 -1.538 2.0439999 9
8.9829998 -1.549 2.112 9
8.9899998 -1.527 2.0829999 9
8.9860001 -1.539 2.086 9
8.9829998 -1.551 2.0929999 9
8.9840002 -1.5470001 2.085 9
8.9849997 -1.5420001 2.145 9
8.9820004 -1.553 2.0840001 9
8.9879999 -1.534 2.0780001 9
8.9729996 -1.581 2.1900001 9
8.9779997 -1.564 2.059 9
8.9750004 -1.574 2.125 9
8.9750004 -1.574 2.2290001 9
8.9849997 -1.543 2.1129999 9
8.9709997 -1.587 2.2279999 9
8.9729996 -1.58 2.132 9
8.9879999 -1.533 2.036 9
8.9840002 -1.5470001 2.0380001 9
8.9870005 -1.536 2.036 9
8.9750004 -1.574 2.0869999 9
8.9720001 -1.584 2.2279999 9
8.9750004 -1.574 2.257 9
8.9709997 -1.5880001 2.2750001 9
8.9709997 -1.585 2.2479999 9
8.9840002 -1.545 2.0409999 9
8.974 -1.576 2.2650001 9
8.9729996 -1.579 2.1229999 9
8.9729996 -1.579 2.0699999 9
8.9820004 -1.552 2.0880001 9
8.9799995 -1.558 2.181 9
8.9750004 -1.573 2.1900001 9
8.9799995 -1.558 2.0569999 9
8.9829998 -1.549 2.1259999 9
8.9879999 -1.534 2.1040001 9
8.9729996 -1.581 2.0680001 9
8.9809999 -1.556 2.112 9
8.9799995 -1.558 2.1860001 9
8.9820004 -1.554 2.1400001 9
8.974 -1.579 2.3 9
8.9919996 -1.528 2.2160001 9
8.9840002 -1.548 2.2149999 9
8.9890003 -1.531 2.118 9
8.9899998 -1.5319999 2.227 9
8.9879999 -1.541 2.2950001 9
8.9790001 -1.5650001 2.263 9
8.9799995 -1.561 2.2620001 9
8.9820004 -1.557 2.26 9
8.9870005 -1.54 2.1719999 9
8.9910002 -1.531 2.2449999 9
8.9709997 -1.586 2.303 9
8.9849997 -1.544 2.191 9
8.9910002 -1.5319999 2.2839999 9
8.9910002 -1.533 2.267 9
8.9870005 -1.538 2.175 9
8.9799995 -1.564 2.3069999 9
8.9890003 -1.534 2.168 9
8.9870005 -1.541 2.224 9
8.9750004 -1.574 2.279 9
8.9919996 -1.53 2.2850001 9
8.9890003 -1.534 2.171 9
8.9720001 -1.5829999 2.293 9
8.9870005 -1.543 2.2550001 9
8.9790001 -1.564 2.2390001 9
8.9840002 -1.554 2.302 9
8.9890003 -1.536 2.244 9
8.9919996 -1.526 2.1459999 9
8.9890003 -1.533 2.1340001 9
8.9860001 -1.5420001 2.207 9
8.9940004 -1.526 2.2780001 9
8.993 -1.528 2.2820001 9
8.9799995 -1.561 2.2720001 9
8.9879999 -1.538 2.177 9
8.9910002 -1.531 2.2309999 9
8.9729996 -1.581 2.2920001 9
8.9879999 -1.54 2.2709999 9
8.9849997 -1.551 2.2939999 9
8.9759998 -1.574 2.29 9
8.9870005 -1.54 2.1719999 9
8.9750004 -1.577 2.3010001 9
8.9849997 -1.546 2.211 9
8.9919996 -1.53 2.266 9
8.9860001 -1.544 2.2090001 9
8.9840002 -1.5470001 2.194 9
8.9799995 -1.562 2.26 9
8.9840002 -1.5470001 2.1730001 9
8.9809999 -1.559 2.263 9
8.9849997 -1.548 2.2320001 9
8.993 -1.525 2.2090001 9
8.9840002 -1.551 2.27 9
8.9910002 -1.528 2.1429999 9
8.9770002 -1.5700001 2.25 9
8.9840002 -1.553 2.3010001 9
8.993 -1.527 2.2460001 9
8.9750004 -1.576 2.283 9
8.9840002 -1.548 2.184 9
8.9870005 -1.5420001 2.2219999 9
8.9879999 -1.5420001 2.2880001 9
8.9860001 -1.545 2.2720001 9
8.9870005 -1.54 2.2079999 9
8.9849997 -1.55 2.2980001 9
8.9840002 -1.55 2.266 9
8.9879999 -1.536 2.1849999 9
8.9919996 -1.529 2.2690001 9
8.9899998 -1.534 2.221 9
8.9840002 -1.552 2.2690001 9
8.9890003 -1.539 2.263 9
8.974 -1.5779999 2.2780001 9
8.9940004 -1.525 2.2880001 9
8.9829998 -1.554 2.247 9
8.9849997 -1.548 2.286 9
8.9899998 -1.535 2.2820001 9
8.9910002 -1.525 2.0929999 9
8.9899998 -1.53 2.1300001 9
8.9829998 -1.55 2.187 9
8.9870005 -1.541 2.25 9
8.7559996 -1.551 2.0209999 9
8.7729998 -1.559 1.951 9
8.7810001 -1.577 1.9859999 9
8.7740002 -1.574 2.0120001 9
8.7690001 -1.572 2.04 9
8.7629995 -1.559 2.016 9
8.7740002 -1.582 2.0539999 9
8.7609997 -1.552 1.993 9
8.7480001 -1.536 2.006 9
8.7609997 -1.5599999 2.03 9
8.7559996 -1.548 2.0039999 9
8.776 -1.5650001 1.962 9
8.7629995 -1.546 1.957 9
8.7729998 -1.562 1.9680001 9
8.7790003 -1.579 2.0050001 9
8.7700005 -1.574 2.0450001 9
8.7589998 -1.559 2.04 9
8.7580004 -1.552 2.016 9
8.757 -1.546 1.992 9
8.7510004 -1.54 2.0020001 9
8.7600002 -1.549 1.987 9
8.7810001 -1.582 2.0090001 9
8.7749996 -1.571 1.992 9
8.75 -1.543 2.02 9
8.743 -1.533 2.0209999 9
8.776 -1.5880001 2.066 9
8.7530003 -1.5369999 1.975 9
8.7510004 -1.534 1.973 9
8.7799997 -1.591 2.059 9
8.7600002 -1.557 2.023 9
8.7519999 -1.544 2.0139999 9
8.7810001 -1.5779999 1.993 9
8.7559996 -1.5549999 2.0380001 9
8.7679996 -1.556 1.972 9
8.776 -1.575 2.0079999 9
8.7790003 -1.5829999 2.026 9
8.7740002 -1.581 2.05 9
8.776 -1.5829999 2.0480001 9
8.7679996 -1.5700001 2.0320001 9
8.7860003 -1.575 1.948 9
8.7690001 -1.571 2.036 9
8.7790003 -1.591 2.066 9
8.7629995 -1.556 1.998 9
8.7700005 -1.564 1.995 9
8.7749996 -1.563 1.9579999 9
8.7659998 -1.552 1.96 9
8.7480001 -1.536 2.003 9
8.7819996 -1.572 1.9579999 9
8.7620001 -1.557 2.0139999 9
8.7530003 -1.538 1.983 9
8.7749996 -1.582 2.052 9
8.7639999 -1.5599999 2.01 9
8.7690001 -1.5700001 2.029 9
8.7770004 -1.569 1.974 9
8.7799997 -1.5880001 2.046 9
8.7559996 -1.541 1.975 9
8.7729998 -1.561 1.9630001 9
8.7810001 -1.584 2.02 9
8.7650003 -1.554 1.979 9
8.7609997 -1.5599999 2.0320001 9
8.7650003 -1.568 2.0469999 9
8.7469997 -1.5369999 2.0150001 9
8.7510004 -1.554 2.158 9
8.7360001 -1.5319999 2.1029999 9
8.7379999 -1.536 2.1819999 9
8.7449999 -1.545 2.184 9
8.7410002 -1.54 2.1530001 9
8.7489996 -1.551 2.102 9
8.7379999 -1.535 2.201 9
8.7670002 -1.576 2.0810001 9
8.7410002 -1.54 2.1600001 9
8.7460003 -1.546 2.1849999 9
8.7360001 -1.533 2.2019999 9
8.7550001 -1.5599999 2.098 9
8.7349997 -1.5319999 2.224 9
8.7539997 -1.558 2.145 9
8.7419996 -1.541 2.102 9
8.7539997 -1.557 2.1129999 9
8.7360001 -1.5319999 2.1359999 9
8.7399998 -1.539 2.1329999 9
8.7390003 -1.5369999 2.1199999 9
8.7460003 -1.5470001 2.191 9
8.7620001 -1.5700001 2.0999999 9
8.7329998 -1.528 2.109 9
8.7440004 -1.545 2.1919999 9
8.7589998 -1.564 2.096 9
8.7440004 -1.544 2.115 9
8.7399998 -1.539 2.148 9
8.7340002 -1.529 2.122 9
8.75 -1.552 2.1600001 9
8.7449999 -1.546 2.1730001 9
8.7469997 -1.548 2.1619999 9
8.7600002 -1.566 2.1110001 9
8.7419996 -1.54 2.1099999 9
8.7559996 -1.5599999 2.089 9
8.7390003 -1.5369999 2.2030001 9
8.7370005 -1.534 2.138 9
8.7340002 -1.53 2.1199999 9
8.7410002 -1.54 2.1470001 9
8.7629995 -1.571 2.1059999 9
8.75 -1.552 2.1129999 9
8.743 -1.5420001 2.095 9
8.7530003 -1.556 2.1129999 9
8.7510004 -1.554 2.0880001 9
8.7460003 -1.546 2.161 9
8.7399998 -1.539 2.1070001 9
8.7530003 -1.557 2.108 9
8.7550001 -1.559 2.1570001 9
8.7740002 -1.586 2.0799999 9
8.7480001 -1.549 2.175 9
8.7690001 -1.579 2.1129999 9
8.757 -1.562 2.086 9
8.7670002 -1.576 2.108 9
8.7480001 -1.549 2.125 9
8.7399998 -1.538 2.161 9
8.7480001 -1.549 2.1889999 9
8.7600002 -1.566 2.0880001 9
8.7519999 -1.556 2.1619999 9
8.7349997 -1.5319999 2.187 9
8.7340002 -1.531 2.2119999 9
8.7620001 -1.569 2.102 9
8.7320004 -1.528 2.175 9
8.7559996 -1.561 2.1210001 9
8.7399998 -1.538 2.221 9
8.7819996 -1.561 1.937 9
8.7740002 -1.548 1.939 9
8.7709999 -1.538 1.9349999 9
8.7709999 -1.5549999 1.95 9
8.7629995 -1.534 1.944 9
8.7700005 -1.5420001 1.9400001 9
8.7799997 -1.562 1.942 9
8.7690001 -1.551 1.95 9
8.7550001 -1.53 1.954 9
8.7729998 -1.549 1.9400001 9
8.7670002 -1.543 1.946 9
8.7620001 -1.535 1.947 9
8.776 -1.539 1.927 9
8.7670002 -1.533 1.9349999 9
8.7390003 -1.531 2.0469999 9
8.743 -1.5420001 2.086 9
8.7440004 -1.539 2.0610001 9
8.75 -1.552 2.0869999 9
8.7510004 -1.548 2.0480001 9
8.7709999 -1.581 2.0769999 9
8.7399998 -1.529 2.0190001 9
8.743 -1.534 2.033 9
8.7460003 -1.541 2.0420001 9
8.7370005 -1.5319999 2.079 9
8.7480001 -1.545 2.0510001 9
8.7419996 -1.539 2.072 9
8.7399998 -1.535 2.0650001 9
8.757 -1.559 2.063 9
8.7449999 -1.539 2.0450001 9
8.7709999 -1.58 2.069 9
8.7790003 -1.592 2.072 9
8.7700005 -1.579 2.0680001 9
8.7449999 -1.538 2.04 9
8.7659998 -1.574 2.0739999 9
8.7370005 -1.529 2.059 9
8.7480001 -1.548 2.0810001 9
8.7609997 -1.566 2.069 9
8.7740002 -1.584 2.0650001 9
8.7589998 -1.564 2.082 9
8.7460003 -1.541 2.043 9
8.757 -1.557 2.0420001 9
8.7600002 -1.563 2.063 9
8.7510004 -1.552 2.075 9
8.7360001 -1.533 2.0940001 9
8.7639999 -1.5700001 2.062 9
8.7629995 -1.569 2.069 9
8.7779999 -1.591 2.0710001 9
8.7530003 -1.552 2.0539999 9
8.7399998 -1.529 2.0190001 9
8.7379999 -1.531 2.056 9
8.7519999 -1.5549999 2.079 9
8.8129997 -1.59 2.319 9
8.8109999 -1.58 2.336 9
8.8000002 -1.559 2.3529999 9
8.7690001 -1.5420001 2.3099999 9
8.7939997 -1.568 2.3180001 9
8.7770004 -1.543 2.3280001 9
8.7620001 -1.548 2.28 9
8.802 -1.5779999 2.3169999 9
8.8109999 -1.587 2.3199999 9
8.7740002 -1.546 2.3139999 9
8.7869997 -1.5549999 2.329 9
8.7919998 -1.567 2.3139999 9
8.7910004 -1.566 2.3139999 9
8.8079996 -1.577 2.3340001 9
8.7629995 -1.5470001 2.2850001 9
8.7810001 -1.561 2.3010001 9
8.809 -1.5829999 2.326 9
8.802 -1.562 2.3540001 9
8.8109999 -1.58 2.3380001 9
8.7559996 -1.538 2.286 9
8.7880001 -1.571 2.296 9
8.7589998 -1.543 2.2820001 9
8.783 -1.551 2.3280001 9
8.7880001 -1.571 2.2950001 9
8.7550001 -1.54 2.2780001 9
8.7700005 -1.546 2.3050001 9
8.7959995 -1.574 2.309 9
8.7919998 -1.5700001 2.3080001 9
8.7770004 -1.559 2.2939999 9
8.7709999 -1.556 2.2839999 9
8.7510004 -1.543 2.2620001 9
8.7950001 -1.558 2.3410001 9
8.7840004 -1.568 2.2920001 9
8.8039999 -1.576 2.326 9
8.7670002 -1.549 2.289 9
8.7770004 -1.5599999 2.2909999 9
8.7410002 -1.535 2.253 9
8.7749996 -1.5470001 2.316 9
8.8199997 -1.595 2.326 9
8.7819996 -1.5650001 2.2939999 9
8.7919998 -1.566 2.3169999 9
8.79 -1.551 2.346 9
8.7799997 -1.5470001 2.329 9
8.7860003 -1.553 2.3310001 9
8.802 -1.5779999 2.319 9
8.8149996 -1.587 2.329 9
8.7969999 -1.572 1.9400001 9
8.816 -1.564 1.934 9
8.849 -1.5549999 1.926 9
8.8579998 -1.544 1.919 9
8.8590002 -1.572 1.933 9
8.8629999 -1.552 1.923 9
8.8100004 -1.529 1.918 9
8.9359999 -1.574 1.925 9
8.8319998 -1.554 1.927 9
8.7989998 -1.554 1.931 9
8.8039999 -1.556 1.931 9
8.8409996 -1.5470001 1.923 9
8.8439999 -1.5700001 1.934 9
8.8669996 -1.5470001 1.92 9
8.8170004 -1.573 1.938 9
8.8599997 -1.545 1.92 9
8.9099998 -1.576 1.929 9
8.9239998 -1.5700001 1.925 9
8.8430004 -1.569 1.933 9
8.8509998 -1.5549999 1.925 9
8.7770004 -1.5369999 1.926 9
8.8450003 -1.541 1.92 9
8.8240004 -1.536 1.92 9
8.8100004 -1.544 1.925 9
8.8009996 -1.5470001 1.928 9
8.8310003 -1.557 1.929 9
8.8599997 -1.574 1.934 9
8.8199997 -1.529 1.916 9
8.8450003 -1.539 1.918 9
8.8640003 -1.564 1.928 9
8.8559999 -1.564 1.929 9
8.8430004 -1.546 1.9220001 9
8.8219995 -1.572 1.937 9
8.8730001 -1.574 1.932 9
8.8120003 -1.538 1.9220001 9
8.8699999 -1.556 1.924 9
8.7930002 -1.554 1.932 9
8.8339996 -1.545 1.923 9
8.8850002 -1.554 1.921 9
8.8459997 -1.548 1.923 9
8.8199997 -1.5470001 1.925 9
8.8470001 -1.564 1.9299999 9
8.8730001 -1.562 1.927 9
8.8120003 -1.543 1.924 9
8.8830004 -1.574 1.931 9
8.7919998 -1.575 1.942 9
8.9069996 -1.568 1.926 9
8.9200001 -1.566 1.923 9
8.9259996 -1.5700001 1.924 9
8.9280005 -1.573 1.925 9
8.8529997 -1.551 1.923 9
8.7950001 -1.568 1.938 9
8.849 -1.554 1.926 9
8.7930002 -1.5369999 1.924 9
8.8739996 -1.5700001 1.9299999 9
8.8059998 -1.553 1.9299999 9
8.7849998 -1.557 1.934 9
8.8620005 -1.5700001 2.3559999 9
8.8520002 -1.577 2.349 9
8.8319998 -1.594 2.3329999 9
8.8660002 -1.5700001 2.3559999 9
8.835 -1.563 2.359 9
8.8389997 -1.563 2.359 9
8.8500004 -1.5779999 2.348 9
8.8800001 -1.558 2.368 9
8.8179998 -1.571 2.3510001 9
8.868 -1.563 2.3629999 9
8.8149996 -1.558 2.362 9
8.8260002 -1.5650001 2.3570001 9
8.8140001 -1.5549999 2.3629999 9
8.816 -1.571 2.3510001 9
8.8190002 -1.553 2.3659999 9
8.8070002 -1.558 2.3610001 9
8.8380003 -1.556 2.365 9
8.8549995 -1.573 2.3529999 9
8.8290005 -1.58 2.3440001 9
8.8190002 -1.573 2.349 9
8.8240004 -1.568 2.3529999 9
8.8809996 -1.561 2.365 9
8.8549995 -1.5599999 2.3640001 9
8.8620005 -1.564 2.3610001 9
8.8260002 -1.5930001 2.3329999 9
8.8389997 -1.584 2.342 9
8.8369999 -1.566 2.3570001 9
8.8190002 -1.5549999 2.365 9
8.9200001 -1.564 2.3369999 9
8.9099998 -1.564 2.3429999 9
8.8669996 -1.577 2.345 9
8.8809996 -1.575 2.339 9
8.8739996 -1.572 2.3499999 9
8.8430004 -1.589 2.336 9
8.8610001 -1.5829999 2.336 9
8.8940001 -1.559 2.3640001 9
8.8809996 -1.563 2.3629999 9
8.8620005 -1.586 2.3299999 9
8.8959999 -1.566 2.348 9
8.8599997 -1.5880001 2.3280001 9
8.8809996 -1.5700001 2.3499999 9
8.9060001 -1.562 2.3499999 9
8.9040003 -1.562 2.3510001 9
8.8699999 -1.585 2.3269999 9
8.9020004 -1.561 2.3540001 9
8.8549995 -1.582 2.342 9
8.8649998 -1.587 2.326 9
8.9110003 -1.563 2.345 9
8.8640003 -1.584 2.3329999 9
8.9160004 -1.567 2.3329999 9
8.8950005 -1.566 2.349 9
8.8710003 -1.585 2.326 9
8.9119997 -1.5650001 2.3410001 9
8.9209995 -1.5650001 2.3340001 9
8.9090004 -1.568 2.336 9
8.9180002 -1.568 2.3310001 9
8.8769999 -1.569 2.3540001 9
8.8850002 -1.564 2.359 9
8.9250002 -1.566 2.3299999 9
8.9060001 -1.5700001 2.3340001 9
8.9200001 -1.536 1.914 9
8.9280005 -1.544 1.916 9
8.9200001 -1.5549999 1.92 9
8.9049997 -1.533 1.914 9
8.9289999 -1.548 1.9170001 9
8.9490004 -1.544 1.916 9
8.8719997 -1.541 1.9170001 9
8.8970003 -1.543 1.9170001 9
8.9370003 -1.534 1.913 9
8.8909998 -1.5470001 1.918 9
8.9049997 -1.527 1.9119999 9
8.9200001 -1.55 1.918 9
8.9139996 -1.545 1.9170001 9
8.927 -1.5470001 1.9170001 9
8.8610001 -1.536 1.916 9
8.9429998 -1.5599999 1.92 9
8.9130001 -1.5470001 1.9170001 9
8.9469995 -1.557 1.92 9
8.8950005 -1.534 1.914 9
8.9110003 -1.5420001 1.916 9
8.9130001 -1.535 1.914 9
8.9040003 -1.557 1.921 9
8.8970003 -1.536 1.915 9
8.8929996 -1.5319999 1.914 9
8.908 -1.5549999 1.92 9
8.9289999 -1.5470001 1.9170001 9
8.8579998 -1.527 1.913 9
8.9040003 -1.53 1.913 9
8.7399998 -1.529 2.2579999 9
8.7930002 -1.543 2.3559999 9
8.7360001 -1.529 2.25 9
8.7410002 -1.528 2.2579999 9
8.7790003 -1.538 2.3299999 9
8.776 -1.529 2.3169999 9
8.783 -1.5319999 2.3310001 9
8.7550001 -1.528 2.2820001 9
8.783 -1.538 2.335 9
8.7729998 -1.538 2.3180001 9
8.7600002 -1.536 2.2950001 9
8.7480001 -1.529 2.27 9
8.7880001 -1.543 2.3469999 9
8.7670002 -1.5319999 2.303 9
8.7880001 -1.539 2.3440001 9
8.941 -1.569 2.3199999 9
8.9099998 -1.5779999 2.322 9
8.8769999 -1.5930001 2.3239999 9
8.842 -1.596 2.3269999 9
8.9499998 -1.571 2.319 9
8.875 -1.586 2.3239999 9
8.9420004 -1.587 2.3199999 9
8.8900003 -1.585 2.323 9
8.9209995 -1.574 2.3210001 9
8.9060001 -1.581 2.322 9
8.9350004 -1.581 2.3199999 9
8.9469995 -1.567 2.3199999 9
8.9139996 -1.579 2.322 9
8.9359999 -1.59 2.3199999 9
8.9329996 -1.571 2.3199999 9
8.9399996 -1.585 2.3199999 9
8.8970003 -1.585 2.323 9
8.9110003 -1.5930001 2.322 9
8.8940001 -1.5880001 2.323 9
8.9630003 -1.525 2.3199999 9
8.9469995 -1.5599999 2.3210001 9
8.9549999 -1.5369999 2.3239999 9
8.9390001 -1.528 2.345 9
8.9680004 -1.531 2.313 9
8.9519997 -1.535 2.3280001 9
8.9569998 -1.55 2.316 9
8.9589996 -1.541 2.3180001 9
8.9510002 -1.531 2.3299999 9
8.9469995 -1.553 2.3239999 9
8.934 -1.529 2.3499999 9
8.9390001 -1.528 2.345 9
8.9540005 -1.5470001 2.3199999 9
8.9510002 -1.538 2.3269999 9
8.9499998 -1.529 2.3329999 9
8.9689999 -1.566 2.3139999 9
8.9759998 -1.5319999 2.306 9
8.9759998 -1.534 2.306 9
8.9890003 -1.5369999 2.303 9
8.9840002 -1.527 2.302 9
8.9770002 -1.552 2.309 9
8.9720001 -1.533 2.3069999 9
8.9700003 -1.548 2.3099999 9
8.9619999 -1.5779999 2.3180001 9
8.9759998 -1.545 2.3080001 9
8.9899998 -1.529 2.3010001 9
8.9510002 -1.567 2.319 9
8.9709997 -1.579 2.316 9
8.9639997 -1.548 2.312 9
8.9729996 -1.535 2.3069999 9
