# .PCD v0.7 - Point Cloud Data file format
VERSION 0.7
FIELDS x y z label
SIZE 4 4 4 4
TYPE F F F U
COUNT 1 1 1 1
WIDTH 1
HEIGHT 1442
VIEWPOINT 0 0 0 1 0 0 0
POINTS 1442
DATA ascii
4.598 -1.528 1.9809999 9
4.5819998 -1.546 1.969 9
4.5970001 -1.534 1.982 9
4.592 -1.528 1.975 9
4.5549998 -1.529 1.934 9
4.5819998 -1.5319999 1.965 9
4.572 -1.5420001 1.957 9
4.5710001 -1.534 1.9529999 9
4.566 -1.556 1.954 9
4.5689998 -1.54 1.9529999 9
4.5760002 -1.548 1.9630001 9
4.5780001 -1.5470001 1.965 9
4.5809999 -1.566 1.973 9
4.5770001 -1.531 1.959 9
4.5739999 -1.528 1.954 9
4.572 -1.531 1.9529999 9
4.5710001 -1.5700001 1.964 9
4.5760002 -1.546 1.962 9
4.5580001 -1.535 1.9400001 9
4.5710001 -1.529 1.951 9
4.579 -1.567 1.971 9
4.5809999 -1.541 1.966 9
4.5609999 -1.529 2.3340001 9
4.5599999 -1.53 2.335 9
4.5489998 -1.529 2.346 9
4.5830002 -1.551 2.286 9
4.573 -1.557 2.296 9
4.5710001 -1.567 2.289 9
4.5609999 -1.559 2.3110001 9
4.5609999 -1.546 2.3210001 9
4.585 -1.5470001 2.2869999 9
4.5599999 -1.538 2.3310001 9
4.5539999 -1.562 2.3180001 9
4.559 -1.551 2.3210001 9
4.5760002 -1.539 2.3080001 9
4.5619998 -1.544 2.322 9
4.5710001 -1.533 2.3199999 9
4.5780001 -1.556 2.289 9
4.5799999 -1.544 2.2969999 9
4.5500002 -1.5549999 2.3280001 9
4.5819998 -1.534 2.3039999 9
4.5650001 -1.573 2.2909999 9
4.5879998 -1.545 2.2850001 9
4.5749998 -1.529 2.3180001 9
4.5780001 -1.5599999 2.2850001 9
4.5869999 -1.5420001 2.2880001 9
4.566 -1.5369999 2.323 9
4.5630002 -1.549 2.316 9
4.5630002 -1.546 2.319 9
4.5749998 -1.541 2.306 9
4.5869999 -1.535 2.296 9
4.5760002 -1.582 1.99 9
4.5749998 -1.577 2.2030001 9
4.573 -1.58 2.2390001 9
4.5840001 -1.562 2.198 9
4.5840001 -1.5599999 2.2420001 9
4.5799999 -1.567 2.2509999 9
4.585 -1.562 2.1300001 9
4.5830002 -1.566 2.0829999 9
4.5809999 -1.566 2.233 9
4.6009998 -1.531 2.187 9
4.573 -1.581 2.1730001 9
4.585 -1.5599999 2.221 9
4.5949998 -1.541 2.2260001 9
4.5799999 -1.573 2.066 9
4.592 -1.548 2.1849999 9
4.5840001 -1.562 2.207 9
4.592 -1.545 2.266 9
4.592 -1.5470001 2.23 9
4.5780001 -1.576 2.0869999 9
4.5929999 -1.544 2.2780001 9
4.5749998 -1.579 2.1110001 9
4.5799999 -1.568 2.227 9
4.5910001 -1.549 2.2309999 9
4.5949998 -1.541 2.273 9
4.5999999 -1.533 2.2130001 9
4.5939999 -1.543 2.2420001 9
4.5869999 -1.5599999 2.056 9
4.5840001 -1.5599999 2.217 9
4.5770001 -1.576 2.1289999 9
4.5739999 -1.581 2.118 9
4.592 -1.5470001 2.1900001 9
4.5970001 -1.54 2.118 9
4.6020002 -1.53 2.1730001 9
4.5869999 -1.557 2.164 9
4.5960002 -1.5420001 2.102 9
4.6009998 -1.53 2.2249999 9
4.5809999 -1.5700001 2.0669999 9
4.5819998 -1.563 2.2490001 9
4.579 -1.574 2.036 9
4.5760002 -1.575 2.2260001 9
4.5819998 -1.5700001 2.027 9
4.592 -1.546 2.22 9
4.5929999 -1.548 2.092 9
4.579 -1.572 2.158 9
4.6009998 -1.531 2.1689999 9
4.5869999 -1.556 2.2030001 9
4.5760002 -1.576 2.1800001 9
4.5869999 -1.5549999 2.2130001 9
4.5960002 -1.543 2.1199999 9
4.5929999 -1.544 2.2060001 9
4.5879998 -1.5549999 2.175 9
4.585 -1.564 2.049 9
4.573 -1.582 2.1789999 9
4.592 -1.545 2.2460001 9
4.5819998 -1.566 2.1800001 9
4.5770001 -1.577 2.073 9
4.586 -1.5599999 2.152 9
4.5900002 -1.551 2.1849999 9
4.5830002 -1.567 2.0680001 9
4.6020002 -1.531 2.151 9
4.5960002 -1.541 2.1830001 9
4.5780001 -1.571 2.2479999 9
4.5809999 -1.5700001 2.0409999 9
4.598 -1.536 2.2349999 9
4.5770001 -1.575 2.142 9
4.5739999 -1.5779999 2.2550001 9
4.5749998 -1.58 2.085 9
4.5770001 -1.573 2.1849999 9
4.5929999 -1.544 2.273 9
4.5780001 -1.574 2.1630001 9
4.586 -1.559 2.141 9
4.5929999 -1.544 2.2579999 9
4.592 -1.549 2.1459999 9
4.579 -1.574 2.0780001 9
4.5749998 -1.577 2.1889999 9
4.579 -1.575 2.0350001 9
4.579 -1.575 2.0020001 9
4.5970001 -1.539 2.1619999 9
4.5939999 -1.544 2.2179999 9
4.5840001 -1.561 2.243 9
4.5819998 -1.569 2.0780001 9
4.5890002 -1.554 2.1389999 9
4.5840001 -1.566 2.059 9
4.598 -1.539 2.1340001 9
4.5910001 -1.5470001 2.2690001 9
4.579 -1.5700001 2.1900001 9
4.579 -1.574 2.036 9
4.5780001 -1.573 2.122 9
4.5910001 -1.549 2.181 9
4.585 -1.559 2.207 9
4.579 -1.5700001 2.2290001 9
4.5819998 -1.568 2.0599999 9
4.5749998 -1.575 2.2479999 9
4.5830002 -1.563 2.211 9
4.585 -1.5599999 2.161 9
4.586 -1.557 2.207 9
4.5869999 -1.559 2.1110001 9
4.5799999 -1.568 2.224 9
4.5970001 -1.539 2.1900001 9
4.6020002 -1.531 2.154 9
4.592 -1.545 2.2709999 9
4.5869999 -1.556 2.204 9
4.598 -1.536 2.2049999 9
4.586 -1.561 2.0810001 9
4.5970001 -1.538 2.21 9
4.585 -1.559 2.267 9
4.592 -1.549 2.1199999 9
4.5890002 -1.5549999 2.1389999 9
4.5910001 -1.549 2.2119999 9
4.5749998 -1.582 2.0090001 9
4.592 -1.55 2.1140001 9
4.5900002 -1.553 2.131 9
4.5809999 -1.5700001 2.0380001 9
4.5830002 -1.562 2.2479999 9
4.5910001 -1.549 2.2349999 9
4.5749998 -1.577 2.2030001 9
4.5840001 -1.559 2.244 9
4.592 -1.55 2.0910001 9
4.5869999 -1.556 2.2049999 9
4.598 -1.536 2.2539999 9
4.6009998 -1.531 2.197 9
4.5819998 -1.5650001 2.204 9
4.586 -1.556 2.2539999 9
4.5939999 -1.546 2.099 9
4.5739999 -1.581 2.1210001 9
4.5840001 -1.559 2.2650001 9
4.592 -1.5470001 2.184 9
4.599 -1.535 2.1960001 9
4.5910001 -1.549 2.237 9
4.5949998 -1.543 2.1389999 9
4.573 -1.579 2.27 9
4.599 -1.535 2.2030001 9
4.5760002 -1.5779999 2.1129999 9
4.5999999 -1.5319999 2.2049999 9
4.592 -1.5470001 2.224 9
4.5999999 -1.5319999 2.056 9
4.599 -1.535 2.0450001 9
4.598 -1.534 1.992 9
4.5949998 -1.5420001 2.0150001 9
4.5819998 -1.5700001 1.994 9
4.5939999 -1.545 2.0280001 9
4.585 -1.563 1.9910001 9
4.6020002 -1.528 2.046 9
4.599 -1.5319999 2.023 9
4.5819998 -1.5700001 2.0079999 9
4.5949998 -1.541 2.0150001 9
4.6030002 -1.528 2.122 9
4.5960002 -1.541 2.046 9
4.5970001 -1.538 2.033 9
4.5970001 -1.536 1.9910001 9
4.5999999 -1.531 2.02 9
4.598 -1.536 2.0239999 9
4.5830002 -1.567 2.003 9
4.6009998 -1.533 2.1240001 9
4.598 -1.536 2.0710001 9
4.5999999 -1.533 2.0510001 9
4.6030002 -1.528 2.1329999 9
4.5879998 -1.558 2.0220001 9
4.5869999 -1.561 2.0320001 9
4.599 -1.535 2.0869999 9
4.5879998 -1.558 2.04 9
4.5949998 -1.54 1.997 9
4.599 -1.5319999 2.0109999 9
4.5939999 -1.546 2.073 9
4.5900002 -1.554 2.0510001 9
4.5999999 -1.531 2.007 9
4.5999999 -1.531 2.017 9
4.5939999 -1.544 2.0380001 9
4.5900002 -1.552 2.0369999 9
4.5939999 -1.546 2.0550001 9
4.579 -1.576 1.988 9
4.592 -1.55 2.0439999 9
4.5999999 -1.5319999 2.029 9
4.592 -1.549 2.0680001 9
4.5910001 -1.55 2.01 9
4.5939999 -1.5420001 1.9910001 9
4.5879998 -1.557 2.0139999 9
4.5819998 -1.568 1.999 9
4.3400002 -1.518 2.2709999 9
4.3429999 -1.531 2.263 9
4.3400002 -1.524 2.2260001 9
4.3379998 -1.52 2.161 9
4.3410001 -1.524 2.277 9
4.3379998 -1.518 2.191 9
4.3410001 -1.522 2.2820001 9
4.342 -1.526 2.2809999 9
4.3390002 -1.5190001 2.2149999 9
4.3439999 -1.535 2.26 9
4.3390002 -1.5190001 2.1949999 9
4.3410001 -1.524 2.257 9
4.3449998 -1.539 2.2260001 9
4.3439999 -1.534 2.2479999 9
4.3460002 -1.541 2.253 9
4.3410001 -1.526 2.2460001 9
4.3400002 -1.525 2.198 9
4.3390002 -1.522 2.1919999 9
4.3449998 -1.54 2.2320001 9
4.342 -1.5319999 2.217 9
4.3410001 -1.525 2.237 9
4.3460002 -1.541 2.2650001 9
4.3379998 -1.518 2.1789999 9
4.342 -1.53 2.207 9
4.342 -1.526 2.2750001 9
4.3460002 -1.545 2.2520001 9
4.3379998 -1.518 2.171 9
4.3400002 -1.524 2.1989999 9
4.342 -1.531 2.21 9
4.3709998 -1.558 2.0940001 9
4.375 -1.5470001 1.975 9
4.3429999 -1.521 2.112 9
4.3610001 -1.551 2.142 9
4.342 -1.521 2.115 9
4.3649998 -1.546 2.0639999 9
4.3410001 -1.524 2.1459999 9
4.3720002 -1.556 2.076 9
4.3509998 -1.527 2.0699999 9
4.355 -1.552 2.21 9
4.369 -1.543 2.007 9
4.3579998 -1.544 2.119 9
4.3779998 -1.564 2.0639999 9
4.3730001 -1.5599999 2.0929999 9
4.395 -1.575 1.97 9
4.3520002 -1.546 2.201 9
4.3649998 -1.554 2.1270001 9
4.3520002 -1.533 2.102 9
4.3699999 -1.554 2.0680001 9
4.3460002 -1.522 2.079 9
4.3779998 -1.564 2.0669999 9
4.3889999 -1.5650001 1.967 9
4.3460002 -1.523 2.095 9
4.3559999 -1.527 2.017 9
4.3909998 -1.573 1.9960001 9
4.3509998 -1.524 2.046 9
4.3429999 -1.535 2.204 9
4.3670001 -1.544 2.0280001 9
4.3559999 -1.534 2.0639999 9
4.401 -1.582 1.959 9
4.3499999 -1.5190001 2.03 9
4.3590002 -1.546 2.128 9
4.3899999 -1.574 2.0209999 9
4.3429999 -1.525 2.1329999 9
4.3559999 -1.5319999 2.0580001 9
4.3579998 -1.531 2.029 9
4.3670001 -1.54 2.003 9
4.348 -1.522 2.062 9
4.3800001 -1.562 2.033 9
4.3590002 -1.546 2.1199999 9
4.3590002 -1.53 2.0079999 9
4.3779998 -1.559 2.0280001 9
4.3790002 -1.567 2.0810001 9
4.348 -1.544 2.2260001 9
4.369 -1.541 1.9910001 9
4.3590002 -1.535 2.0439999 9
4.3520002 -1.543 2.174 9
4.3909998 -1.573 1.994 9
4.362 -1.552 2.141 9
4.3860002 -1.567 2.0109999 9
4.381 -1.556 1.983 9
4.375 -1.557 2.0480001 9
4.382 -1.557 1.976 9
4.3639998 -1.5369999 2.01 9
4.3530002 -1.524 2.0239999 9
4.368 -1.552 2.079 9
4.3629999 -1.543 2.0710001 9
4.3429999 -1.5319999 2.1900001 9
4.3759999 -1.5650001 2.0969999 9
4.3579998 -1.553 2.188 9
4.3909998 -1.567 1.9579999 9
4.3460002 -1.526 2.109 9
4.3629999 -1.539 2.0420001 9
4.3639998 -1.55 2.1059999 9
4.3909998 -1.569 1.978 9
4.342 -1.523 2.132 9
4.381 -1.568 2.069 9
4.3730001 -1.561 2.1010001 9
4.369 -1.549 2.05 9
4.3699999 -1.559 2.108 9
4.3600001 -1.5470001 2.128 9
4.3899999 -1.572 2.003 9
4.3629999 -1.556 2.158 9
4.3639998 -1.5470001 2.0799999 9
4.3579998 -1.529 2.016 9
4.3730001 -1.546 1.98 9
4.3530002 -1.525 2.0339999 9
4.3670001 -1.541 2.013 9
4.382 -1.569 2.062 9
4.3720002 -1.55 2.027 9
4.3530002 -1.5369999 2.1240001 9
4.3779998 -1.562 2.0480001 9
4.3720002 -1.549 2.0220001 9
4.3559999 -1.549 2.1719999 9
4.3800001 -1.566 2.0599999 9
4.3670001 -1.5549999 2.1129999 9
4.3559999 -1.54 2.119 9
4.3769999 -1.556 2.02 9
4.368 -1.553 2.0899999 9
4.382 -1.558 1.98 9
4.348 -1.534 2.1530001 9
4.3720002 -1.551 2.0339999 9
4.3860002 -1.569 2.0150001 9
4.382 -1.557 1.972 9
4.3590002 -1.543 2.108 9
4.375 -1.5599999 2.0650001 9
4.3610001 -1.54 2.0669999 9
4.3629999 -1.538 2.029 9
4.3559999 -1.5319999 2.056 9
4.3899999 -1.572 2.0039999 9
4.3790002 -1.564 2.059 9
4.3709998 -1.551 2.0409999 9
4.375 -1.559 2.059 9
4.3470001 -1.53 2.1270001 9
4.3639998 -1.5549999 2.1389999 9
4.348 -1.5190001 2.043 9
4.3410001 -1.524 2.1489999 9
4.3920002 -1.5700001 1.967 9
4.348 -1.521 2.052 9
4.3699999 -1.562 2.125 9
4.348 -1.548 2.2479999 9
4.382 -1.559 1.989 9
4.349 -1.529 2.105 9
4.3439999 -1.527 2.1359999 9
4.3569999 -1.548 2.161 9
4.3509998 -1.546 2.2060001 9
4.3709998 -1.5470001 2.0090001 9
4.362 -1.536 2.0209999 9
4.3909998 -1.573 2 9
4.3899999 -1.567 1.965 9
4.3709998 -1.551 2.046 9
4.3829999 -1.559 1.977 9
4.3649998 -1.534 1.9809999 9
4.348 -1.534 2.1459999 9
4.3579998 -1.543 2.1110001 9
4.3959999 -1.575 1.965 9
4.3530002 -1.534 2.0999999 9
4.3779998 -1.553 1.983 9
4.3779998 -1.5650001 2.0710001 9
4.3720002 -1.5549999 2.066 9
4.3449998 -1.522 2.0969999 9
4.3520002 -1.522 2.027 9
4.3720002 -1.545 1.99 9
4.3410001 -1.518 2.1070001 9
4.395 -1.573 1.956 9
4.3470001 -1.52 2.0599999 9
4.3590002 -1.541 2.0869999 9
4.3530002 -1.539 2.138 9
4.3530002 -1.534 2.1010001 9
4.3600001 -1.5470001 2.122 9
4.3590002 -1.55 2.155 9
4.348 -1.529 2.1129999 9
4.3740001 -1.554 2.029 9
4.368 -1.546 2.0369999 9
4.3790002 -1.567 2.082 9
4.355 -1.521 1.994 9
4.349 -1.546 2.2260001 9
4.3899999 -1.574 2.0190001 9
4.3600001 -1.538 2.0580001 9
4.342 -1.531 2.1889999 9
4.3530002 -1.5420001 2.1630001 9
4.3930001 -1.577 2.0090001 9
4.3829999 -1.566 2.027 9
4.355 -1.526 2.0250001 9
4.3829999 -1.577 2.1659999 9
4.3730001 -1.567 2.165 9
4.3779998 -1.574 2.1900001 9
4.3990002 -1.5829999 2.0090001 9
4.4000001 -1.5829999 1.999 9
4.3639998 -1.568 2.2969999 9
4.3590002 -1.557 2.2249999 9
4.3790002 -1.576 2.2030001 9
4.3759999 -1.567 2.1140001 9
4.3979998 -1.581 1.989 9
4.3790002 -1.574 2.1800001 9
4.3850002 -1.572 2.0539999 9
4.375 -1.568 2.1440001 9
4.3590002 -1.557 2.2249999 9
4.349 -1.549 2.2579999 9
4.3979998 -1.58 1.985 9
4.3860002 -1.576 2.1099999 9
4.381 -1.576 2.1689999 9
4.3720002 -1.569 2.1919999 9
4.3860002 -1.574 2.072 9
4.381 -1.579 2.21 9
4.3569999 -1.557 2.2509999 9
4.349 -1.55 2.2620001 9
4.3670001 -1.569 2.2820001 9
4.368 -1.568 2.24 9
4.3870001 -1.579 2.118 9
4.3759999 -1.572 2.194 9
4.3860002 -1.572 2.0510001 9
4.3889999 -1.579 2.105 9
4.375 -1.574 2.224 9
4.3720002 -1.573 2.2639999 9
4.3660002 -1.5650001 2.2309999 9
4.3660002 -1.563 2.207 9
4.3649998 -1.567 2.2720001 9
4.3600001 -1.559 2.2420001 9
4.369 -1.5650001 2.1849999 9
4.3670001 -1.5650001 2.2160001 9
4.3699999 -1.564 2.1689999 9
4.3699999 -1.563 2.141 9
4.3790002 -1.572 2.145 9
4.3639998 -1.559 2.168 9
4.3569999 -1.554 2.217 9
4.382 -1.572 2.0929999 9
4.3540001 -1.553 2.233 9
4.3779998 -1.577 2.2360001 9
4.3660002 -1.563 2.198 9
4.3720002 -1.571 2.2320001 9
4.3829999 -1.5779999 2.168 9
4.3559999 -1.558 2.2750001 9
4.3940001 -1.579 2.0250001 9
4.3899999 -1.579 2.069 9
4.3899999 -1.58 2.092 9
4.3699999 -1.568 2.217 9
4.3600001 -1.563 2.286 9
4.3740001 -1.569 2.178 9
4.3990002 -1.582 2.0050001 9
4.3649998 -1.567 2.266 9
4.3759999 -1.572 2.197 9
4.3860002 -1.575 2.0829999 9
4.3629999 -1.5599999 2.204 9
4.3730001 -1.574 2.25 9
4.3769999 -1.573 2.188 9
4.369 -1.5700001 2.267 9
4.3790002 -1.574 2.171 9
4.3709998 -1.571 2.2390001 9
4.3720002 -1.569 2.207 9
4.3730001 -1.575 2.2739999 9
4.368 -1.5650001 2.197 9
4.368 -1.571 2.2839999 9
4.3590002 -1.557 2.2130001 9
4.369 -1.564 2.175 9
4.3850002 -1.574 2.076 9
4.3730001 -1.576 2.283 9
4.3530002 -1.554 2.2550001 9
4.3730001 -1.5650001 2.1329999 9
4.3909998 -1.58 2.085 9
4.3769999 -1.567 2.1029999 9
4.3709998 -1.576 2.3110001 9
4.4039998 -1.5829999 1.947 9
4.381 -1.527 1.9349999 9
4.3829999 -1.534 1.938 9
4.3720002 -1.541 1.97 9
4.362 -1.52 1.971 9
4.388 -1.562 1.96 9
4.3870001 -1.552 1.949 9
4.3850002 -1.557 1.96 9
4.381 -1.55 1.961 9
4.3699999 -1.536 1.971 9
4.3839998 -1.5319999 1.934 9
4.3800001 -1.529 1.939 9
4.3610001 -1.525 1.979 9
4.368 -1.5319999 1.971 9
4.382 -1.524 1.931 9
4.3870001 -1.541 1.938 9
4.369 -1.528 1.964 9
4.381 -1.548 1.9579999 9
4.3870001 -1.531 1.926 9
4.3670001 -1.525 1.964 9
4.382 -1.545 1.9529999 9
4.395 -1.564 1.9450001 9
4.3779998 -1.523 1.937 9
4.382 -1.546 1.9529999 9
4.4419999 -1.5829999 2.0339999 9
4.4759998 -1.582 2.1630001 9
4.4889998 -1.582 2.1989999 9
4.54 -1.582 2.2679999 9
4.5139999 -1.5829999 2.181 9
4.4320002 -1.58 2.194 9
4.3839998 -1.579 2.2079999 9
4.4200001 -1.5779999 2.302 9
4.415 -1.579 2.233 9
4.5310001 -1.582 2.2290001 9
4.4749999 -1.582 2.1489999 9
4.4190001 -1.582 2.053 9
4.4660001 -1.582 2.1489999 9
4.4679999 -1.58 2.2839999 9
4.4910002 -1.581 2.2590001 9
4.4219999 -1.5829999 2.033 9
4.4349999 -1.584 2.013 9
4.4299998 -1.579 2.2309999 9
4.3940001 -1.5779999 2.243 9
4.4099998 -1.579 2.25 9
4.447 -1.58 2.221 9
4.3969998 -1.58 2.1370001 9
4.4590001 -1.5829999 2.085 9
4.4699998 -1.58 2.2349999 9
4.3990002 -1.582 2.069 9
4.4699998 -1.58 2.24 9
4.4029999 -1.579 2.211 9
4.487 -1.582 2.171 9
4.506 -1.581 2.2750001 9
4.401 -1.581 2.0940001 9
4.4180002 -1.5829999 2.016 9
4.4310002 -1.58 2.1900001 9
4.4460001 -1.579 2.2869999 9
4.4120002 -1.579 2.2579999 9
4.4390001 -1.58 2.227 9
4.4260001 -1.581 2.1440001 9
4.447 -1.581 2.1930001 9
4.421 -1.581 2.131 9
4.4099998 -1.5829999 2.0280001 9
4.454 -1.58 2.24 9
4.402 -1.58 2.1389999 9
4.4260001 -1.582 2.0940001 9
4.401 -1.582 2.0639999 9
4.5599999 -1.582 2.2620001 9
4.427 -1.582 2.0999999 9
4.388 -1.5779999 2.2260001 9
4.5089998 -1.582 2.2249999 9
4.3889999 -1.58 2.1659999 9
4.4450002 -1.58 2.2390001 9
4.3920002 -1.581 2.098 9
4.5279999 -1.581 2.2709999 9
4.4089999 -1.581 2.1059999 9
4.4780002 -1.58 2.256 9
4.539 -1.5829999 2.2149999 9
4.4000001 -1.58 2.145 9
4.4099998 -1.582 2.056 9
4.513 -1.582 2.2379999 9
4.5040002 -1.582 2.175 9
4.434 -1.58 2.223 9
4.467 -1.5829999 2.092 9
4.4970002 -1.5829999 2.158 9
4.3930001 -1.579 2.1960001 9
4.4120002 -1.579 2.2130001 9
4.5570002 -1.582 2.267 9
4.4359999 -1.5829999 2.0439999 9
4.4949999 -1.581 2.217 9
4.381 -1.577 2.2909999 9
4.4970002 -1.581 2.2639999 9
4.4070001 -1.582 2.0669999 9
4.4200001 -1.579 2.227 9
4.5479999 -1.5829999 2.2360001 9
4.54 -1.582 2.2309999 9
4.3899999 -1.58 2.138 9
4.4850001 -1.582 2.1500001 9
4.454 -1.5829999 2.0680001 9
4.447 -1.582 2.1010001 9
4.5279999 -1.581 2.283 9
4.3850002 -1.5779999 2.257 9
4.4390001 -1.579 2.277 9
4.4819999 -1.582 2.148 9
4.4120002 -1.581 2.148 9
4.4060001 -1.581 2.1340001 9
4.3899999 -1.579 2.207 9
4.5409999 -1.582 2.2650001 9
4.4619999 -1.581 2.221 9
4.3979998 -1.579 2.1919999 9
4.421 -1.579 2.25 9
4.4549999 -1.581 2.1949999 9
4.5170002 -1.582 2.2360001 9
4.4029999 -1.5829999 1.987 9
4.4029999 -1.58 2.155 9
4.4039998 -1.581 2.1259999 9
4.4829998 -1.582 2.148 9
4.4720001 -1.582 2.148 9
4.4390001 -1.582 2.082 9
4.461 -1.58 2.2739999 9
4.4510002 -1.58 2.2590001 9
4.4460001 -1.579 2.2690001 9
4.4260001 -1.5829999 2.03 9
4.4889998 -1.582 2.154 9
4.4219999 -1.5829999 2.043 9
4.4629998 -1.58 2.2539999 9
4.4299998 -1.5779999 2.3010001 9
4.4510002 -1.58 2.227 9
4.454 -1.582 2.1159999 9
4.4219999 -1.582 2.0569999 9
4.4650002 -1.582 2.155 9
4.4229999 -1.581 2.115 9
4.4200001 -1.582 2.0899999 9
4.382 -1.577 2.293 9
4.4889998 -1.582 2.1760001 9
4.4699998 -1.582 2.131 9
4.4400001 -1.5829999 2.0320001 9
4.4130001 -1.5829999 2.04 9
4.4949999 -1.582 2.1919999 9
4.4239998 -1.58 2.2149999 9
4.4400001 -1.582 2.1229999 9
4.4980001 -1.581 2.2490001 9
4.4559999 -1.58 2.257 9
4.4520001 -1.58 2.2409999 9
4.493 -1.581 2.23 9
4.4439998 -1.581 2.1600001 9
4.4380002 -1.58 2.237 9
4.441 -1.58 2.211 9
4.4380002 -1.582 2.085 9
4.4380002 -1.581 2.155 9
4.4959998 -1.582 2.1800001 9
4.4310002 -1.581 2.1329999 9
4.3990002 -1.5779999 2.253 9
4.4679999 -1.582 2.1630001 9
4.4439998 -1.584 2.03 9
4.4759998 -1.58 2.2550001 9
4.4229999 -1.5829999 2.023 9
4.5100002 -1.581 2.2409999 9
4.526 -1.5829999 2.1860001 9
4.414 -1.5829999 2.0239999 9
4.414 -1.5829999 2.0039999 9
4.5409999 -1.582 2.2309999 9
4.5180001 -1.5829999 2.1719999 9
4.533 -1.582 2.2179999 9
4.4860001 -1.582 2.1760001 9
4.4850001 -1.581 2.2090001 9
4.46 -1.582 2.1110001 9
4.3839998 -1.5779999 2.244 9
4.5050001 -1.5829999 2.155 9
4.4349999 -1.581 2.1459999 9
4.5 -1.5829999 2.1440001 9
4.494 -1.58 2.289 9
4.382 -1.577 2.277 9
4.454 -1.582 2.112 9
4.5339999 -1.582 2.24 9
4.5310001 -1.582 2.2179999 9
4.441 -1.5829999 2.066 9
4.4920001 -1.58 2.283 9
4.4060001 -1.5779999 2.263 9
4.428 -1.582 2.1099999 9
4.5100002 -1.581 2.257 9
4.4130001 -1.5779999 2.302 9
4.5370002 -1.582 2.237 9
4.4489999 -1.579 2.2609999 9
4.5149999 -1.581 2.2850001 9
4.395 -1.577 2.3069999 9
4.4959998 -1.582 2.2019999 9
4.4549999 -1.5829999 2.0780001 9
4.4749999 -1.5829999 2.118 9
4.493 -1.5829999 2.1270001 9
4.4720001 -1.5829999 2.119 9
4.4359999 -1.58 2.2290001 9
4.4169998 -1.581 2.1459999 9
4.48 -1.581 2.2079999 9
4.5500002 -1.582 2.2579999 9
4.4260001 -1.5829999 2.026 9
4.4310002 -1.5829999 2.0280001 9
4.388 -1.577 2.3050001 9
4.506 -1.5829999 2.164 9
4.4109998 -1.579 2.2550001 9
4.4710002 -1.5829999 2.1210001 9
4.402 -1.582 2.0810001 9
4.4190001 -1.58 2.184 9
4.441 -1.581 2.1670001 9
4.4029999 -1.58 2.1760001 9
4.46 -1.582 2.152 9
4.5359998 -1.582 2.2320001 9
4.4660001 -1.58 2.243 9
4.461 -1.582 2.161 9
4.4770002 -1.581 2.194 9
4.5219998 -1.582 2.2049999 9
4.4050002 -1.5779999 2.267 9
4.3850002 -1.5779999 2.2579999 9
4.434 -1.58 2.184 9
4.427 -1.582 2.108 9
4.5019999 -1.582 2.214 9
4.506 -1.581 2.263 9
4.4450002 -1.5829999 2.062 9
4.4239998 -1.5829999 2.056 9
4.4439998 -1.579 2.2780001 9
4.388 -1.577 2.3110001 9
4.4180002 -1.581 2.151 9
4.447 -1.582 2.1370001 9
4.5209999 -1.582 2.237 9
4.4029999 -1.5829999 1.999 9
4.5310001 -1.582 2.2309999 9
4.4070001 -1.5829999 1.988 9
4.3769999 -1.577 2.303 9
4.4380002 -1.5779999 2.302 9
4.3969998 -1.5779999 2.2639999 9
4.421 -1.582 2.105 9
4.5279999 -1.581 2.266 9
4.414 -1.58 2.168 9
4.3969998 -1.579 2.2290001 9
4.5180001 -1.582 2.2420001 9
4.4380002 -1.579 2.2539999 9
4.3930001 -1.58 2.1570001 9
4.474 -1.582 2.1459999 9
4.3990002 -1.58 2.1329999 9
4.559 -1.582 2.253 9
4.48 -1.5829999 2.115 9
4.448 -1.581 2.1489999 9
4.4829998 -1.5829999 2.125 9
4.4590001 -1.58 2.263 9
4.3860002 -1.5779999 2.233 9
4.3850002 -1.5779999 2.2720001 9
4.4050002 -1.5779999 2.2620001 9
4.4569998 -1.579 2.283 9
4.388 -1.5779999 2.2690001 9
4.5149999 -1.582 2.2079999 9
4.4699998 -1.582 2.131 9
4.4320002 -1.581 2.141 9
4.4029999 -1.581 2.122 9
4.4229999 -1.58 2.1930001 9
4.4039998 -1.581 2.108 9
4.4050002 -1.581 2.1029999 9
4.3870001 -1.5779999 2.25 9
4.4380002 -1.582 2.1289999 9
4.402 -1.5779999 2.2639999 9
4.4109998 -1.582 2.0580001 9
4.4190001 -1.582 2.102 9
4.4159999 -1.5829999 2.006 9
4.4889998 -1.582 2.1730001 9
4.4450002 -1.582 2.1270001 9
4.4970002 -1.581 2.223 9
4.395 -1.58 2.1530001 9
4.4450002 -1.5829999 2.049 9
4.5159998 -1.5829999 2.1900001 9
4.4330001 -1.579 2.2780001 9
4.3979998 -1.581 2.1110001 9
4.5339999 -1.582 2.2579999 9
4.5050001 -1.581 2.2449999 9
4.5139999 -1.581 2.283 9
4.3930001 -1.5779999 2.267 9
4.3800001 -1.5779999 2.234 9
4.4650002 -1.582 2.168 9
4.434 -1.5829999 2.0669999 9
4.4159999 -1.58 2.2090001 9
4.415 -1.581 2.105 9
4.5440001 -1.582 2.279 9
4.4699998 -1.581 2.2290001 9
4.4770002 -1.58 2.276 9
4.4489999 -1.582 2.1070001 9
4.4169998 -1.5829999 1.997 9
4.3930001 -1.579 2.2320001 9
4.4060001 -1.5829999 1.994 9
4.4879999 -1.58 2.267 9
4.3959999 -1.582 2.043 9
4.4120002 -1.5829999 2.0309999 9
4.4380002 -1.582 2.095 9
4.402 -1.58 2.1530001 9
4.4070001 -1.581 2.112 9
4.4559999 -1.5829999 2.095 9
4.4499998 -1.579 2.2839999 9
4.4130001 -1.579 2.211 9
4.4990001 -1.581 2.266 9
4.4559999 -1.581 2.21 9
4.4180002 -1.581 2.1129999 9
4.4689999 -1.5829999 2.102 9
4.4180002 -1.581 2.1210001 9
4.4000001 -1.581 2.0799999 9
4.4070001 -1.579 2.2019999 9
4.3959999 -1.5779999 2.2850001 9
4.494 -1.581 2.2260001 9
4.4510002 -1.581 2.1900001 9
4.408 -1.581 2.131 9
4.5029998 -1.581 2.2420001 9
4.4089999 -1.5779999 2.263 9
4.3920002 -1.579 2.1889999 9
4.4980001 -1.5829999 2.1429999 9
4.427 -1.582 2.082 9
4.4000001 -1.5829999 2.006 9
4.401 -1.5829999 1.99 9
4.493 -1.5829999 2.1240001 9
4.467 -1.5829999 2.118 9
4.4380002 -1.5829999 2.0739999 9
4.4380002 -1.584 2.0190001 9
4.4580002 -1.58 2.224 9
4.428 -1.582 2.095 9
4.5380001 -1.581 2.276 9
4.5040002 -1.582 2.188 9
4.4660001 -1.5829999 2.095 9
4.414 -1.582 2.095 9
4.4169998 -1.5829999 2.0179999 9
4.4510002 -1.582 2.098 9
4.4549999 -1.5829999 2.0739999 9
4.5120001 -1.582 2.233 9
4.3940001 -1.5779999 2.2620001 9
4.4679999 -1.581 2.21 9
4.4590001 -1.5829999 2.0869999 9
4.4499998 -1.582 2.128 9
4.4050002 -1.579 2.23 9
4.5320001 -1.5829999 2.204 9
4.474 -1.581 2.211 9
4.441 -1.5829999 2.063 9
4.3829999 -1.577 2.312 9
4.4169998 -1.582 2.0480001 9
4.4060001 -1.58 2.1849999 9
4.4070001 -1.579 2.2219999 9
4.415 -1.5779999 2.277 9
4.4569998 -1.58 2.237 9
4.4679999 -1.582 2.152 9
4.5219998 -1.581 2.2750001 9
4.4650002 -1.582 2.1259999 9
4.3870001 -1.579 2.1989999 9
4.5289998 -1.5829999 2.198 9
4.4710002 -1.582 2.1259999 9
4.4899998 -1.582 2.1659999 9
4.395 -1.58 2.132 9
4.4520001 -1.582 2.1129999 9
4.4099998 -1.5779999 2.2750001 9
4.4699998 -1.582 2.165 9
4.539 -1.582 2.26 9
4.4120002 -1.582 2.076 9
4.4029999 -1.5779999 2.27 9
4.4650002 -1.579 2.283 9
4.4819999 -1.581 2.2379999 9
4.4949999 -1.581 2.2479999 9
4.467 -1.582 2.174 9
4.4790001 -1.581 2.2449999 9
4.4879999 -1.58 2.2869999 9
4.4720001 -1.582 2.1389999 9
4.5479999 -1.5829999 2.2320001 9
4.4400001 -1.5829999 2.075 9
4.4299998 -1.582 2.115 9
4.3759999 -1.577 2.2869999 9
4.5110002 -1.582 2.184 9
4.4200001 -1.5779999 2.3050001 9
4.493 -1.582 2.197 9
4.4169998 -1.5829999 2.016 9
4.3990002 -1.577 2.313 9
4.4359999 -1.581 2.1340001 9
4.3969998 -1.579 2.1860001 9
4.4429998 -1.5829999 2.076 9
4.4850001 -1.581 2.24 9
4.3930001 -1.579 2.2190001 9
4.3920002 -1.5779999 2.2579999 9
4.4320002 -1.58 2.217 9
4.3899999 -1.579 2.1789999 9
4.4349999 -1.5779999 2.296 9
4.414 -1.5779999 2.303 9
4.4489999 -1.582 2.1199999 9
4.4380002 -1.581 2.158 9
4.494 -1.582 2.161 9
4.48 -1.58 2.2620001 9
4.5 -1.582 2.2030001 9
4.4829998 -1.582 2.1440001 9
4.4359999 -1.581 2.164 9
4.4120002 -1.582 2.0829999 9
4.4120002 -1.58 2.184 9
4.4039998 -1.559 2.3369999 9
4.4239998 -1.5369999 2.3599999 9
4.401 -1.552 2.345 9
4.4569998 -1.533 2.362 9
4.3829999 -1.55 2.348 9
4.3969998 -1.536 2.362 9
4.4390001 -1.533 2.3629999 9
4.4159999 -1.55 2.346 9
4.3969998 -1.525 2.3740001 9
4.395 -1.536 2.362 9
4.3990002 -1.528 2.3710001 9
4.4000001 -1.5470001 2.3499999 9
4.4159999 -1.552 2.3440001 9
4.461 -1.531 2.3629999 9
4.3860002 -1.528 2.3710001 9
4.4200001 -1.54 2.3559999 9
4.4380002 -1.535 2.3610001 9
4.3920002 -1.546 2.352 9
4.415 -1.539 2.358 9
4.4770002 -1.524 2.3699999 9
4.4580002 -1.535 2.359 9
4.414 -1.523 2.375 9
4.3779998 -1.559 2.3380001 9
4.4120002 -1.5599999 2.335 9
4.3759999 -1.569 2.3280001 9
4.46 -1.528 2.3670001 9
4.395 -1.531 2.3670001 9
4.421 -1.533 2.3629999 9
4.415 -1.527 2.3699999 9
4.4229999 -1.5319999 2.3640001 9
4.4070001 -1.535 2.3629999 9
4.4510002 -1.533 2.362 9
4.4770002 -1.529 2.3640001 9
4.3899999 -1.54 2.359 9
4.3769999 -1.563 2.335 9
4.494 -1.527 2.3659999 9
4.4699998 -1.5369999 2.3570001 9
4.4520001 -1.536 2.358 9
4.3909998 -1.556 2.3410001 9
4.4530001 -1.5319999 2.3629999 9
4.4050002 -1.548 2.349 9
4.4619999 -1.526 2.369 9
4.4120002 -1.524 2.3729999 9
4.3930001 -1.5369999 2.3610001 9
4.428 -1.539 2.3570001 9
4.3870001 -1.524 2.375 9
4.526 -1.544 2.3499999 9
4.4200001 -1.564 2.332 9
4.415 -1.562 2.3340001 9
4.5100002 -1.531 2.362 9
4.473 -1.55 2.345 9
4.4640002 -1.54 2.3529999 9
4.4809999 -1.538 2.3559999 9
4.461 -1.562 2.3340001 9
4.5040002 -1.5470001 2.348 9
4.4829998 -1.536 2.3570001 9
4.3800001 -1.573 2.3239999 9
4.4809999 -1.552 2.3429999 9
4.3979998 -1.572 2.325 9
4.4439998 -1.561 2.335 9
4.4559999 -1.557 2.3380001 9
4.4200001 -1.559 2.3369999 9
4.5250001 -1.545 2.349 9
4.4229999 -1.564 2.332 9
4.4569998 -1.5549999 2.3399999 9
4.4710002 -1.5470001 2.348 9
4.4380002 -1.552 2.3429999 9
4.5159998 -1.546 2.348 9
4.5100002 -1.5549999 2.3399999 9
4.474 -1.536 2.3570001 9
4.4250002 -1.5549999 2.3399999 9
4.4590001 -1.552 2.3429999 9
4.5120001 -1.545 2.349 9
4.5040002 -1.551 2.3429999 9
4.3850002 -1.574 2.323 9
4.4949999 -1.545 2.349 9
4.4089999 -1.566 2.3299999 9
4.4359999 -1.554 2.3410001 9
4.4899998 -1.558 2.3369999 9
4.4710002 -1.549 2.345 9
4.4219999 -1.568 2.3280001 9
4.395 -1.568 2.3280001 9
4.5029998 -1.546 2.348 9
4.441 -1.584 1.954 9
4.4390001 -1.584 1.971 9
4.5609999 -1.5829999 2.0409999 9
4.507 -1.5829999 2.118 9
4.5209999 -1.5829999 2.1070001 9
4.4590001 -1.584 2.0380001 9
4.5079999 -1.5829999 2.1459999 9
4.5359998 -1.5829999 2.1570001 9
4.4549999 -1.584 1.967 9
4.5240002 -1.5829999 1.997 9
4.4380002 -1.584 1.995 9
4.4980001 -1.5829999 2.0420001 9
4.513 -1.5829999 2.1170001 9
4.4650002 -1.5829999 2.0209999 9
4.4390001 -1.584 2.0039999 9
4.4499998 -1.584 1.998 9
4.559 -1.5829999 2.1670001 9
4.4899998 -1.5829999 2.063 9
4.559 -1.5829999 2.02 9
4.546 -1.5829999 2.052 9
4.5510001 -1.5829999 2.177 9
4.4429998 -1.584 1.978 9
4.5180001 -1.5829999 2.059 9
4.5599999 -1.5829999 2.1129999 9
4.539 -1.5829999 2.1659999 9
4.5370002 -1.5829999 2.177 9
4.4569998 -1.584 2.0450001 9
4.4749999 -1.5829999 1.97 9
4.487 -1.5829999 2.0999999 9
4.559 -1.5829999 2.0309999 9
4.4990001 -1.5829999 1.999 9
4.5120001 -1.5829999 2.1500001 9
4.5370002 -1.5829999 2.1099999 9
4.539 -1.5829999 2.0680001 9
4.4949999 -1.5829999 2.086 9
4.4260001 -1.584 1.955 9
4.5609999 -1.5829999 2.0899999 9
4.4819999 -1.5829999 2.0699999 9
4.4310002 -1.584 1.985 9
4.5570002 -1.5829999 2.1329999 9
4.513 -1.5829999 2.1140001 9
4.5 -1.5829999 2.062 9
4.5380001 -1.5829999 2.1040001 9
4.4790001 -1.5829999 1.98 9
4.5669999 -1.582 1.972 9
4.5679998 -1.582 2.063 9
4.5300002 -1.5829999 2.1210001 9
4.5370002 -1.5829999 2.0480001 9
4.4920001 -1.5829999 2.1059999 9
4.4850001 -1.5829999 1.971 9
4.5139999 -1.5829999 2.158 9
4.4619999 -1.5829999 2.0580001 9
4.4260001 -1.584 1.956 9
4.5050001 -1.5829999 2.0450001 9
4.5430002 -1.5829999 2.062 9
4.5700002 -1.582 2.0439999 9
4.5650001 -1.582 2.1930001 9
4.4530001 -1.584 2.027 9
4.566 -1.582 2.0350001 9
4.506 -1.5829999 2.023 9
4.4629998 -1.5829999 2.0250001 9
4.4710002 -1.5829999 2.036 9
4.4819999 -1.5829999 2.0829999 9
4.552 -1.5829999 2.0190001 9
4.5689998 -1.582 2.2119999 9
4.5409999 -1.5829999 2.0880001 9
4.5159998 -1.5829999 1.995 9
4.5079999 -1.5829999 2.1289999 9
4.5469999 -1.5829999 2.072 9
4.54 -1.5829999 2.036 9
4.4959998 -1.5829999 2.075 9
4.5040002 -1.5829999 2.0009999 9
4.513 -1.5829999 2.122 9
4.526 -1.5829999 2.0109999 9
4.5149999 -1.5829999 2.0420001 9
4.4699998 -1.5829999 2.0580001 9
4.473 -1.5829999 2.0369999 9
4.5609999 -1.5829999 2.059 9
4.5240002 -1.5829999 2.102 9
4.4229999 -1.584 1.957 9
4.5339999 -1.5829999 2.063 9
4.5489998 -1.5829999 2.221 9
4.4990001 -1.5829999 2.003 9
4.5409999 -1.5829999 2.076 9
4.5669999 -1.582 2.1930001 9
4.5110002 -1.5829999 2.0580001 9
4.5669999 -1.582 2.105 9
4.4520001 -1.584 2.0079999 9
4.54 -1.5829999 2.1340001 9
4.526 -1.5829999 2.0739999 9
4.5489998 -1.5829999 1.983 9
4.5310001 -1.5829999 2.138 9
4.5739999 -1.582 2.0699999 9
4.566 -1.582 2.1300001 9
4.5679998 -1.582 2.0599999 9
4.5580001 -1.5829999 1.9809999 9
4.4860001 -1.5829999 2.0009999 9
4.4499998 -1.584 2.0190001 9
4.4320002 -1.584 1.961 9
4.5510001 -1.5829999 2.0280001 9
4.5359998 -1.5829999 2.085 9
4.5599999 -1.5829999 2.227 9
4.573 -1.582 2.1129999 9
4.5339999 -1.5829999 2.0780001 9
4.5549998 -1.5829999 2.0880001 9
4.4689999 -1.5829999 2.0599999 9
4.4439998 -1.584 2.0090001 9
4.4970002 -1.5829999 2.0020001 9
4.4980001 -1.5829999 1.973 9
4.5489998 -1.5829999 2.0580001 9
4.566 -1.582 2.1600001 9
4.5370002 -1.5829999 1.993 9
4.5510001 -1.5829999 2.006 9
4.467 -1.5829999 1.957 9
4.4990001 -1.5829999 2.0320001 9
4.507 -1.5829999 2.1170001 9
4.4549999 -1.584 1.983 9
4.5430002 -1.5829999 1.983 9
4.52 -1.5829999 2.135 9
4.494 -1.5829999 2.0899999 9
4.5339999 -1.5829999 2.1530001 9
4.5609999 -1.5829999 2.237 9
4.5570002 -1.5829999 1.99 9
4.506 -1.5829999 2.0309999 9
4.4899998 -1.5829999 2.0020001 9
4.4970002 -1.5829999 2.0610001 9
4.5630002 -1.582 2.0079999 9
4.4580002 -1.584 2.02 9
4.5300002 -1.5829999 2.0510001 9
4.4429998 -1.584 2.016 9
4.507 -1.5829999 2.013 9
4.4689999 -1.5829999 2.0669999 9
4.4369998 -1.584 1.9809999 9
4.5700002 -1.582 2.02 9
4.533 -1.5829999 2.148 9
4.5539999 -1.5829999 2.0650001 9
4.5489998 -1.5829999 1.973 9
4.4910002 -1.5829999 1.962 9
4.5029998 -1.5829999 2.01 9
4.5710001 -1.582 2.059 9
4.52 -1.5829999 1.998 9
4.4520001 -1.584 1.9910001 9
4.428 -1.584 1.975 9
4.473 -1.5829999 1.974 9
4.4369998 -1.584 1.999 9
4.4660001 -1.5829999 2.04 9
4.506 -1.5829999 2.1300001 9
4.5289998 -1.5829999 1.999 9
4.5209999 -1.5829999 2.1659999 9
4.454 -1.584 1.985 9
4.4590001 -1.5829999 1.966 9
4.566 -1.582 2.0610001 9
4.5250001 -1.5829999 2.1800001 9
4.5539999 -1.5829999 2.2249999 9
4.4759998 -1.5829999 2.069 9
4.467 -1.5829999 1.9630001 9
4.527 -1.5829999 2.046 9
4.572 -1.582 2.0769999 9
4.4619999 -1.5829999 2.0150001 9
4.4780002 -1.5829999 2.0829999 9
4.4359999 -1.584 1.972 9
4.5159998 -1.5829999 2.0929999 9
4.4549999 -1.584 2.0109999 9
4.5580001 -1.5829999 2.1059999 9
4.5250001 -1.5829999 2.1689999 9
4.5359998 -1.5829999 2.1400001 9
4.4829998 -1.5829999 2.0480001 9
4.5180001 -1.5829999 2.033 9
4.421 -1.584 1.973 9
4.493 -1.5829999 2.0320001 9
4.454 -1.584 1.9910001 9
4.5640001 -1.582 1.9809999 9
4.487 -1.5829999 1.992 9
4.4320002 -1.584 1.9680001 9
4.5339999 -1.5829999 2.1800001 9
4.5419998 -1.5829999 2.0409999 9
4.5440001 -1.5829999 1.993 9
4.5580001 -1.5829999 2.0929999 9
4.4899998 -1.5829999 1.992 9
4.5279999 -1.5829999 2.1359999 9
4.461 -1.5829999 1.961 9
4.4860001 -1.5829999 2.075 9
4.5300002 -1.5829999 2.131 9
4.5430002 -1.5829999 2.2149999 9
4.5380001 -1.5829999 2.05 9
4.4860001 -1.5829999 2.059 9
4.4910002 -1.5829999 2.095 9
4.5370002 -1.5829999 2.0969999 9
4.5630002 -1.582 2.1270001 9
4.461 -1.5829999 1.957 9
4.5609999 -1.5829999 2.0320001 9
4.5419998 -1.5829999 1.99 9
4.4780002 -1.5829999 2.052 9
4.5570002 -1.5829999 2.23 9
4.533 -1.5829999 2.1819999 9
4.4619999 -1.5829999 2.0079999 9
4.4920001 -1.5829999 1.972 9
4.5510001 -1.5829999 2.0050001 9
4.553 -1.5829999 2.165 9
4.4749999 -1.5829999 2.0150001 9
4.4590001 -1.5829999 1.9859999 9
4.5689998 -1.582 2.046 9
4.553 -1.5829999 2.115 9
4.5079999 -1.5829999 2.0910001 9
4.546 -1.5829999 2.2179999 9
4.5079999 -1.5829999 2.0799999 9
4.4889998 -1.5829999 2.0090001 9
4.506 -1.5829999 1.971 9
4.5669999 -1.582 2.017 9
4.5450001 -1.5829999 2.142 9
4.5380001 -1.5829999 2.029 9
4.4330001 -1.584 2.0009999 9
4.4369998 -1.584 1.9579999 9
4.4889998 -1.5829999 2.036 9
4.5599999 -1.5829999 2.22 9
4.5500002 -1.5829999 2.066 9
4.5650001 -1.582 2.086 9
4.5279999 -1.5829999 1.995 9
4.5 -1.5829999 2.049 9
4.573 -1.582 2.0480001 9
4.559 -1.5829999 1.985 9
4.513 -1.5829999 2.095 9
4.474 -1.5829999 2.013 9
4.5539999 -1.5829999 2.0539999 9
4.539 -1.5829999 2.1589999 9
4.474 -1.5829999 1.973 9
4.5019999 -1.5829999 1.9910001 9
4.5419998 -1.5829999 2.109 9
4.4439998 -1.584 1.971 9
4.5310001 -1.5829999 2.158 9
4.5510001 -1.5829999 2.1659999 9
4.5089998 -1.5829999 1.993 9
4.5539999 -1.5829999 1.972 9
4.5469999 -1.5829999 2.036 9
4.5009999 -1.5829999 2.0550001 9
4.5409999 -1.5829999 1.988 9
4.5359998 -1.5829999 2.072 9
4.5700002 -1.582 1.972 9
4.566 -1.582 1.998 9
4.5549998 -1.5829999 2.2019999 9
4.4790001 -1.5829999 2.01 9
4.4840002 -1.5829999 2.0239999 9
4.5560002 -1.5829999 1.97 9
4.4970002 -1.5829999 2.0929999 9
4.5370002 -1.5829999 2.0239999 9
4.5 -1.5829999 2.0610001 9
4.5209999 -1.5829999 2.152 9
4.5710001 -1.582 2.234 9
4.4699998 -1.5829999 2.0179999 9
4.5419998 -1.5829999 2.1500001 9
4.494 -1.5829999 2.0350001 9
4.4559999 -1.584 1.984 9
4.5679998 -1.582 2.1459999 9
4.5050001 -1.5829999 2.062 9
4.4959998 -1.5829999 2.086 9
4.5630002 -1.582 1.975 9
4.48 -1.5829999 1.998 9
4.5539999 -1.5829999 2.1070001 9
4.381 -1.576 2.3199999 9
4.4289999 -1.568 2.3280001 9
4.4510002 -1.573 2.3150001 9
4.5310001 -1.574 2.2980001 9
4.5310001 -1.554 2.339 9
4.506 -1.573 2.303 9
4.415 -1.572 2.3210001 9
4.48 -1.574 2.3069999 9
4.5370002 -1.5650001 2.3150001 9
4.441 -1.5779999 2.3050001 9
4.4330001 -1.571 2.3210001 9
4.5489998 -1.557 2.329 9
4.427 -1.576 2.313 9
4.4510002 -1.573 2.3139999 9
4.559 -1.574 2.2920001 9
4.4790001 -1.571 2.313 9
4.4359999 -1.569 2.325 9
4.5370002 -1.571 2.303 9
4.4959998 -1.5599999 2.332 9
4.5580001 -1.577 2.2869999 9
4.513 -1.566 2.3169999 9
4.513 -1.559 2.3310001 9
4.4899998 -1.572 2.309 9
4.5310001 -1.563 2.3199999 9
4.4850001 -1.561 2.3329999 9
4.4369998 -1.573 2.316 9
4.5120001 -1.573 2.303 9
4.4879999 -1.566 2.3210001 9
4.5409999 -1.579 2.2850001 9
4.5450001 -1.577 2.289 9
4.4809999 -1.564 2.3269999 9
4.5599999 -1.574 2.293 9
4.4899998 -1.562 2.3299999 9
4.4970002 -1.58 2.2920001 9
4.5050001 -1.562 2.3269999 9
4.5450001 -1.568 2.3069999 9
4.4390001 -1.574 2.3139999 9
4.5370002 -1.558 2.3299999 9
4.5409999 -1.5700001 2.3050001 9
4.4530001 -1.576 2.306 9
4.513 -1.577 2.2950001 9
4.4369998 -1.567 2.3280001 9
4.5190001 -1.576 2.296 9
4.4239998 -1.574 2.316 9
4.4219999 -1.572 2.3210001 9
4.5219998 -1.553 2.342 9
4.4889998 -1.562 2.329 9
4.5089998 -1.564 2.3210001 9
4.4759998 -1.579 2.2980001 9
4.5599999 -1.575 2.2909999 9
4.4879999 -1.564 2.326 9
4.54 -1.571 2.302 9
4.52 -1.5549999 2.3380001 9
4.4229999 -1.571 2.323 9
4.5500002 -1.576 2.29 9
4.4169998 -1.571 2.3239999 9
4.4770002 -1.566 2.3239999 9
4.5450001 -1.568 2.3069999 9
4.533 -1.5700001 2.306 9
4.5500002 -1.5650001 2.312 9
4.5289998 -1.5650001 2.316 9
4.4850001 -1.559 2.336 9
4.4889998 -1.577 2.299 9
4.5209999 -1.5549999 2.339 9
4.5320001 -1.567 2.312 9
4.5359998 -1.576 2.293 9
4.5450001 -1.572 2.299 9
4.5089998 -1.562 2.3269999 9
4.5320001 -1.581 2.2839999 9
4.5040002 -1.573 2.3039999 9
4.513 -1.564 2.322 9
4.4299998 -1.521 2.3759999 9
4.4219999 -1.521 2.3759999 9
4.4109998 -1.521 2.3770001 9
4.4239998 -1.522 2.375 9
4.5279999 -1.528 2.3629999 9
4.533 -1.539 2.3540001 9
4.5359998 -1.546 2.349 9
4.5089998 -1.526 2.3659999 9
4.513 -1.529 2.3640001 9
4.5359998 -1.54 2.3529999 9
4.4390001 -1.53 1.931 9
4.4580002 -1.567 1.949 9
4.4130001 -1.582 1.948 9
4.5650001 -1.581 1.97 9
4.3969998 -1.558 1.936 9
4.5489998 -1.573 1.965 9
4.527 -1.558 1.956 9
4.4829998 -1.562 1.95 9
4.4520001 -1.58 1.9529999 9
4.4229999 -1.554 1.938 9
4.4200001 -1.533 1.9299999 9
4.408 -1.573 1.943 9
4.4580002 -1.536 1.937 9
4.4219999 -1.551 1.937 9
4.4920001 -1.559 1.951 9
4.48 -1.576 1.956 9
4.5380001 -1.581 1.966 9
4.4190001 -1.534 1.9299999 9
4.3940001 -1.523 1.921 9
4.4299998 -1.549 1.937 9
4.4310002 -1.543 1.9349999 9
4.5440001 -1.571 1.9630001 9
4.4679999 -1.554 1.9450001 9
4.4039998 -1.5420001 1.931 9
4.5219998 -1.573 1.961 9
4.5300002 -1.569 1.96 9
4.461 -1.527 1.933 9
4.4050002 -1.543 1.931 9
4.5120001 -1.5599999 1.954 9
4.4450002 -1.581 1.952 9
4.5139999 -1.5779999 1.961 9
4.421 -1.551 1.937 9
4.4920001 -1.551 1.948 9
4.4650002 -1.545 1.941 9
4.4060001 -1.574 1.943 9
4.4029999 -1.576 1.944 9
4.3969998 -1.548 1.932 9
4.4980001 -1.548 1.947 9
4.4980001 -1.549 1.947 9
4.4510002 -1.529 1.933 9
4.408 -1.535 1.929 9
4.4860001 -1.5549999 1.948 9
4.4559999 -1.549 1.941 9
4.441 -1.5319999 1.932 9
4.4400001 -1.523 1.929 9
4.4109998 -1.5420001 1.932 9
4.5019999 -1.5650001 1.954 9
4.4039998 -1.568 1.941 9
4.401 -1.548 1.932 9
4.5149999 -1.5829999 1.9630001 9
4.553 -1.575 1.966 9
4.4120002 -1.525 1.925 9
4.4330001 -1.581 1.95 9
4.4499998 -1.564 1.946 9
4.5219998 -1.562 1.956 9
4.473 -1.5599999 1.948 9
4.4920001 -1.551 1.947 9
4.5219998 -1.562 1.956 9
4.4619999 -1.552 1.943 9
4.4219999 -1.564 1.942 9
4.48 -1.541 1.942 9
4.4689999 -1.572 1.952 9
4.507 -1.574 1.959 9
4.4689999 -1.573 1.9529999 9
4.5539999 -1.574 1.966 9
4.4899998 -1.58 1.9579999 9
4.4239998 -1.574 1.946 9
4.4390001 -1.569 1.946 9
4.4320002 -1.524 1.928 9
4.427 -1.556 1.939 9
4.5100002 -1.563 1.955 9
4.4239998 -1.573 1.946 9
4.3979998 -1.527 1.924 9
4.473 -1.569 1.951 9
4.473 -1.579 1.955 9
4.4330001 -1.582 1.951 9
4.3979998 -1.531 1.925 9
4.5240002 -1.567 1.959 9
4.4039998 -1.579 1.9450001 9
4.4629998 -1.5369999 1.938 9
4.4310002 -1.568 1.9450001 9
4.474 -1.554 1.946 9
4.573 -1.58 1.971 9
4.4899998 -1.538 1.941 9
4.5549998 -1.5420001 1.9400001 9
4.5419998 -1.544 1.943 9
4.5580001 -1.5470001 1.944 9
4.5430002 -1.5319999 1.933 9
4.4990001 -1.544 1.946 9
4.546 -1.5549999 1.952 9
4.552 -1.543 1.942 9
4.5029998 -1.543 1.944 9
4.5359998 -1.5319999 1.934 9
4.539 -1.534 1.9349999 9
4.487 -1.528 1.933 9
4.494 -1.525 1.9299999 9
4.5380001 -1.5549999 1.952 9
4.5500002 -1.54 1.939 9
4.5549998 -1.566 1.96 9
4.5500002 -1.556 1.952 9
4.5240002 -1.533 1.9349999 9
4.5549998 -1.541 1.9400001 9
4.4780002 -1.534 1.938 9
4.5479999 -1.5549999 1.952 9
4.5370002 -1.533 1.934 9
4.513 -1.53 1.933 9
4.5219998 -1.525 1.928 9
4.5279999 -1.554 1.952 9
4.4970002 -1.524 1.929 9
4.4949999 -1.5369999 1.9400001 9
4.369 -1.54 2.302 9
4.3600001 -1.5369999 2.2809999 9
4.3629999 -1.543 2.29 9
4.368 -1.55 2.3039999 9
4.3730001 -1.539 2.3110001 9
4.3520002 -1.55 2.2690001 9
4.349 -1.549 2.26 9
4.369 -1.572 2.3139999 9
4.3600001 -1.546 2.2839999 9
4.362 -1.5470001 2.289 9
4.3740001 -1.523 2.3080001 9
4.3610001 -1.548 2.2869999 9
4.3699999 -1.553 2.3099999 9
4.3699999 -1.554 2.3099999 9
4.3639998 -1.558 2.2980001 9
4.368 -1.569 2.3110001 9
4.3649998 -1.5420001 2.2939999 9
4.3600001 -1.551 2.286 9
4.3660002 -1.54 2.2950001 9
4.3699999 -1.5420001 2.306 9
4.3520002 -1.545 2.266 9
4.3470001 -1.543 2.263 9
4.3499999 -1.534 2.276 9
4.3460002 -1.527 2.286 9
4.3660002 -1.5190001 2.2980001 9
4.3610001 -1.5190001 2.2980001 9
4.3540001 -1.534 2.276 9
4.3530002 -1.525 2.2880001 9
4.3670001 -1.521 2.2950001 9
4.3829999 -1.5190001 2.3729999 9
