# .PCD v0.7 - Point Cloud Data file format
VERSION 0.7
FIELDS x y z label
SIZE 4 4 4 4
TYPE F F F U
COUNT 1 1 1 1
WIDTH 1
HEIGHT 1444
VIEWPOINT 0 0 0 1 0 0 0
POINTS 1444
DATA ascii
4.3590002 -8.3789997 2.194 9
4.375 -8.3599997 2.2149999 9
4.3740001 -8.3559999 2.1259999 9
4.3720002 -8.3660002 2.2390001 9
4.3709998 -8.3629999 2.168 9
4.3920002 -8.3299999 2.0739999 9
4.369 -8.3549995 2.0220001 9
4.388 -8.3319998 2.0369999 9
4.3730001 -8.368 2.2809999 9
4.3720002 -8.368 2.263 9
4.348 -8.3850002 2.086 9
4.375 -8.3590002 2.1900001 9
4.3779998 -8.3470001 2.0780001 9
4.3850002 -8.3470001 2.2060001 9
4.375 -8.3459997 2.0150001 9
4.3850002 -8.3339996 2.017 9
4.3629999 -8.3739996 2.1960001 9
4.3709998 -8.3669996 2.2409999 9
4.3759999 -8.3540001 2.1370001 9
4.3759999 -8.3620005 2.2460001 9
4.3540001 -8.3809996 2.1489999 9
4.368 -8.3690004 2.217 9
4.368 -8.3640003 2.145 9
4.3569999 -8.3839998 2.233 9
4.3540001 -8.3780003 2.102 9
4.3829999 -8.3509998 2.217 9
4.3779998 -8.349 2.108 9
4.3530002 -8.3839998 2.175 9
4.3720002 -8.3669996 2.263 9
4.3920002 -8.3269997 2.046 9
4.3730001 -8.368 2.2820001 9
4.3540001 -8.3800001 2.1110001 9
4.348 -8.3809996 2.0239999 9
4.3940001 -8.323 2.0239999 9
4.3670001 -8.375 2.273 9
4.3759999 -8.3669996 2.3199999 9
4.3759999 -8.3529997 2.138 9
4.3649998 -8.3739996 2.2320001 9
4.3839998 -8.3450003 2.1559999 9
4.3759999 -8.3549995 2.1559999 9
4.362 -8.3669996 2.072 9
4.3839998 -8.3509998 2.2279999 9
4.381 -8.3470001 2.1329999 9
4.3590002 -8.3800001 2.2149999 9
4.381 -8.3500004 2.165 9
4.3629999 -8.3780003 2.243 9
4.368 -8.3739996 2.2869999 9
4.3540001 -8.3800001 2.1199999 9
4.362 -8.3760004 2.2090001 9
4.3790002 -8.3590002 2.267 9
4.3800001 -8.3549995 2.233 9
4.3759999 -8.3500004 2.0869999 9
4.3740001 -8.3590002 2.181 9
4.3540001 -8.3769999 2.0829999 9
4.3540001 -8.3739996 2.043 9
4.3660002 -8.3730001 2.2320001 9
4.3870001 -8.3409996 2.1470001 9
4.3649998 -8.3629999 2.076 9
4.3759999 -8.3590002 2.2079999 9
4.3730001 -8.3599997 2.161 9
4.3779998 -8.3500004 2.1259999 9
4.3540001 -8.3850002 2.1900001 9
4.3889999 -8.3369999 2.1229999 9
4.3639998 -8.3710003 2.1630001 9
4.3499999 -8.3850002 2.1300001 9
4.3769999 -8.3629999 2.286 9
4.3610001 -8.3669996 2.0639999 9
4.3590002 -8.3780003 2.181 9
4.3499999 -8.3839998 2.1140001 9
4.3600001 -8.3789997 2.214 9
4.3670001 -8.3699999 2.211 9
4.3600001 -8.3809996 2.2460001 9
4.3509998 -8.3800001 2.073 9
4.3839998 -8.3389997 2.0639999 9
4.3769999 -8.3450003 2.0220001 9
4.3829999 -8.3459997 2.145 9
4.3509998 -8.3769999 2.026 9
4.3699999 -8.3719997 2.286 9
4.3629999 -8.3629999 2.04 9
4.368 -8.3719997 2.2639999 9
4.3509998 -8.3800001 2.0810001 9
4.3520002 -8.3850002 2.1589999 9
4.3790002 -8.3509998 2.141 9
4.3930001 -8.3269997 2.05 9
4.375 -8.3599997 2.201 9
4.3629999 -8.3669996 2.1029999 9
4.3629999 -8.375 2.2149999 9
4.3839998 -8.3439999 2.131 9
4.3759999 -8.3640003 2.277 9
4.3699999 -8.3529997 2.0150001 9
4.381 -8.3400002 2.0190001 9
4.3769999 -8.3620005 2.27 9
4.3800001 -8.3549995 2.227 9
4.3709998 -8.3660002 2.2119999 9
4.362 -8.3760004 2.201 9
4.3870001 -8.3360004 2.0780001 9
4.3569999 -8.382 2.2079999 9
4.3670001 -8.3570004 2.029 9
4.3920002 -8.3319998 2.099 9
4.3740001 -8.3620005 2.2079999 9
4.3639998 -8.3739996 2.2160001 9
4.3590002 -8.3769999 2.1670001 9
4.368 -8.3699999 2.2279999 9
4.382 -8.3400002 2.053 9
4.3860002 -8.342 2.1440001 9
4.3790002 -8.3540001 2.1889999 9
4.3509998 -8.3839998 2.1300001 9
4.3449998 -8.3859997 2.053 9
4.362 -8.3640003 2.0339999 9
4.368 -8.368 2.197 9
4.3759999 -8.349 2.069 9
4.3730001 -8.3610001 2.175 9
4.3470001 -8.3859997 2.086 9
4.382 -8.3430004 2.1010001 9
4.3699999 -8.3669996 2.2179999 9
4.3639998 -8.375 2.2260001 9
4.362 -8.3800001 2.2609999 9
4.355 -8.3760004 2.0810001 9
4.3860002 -8.3339996 2.0209999 9
4.368 -8.3669996 2.184 9
4.3670001 -8.3620005 2.089 9
4.3670001 -8.3660002 2.142 9
4.3850002 -8.3369999 2.046 9
4.382 -8.3559999 2.2650001 9
4.369 -8.3649998 2.1800001 9
4.3670001 -8.3719997 2.2449999 9
4.3870001 -8.3439999 2.181 9
4.381 -8.3389997 2.0150001 9
4.3899999 -8.3290005 2.027 9
4.3449998 -8.3850002 2.0409999 9
4.3629999 -8.3629999 2.0339999 9
4.3730001 -8.3529997 2.075 9
4.3860002 -8.335 2.052 9
4.3720002 -8.3500004 2.02 9
4.3730001 -8.349 2.01 9
4.3509998 -8.3859997 2.1530001 9
4.3720002 -8.3620005 2.1900001 9
4.3779998 -8.3649998 2.326 9
4.3850002 -8.3369999 2.0510001 9
4.3639998 -8.3710003 2.1719999 9
4.3699999 -8.3640003 2.174 9
4.381 -8.3430004 2.066 9
4.3629999 -8.3690004 2.131 9
4.3520002 -8.3830004 2.138 9
4.3499999 -8.3789997 2.0380001 9
4.3759999 -8.3610001 2.2490001 9
4.3629999 -8.375 2.204 9
4.3790002 -8.3590002 2.2620001 9
4.3720002 -8.3690004 2.2820001 9
4.395 -8.3240004 2.0350001 9
4.3649998 -8.3699999 2.175 9
4.3600001 -8.3719997 2.1029999 9
4.3720002 -8.3649998 2.237 9
4.3520002 -8.3780003 2.063 9
4.3850002 -8.3479996 2.2049999 9
4.3850002 -8.3430004 2.1300001 9
4.3600001 -8.3769999 2.1949999 9
4.369 -8.3699999 2.2409999 9
4.3850002 -8.3430004 2.142 9
4.3720002 -8.3500004 2.0150001 9
4.3579998 -8.368 2.0320001 9
4.3930001 -8.3249998 2.023 9
4.3660002 -8.3620005 2.075 9
4.3769999 -8.3610001 2.263 9
4.3839998 -8.3459997 2.171 9
4.355 -8.3830004 2.1919999 9
4.3909998 -8.3299999 2.0710001 9
4.3769999 -8.3640003 2.3039999 9
4.3709998 -8.3509998 2.0139999 9
4.3649998 -8.3739996 2.234 9
4.3670001 -8.3640003 2.125 9
4.3660002 -8.3760004 2.2720001 9
4.3660002 -8.3809996 2.2839999 9
4.3769999 -8.3690004 2.335 9
4.3660002 -8.3800001 2.28 9
4.3759999 -8.3850002 2.3340001 9
4.369 -8.3839998 2.3010001 9
4.3709998 -8.3760004 2.306 9
4.362 -8.3830004 2.2609999 9
4.3930001 -8.3610001 1.934 9
4.395 -8.3520002 1.9349999 9
4.3920002 -8.368 1.924 9
4.3979998 -8.3260002 1.969 9
4.3870001 -8.3859997 1.92 9
4.3979998 -8.3219995 1.9859999 9
4.388 -8.3830004 1.919 9
4.3969998 -8.3269997 1.979 9
4.3959999 -8.3439999 1.941 9
4.3979998 -8.3459997 1.919 9
4.3889999 -8.3710003 1.946 9
4.3930001 -8.3470001 1.969 9
4.3959999 -8.3290005 1.985 9
4.3969998 -8.3360004 1.9579999 9
4.388 -8.3839998 1.915 9
4.3969998 -8.3400002 1.939 9
4.3920002 -8.3699999 1.915 9
4.3920002 -8.3599997 1.944 9
4.3969998 -8.3330002 1.966 9
4.3860002 -8.3859997 1.928 9
4.3969998 -8.3500004 1.915 9
4.3990002 -8.3409996 1.925 9
4.3909998 -8.3570004 1.9579999 9
4.3940001 -8.3400002 1.972 9
4.3969998 -8.3290005 1.975 9
4.3979998 -8.3409996 1.9349999 9
4.369 -8.3660002 1.9960001 9
4.3930001 -8.3369999 1.982 9
4.3800001 -8.3450003 1.999 9
4.381 -8.3610001 1.977 9
4.3709998 -8.3730001 1.9809999 9
4.3790002 -8.3769999 1.96 9
4.3730001 -8.3660002 1.9859999 9
4.3569999 -8.3730001 2.0120001 9
4.3759999 -8.368 1.979 9
4.3930001 -8.3290005 1.992 9
4.3800001 -8.3730001 1.964 9
4.3759999 -8.3579998 1.9910001 9
4.3850002 -8.3780003 1.9450001 9
4.369 -8.3690004 1.9910001 9
4.3759999 -8.3479996 2.003 9
4.3740001 -8.3769999 1.97 9
4.388 -8.3629999 1.959 9
4.348 -8.382 2.0190001 9
4.3839998 -8.3800001 1.944 9
4.381 -8.3830004 1.946 9
4.375 -8.3610001 1.988 9
4.3499999 -8.3789997 2.0190001 9
4.3720002 -8.3649998 1.9910001 9
4.3579998 -8.375 2.0079999 9
4.3610001 -8.3859997 1.9859999 9
4.375 -8.3520002 2.0009999 9
4.3850002 -8.3330002 2.003 9
4.3959999 -8.3249998 1.99 9
4.3899999 -8.3579998 1.96 9
4.3870001 -8.3509998 1.977 9
4.3839998 -8.3479996 1.985 9
4.3660002 -8.382 1.9809999 9
4.3779998 -8.3570004 1.988 9
4.3870001 -8.342 1.988 9
4.3759999 -8.3769999 1.966 9
4.3850002 -8.3809996 1.942 9
4.355 -8.3859997 1.999 9
4.382 -8.3559999 2.2720001 9
4.3839998 -8.3559999 2.3110001 9
4.3990002 -8.3280001 2.263 9
4.3870001 -8.349 2.293 9
4.4039998 -8.3199997 2.2249999 9
4.388 -8.3459997 2.24 9
4.3870001 -8.3479996 2.2720001 9
4.3850002 -8.3509998 2.2590001 9
4.3959999 -8.3240004 2.076 9
4.401 -8.3199997 2.1340001 9
4.3909998 -8.3400002 2.2190001 9
4.3979998 -8.3269997 2.191 9
4.3889999 -8.3450003 2.279 9
4.3920002 -8.3369999 2.2060001 9
4.3860002 -8.3470001 2.2090001 9
4.401 -8.3210001 2.1760001 9
4.3850002 -8.3540001 2.326 9
4.402 -8.3269997 2.3 9
4.4029999 -8.3219995 2.234 9
4.402 -8.3240004 2.2520001 9
4.4000001 -8.3280001 2.2739999 9
4.3829999 -8.3549995 2.3010001 9
4.3969998 -8.3280001 2.178 9
4.4000001 -8.3199997 2.1140001 9
4.395 -8.3339996 2.2490001 9
4.3979998 -8.323 2.1129999 9
4.3930001 -8.335 2.2030001 9
4.4000001 -8.3249998 2.211 9
4.3979998 -8.3319998 2.2969999 9
4.3790002 -8.3620005 2.3180001 9
4.3969998 -8.3280001 2.1800001 9
4.3979998 -8.3310003 2.283 9
4.395 -8.3299999 2.1730001 9
4.395 -8.3339996 2.2409999 9
4.3930001 -8.3319998 2.141 9
4.3940001 -8.3280001 2.1010001 9
4.3969998 -8.3319998 2.257 9
4.3889999 -8.3459997 2.306 9
4.3979998 -8.3219995 2.1040001 9
4.3969998 -8.3339996 2.299 9
4.3909998 -8.3430004 2.302 9
4.3920002 -8.3409996 2.279 9
4.3899999 -8.3409996 2.223 9
4.3899999 -8.3409996 2.204 9
4.3969998 -8.3199997 2.0339999 9
4.3959999 -8.3240004 2.073 9
4.3990002 -8.3319998 2.3110001 9
4.401 -8.323 2.194 9
4.4029999 -8.3240004 2.276 9
4.401 -8.3190002 2.115 9
4.3990002 -8.323 2.155 9
4.3800001 -8.3610001 2.316 9
4.4029999 -8.3210001 2.2149999 9
4.3969998 -8.3290005 2.2079999 9
4.3899999 -8.3400002 2.22 9
4.3899999 -8.3409996 2.2290001 9
4.388 -8.3450003 2.224 9
4.3990002 -8.3240004 2.1589999 9
4.3839998 -8.3509998 2.2490001 9
4.3909998 -8.3400002 2.223 9
4.3979998 -8.3249998 2.1470001 9
4.3850002 -8.3509998 2.2679999 9
4.3930001 -8.3389997 2.28 9
4.3959999 -8.3319998 2.227 9
4.3990002 -8.3240004 2.1800001 9
4.3969998 -8.3290005 2.194 9
4.388 -8.3439999 2.233 9
4.3979998 -8.3319998 2.279 9
4.3889999 -8.3459997 2.296 9
4.3969998 -8.323 2.079 9
4.3850002 -8.3520002 2.2869999 9
4.3930001 -8.3380003 2.276 9
4.382 -8.3579998 2.319 9
4.3850002 -8.3509998 2.244 9
4.4000001 -8.3299999 2.3 9
4.3979998 -8.3299999 2.2409999 9
4.3930001 -8.3389997 2.2880001 9
4.3889999 -8.3409996 2.207 9
4.3969998 -8.3269997 2.1670001 9
4.395 -8.335 2.25 9
4.402 -8.3240004 2.2509999 9
4.3990002 -8.3290005 2.276 9
4.3930001 -8.3540001 2.336 9
4.4060001 -8.3520002 2.3440001 9
4.4130001 -8.3690004 2.372 9
4.4060001 -8.3219995 2.3069999 9
4.4109998 -8.3599997 2.359 9
4.4109998 -8.3620005 2.3610001 9
4.4029999 -8.3529997 2.3429999 9
4.4130001 -8.3579998 2.358 9
4.401 -8.349 2.336 9
4.3969998 -8.3529997 2.3369999 9
4.4029999 -8.3380003 2.3239999 9
4.3990002 -8.3430004 2.3269999 9
4.408 -8.3620005 2.358 9
4.4000001 -8.3599997 2.348 9
4.401 -8.3570004 2.346 9
4.4070001 -8.3549995 2.3499999 9
4.4060001 -8.3509998 1.914 9
4.4710002 -8.3559999 1.91 9
4.4109998 -8.3439999 1.915 9
4.4699998 -8.3439999 1.9119999 9
4.4299998 -8.3509998 1.913 9
4.4239998 -8.368 1.91 9
4.4380002 -8.3780003 1.908 9
4.4499998 -8.3590002 1.911 9
4.4250002 -8.3559999 1.9119999 9
4.421 -8.3739996 1.91 9
4.4050002 -8.3610001 1.913 9
4.3979998 -8.3649998 1.9119999 9
4.4580002 -8.3430004 1.913 9
4.4250002 -8.3570004 1.9119999 9
4.4130001 -8.3520002 1.914 9
4.4109998 -8.3570004 1.913 9
4.4190001 -8.3459997 1.915 9
4.4629998 -8.3430004 1.913 9
4.421 -8.375 1.909 9
4.4419999 -8.3719997 1.909 9
4.4109998 -8.368 1.911 9
4.3920002 -8.3730001 1.911 9
4.421 -8.382 1.908 9
4.4640002 -8.3599997 1.91 9
4.4239998 -8.3570004 1.9119999 9
4.402 -8.3579998 1.913 9
4.4120002 -8.3549995 1.913 9
4.4590001 -8.3459997 1.913 9
4.3969998 -8.3529997 1.914 9
4.4130001 -8.3540001 1.913 9
4.4159999 -8.3559999 1.913 9
4.4590001 -8.342 1.913 9
4.46 -8.3509998 1.9119999 9
4.4260001 -8.3789997 1.909 9
4.427 -8.3400002 1.926 9
4.5219998 -8.3299999 1.939 9
4.4239998 -8.3400002 1.92 9
4.4770002 -8.3360004 1.921 9
4.5019999 -8.3319998 1.944 9
4.4499998 -8.3380003 1.9170001 9
4.5209999 -8.3280001 1.966 9
4.4970002 -8.3339996 1.919 9
4.4590001 -8.3369999 1.924 9
4.507 -8.3330002 1.921 9
4.553 -8.3249998 1.973 9
4.4569998 -8.3369999 1.927 9
4.5 -8.3339996 1.9170001 9
4.5250001 -8.3299999 1.9400001 9
4.527 -8.3290005 1.949 9
4.48 -8.3330002 1.946 9
4.5359998 -8.3269997 1.966 9
4.5240002 -8.3290005 1.9450001 9
4.4250002 -8.3409996 1.916 9
4.461 -8.3360004 1.931 9
4.467 -8.3360004 1.924 9
4.4569998 -8.3360004 1.934 9
4.5640001 -8.3219995 1.987 9
4.54 -8.3260002 1.97 9
4.4970002 -8.3319998 1.938 9
4.493 -8.3319998 1.947 9
4.46 -8.3360004 1.932 9
4.5359998 -8.3280001 1.956 9
4.4990001 -8.3339996 1.916 9
4.5370002 -8.3269997 1.961 9
4.4260001 -8.3400002 1.9220001 9
4.5019999 -8.3299999 1.959 9
4.5029998 -8.3319998 1.939 9
4.4640002 -8.335 1.937 9
4.4790001 -8.3339996 1.936 9
4.5120001 -8.3299999 1.9529999 9
4.4439998 -8.3389997 1.919 9
4.5370002 -8.3260002 1.975 9
4.526 -8.3280001 1.96 9
4.4910002 -8.3319998 1.954 9
4.546 -8.3260002 1.966 9
4.5180001 -8.3290005 1.961 9
4.454 -8.3199997 1.99 9
4.4260001 -8.3310003 1.954 9
4.4299998 -8.323 1.98 9
4.4169998 -8.3219995 1.982 9
4.4349999 -8.3190002 1.993 9
4.5219998 -8.3240004 1.9809999 9
4.4970002 -8.3260002 1.972 9
4.5149999 -8.323 1.984 9
4.4569998 -8.3319998 1.954 9
4.402 -8.323 1.977 9
4.4959998 -8.3210001 1.989 9
4.447 -8.335 1.941 9
4.402 -8.3199997 1.9859999 9
4.4910002 -8.3219995 1.9859999 9
4.4330001 -8.3260002 1.97 9
4.546 -8.3210001 1.9910001 9
4.4899998 -8.3240004 1.9809999 9
4.4330001 -8.3299999 1.9579999 9
4.4699998 -8.3240004 1.979 9
4.4419999 -8.3219995 1.982 9
4.4039998 -8.3369999 1.933 9
4.4710002 -8.3260002 1.971 9
4.401 -8.3369999 1.934 9
4.4250002 -8.3219995 1.983 9
4.5349998 -8.3240004 1.983 9
4.506 -8.3240004 1.979 9
4.4219999 -8.3400002 1.927 9
4.4000001 -8.3269997 1.965 9
4.5 -8.3299999 1.962 9
4.4619999 -8.3240004 1.977 9
4.4429998 -8.3339996 1.944 9
4.4120002 -8.3210001 1.984 9
4.441 -8.3240004 1.977 9
4.493 -8.3280001 1.967 9
4.414 -8.3269997 1.967 9
4.546 -8.3219995 1.99 9
4.454 -8.3199997 1.9910001 9
4.4200001 -8.3389997 1.929 9
4.4460001 -8.3240004 1.977 9
4.454 -8.3219995 1.984 9
4.4250002 -8.3310003 1.954 9
4.5289998 -8.3219995 1.988 9
4.4299998 -8.3249998 1.973 9
4.415 -8.3310003 1.952 9
4.4070001 -8.3249998 1.971 9
4.4549999 -8.3290005 1.961 9
4.4419999 -8.3280001 1.966 9
4.428 -8.3299999 1.957 9
4.4070001 -8.3380003 1.9299999 9
4.4720001 -8.3240004 1.979 9
4.4629998 -8.3299999 1.959 9
4.5310001 -8.3240004 1.98 9
4.454 -8.3290005 1.9630001 9
4.4850001 -8.3310003 1.956 9
4.4959998 -8.3219995 1.987 9
4.4720001 -8.3219995 1.983 9
4.4460001 -8.3319998 1.952 9
4.4450002 -8.3240004 1.976 9
4.4060001 -8.3179998 1.995 9
4.401 -8.3319998 1.949 9
4.441 -8.3190002 1.994 9
4.4400001 -8.3269997 1.969 9
4.4390001 -8.3319998 1.951 9
4.4289999 -8.3210001 1.987 9
4.5430002 -8.323 1.985 9
4.4699998 -8.3319998 1.952 9
4.4829998 -8.3280001 1.966 9
4.4790001 -8.3310003 1.956 9
4.4980001 -8.3249998 1.977 9
4.4229999 -8.3249998 1.973 9
4.461 -8.323 1.9809999 9
4.428 -8.3199997 1.987 9
4.402 -8.3199997 1.987 9
4.4190001 -8.3199997 2.2709999 9
4.5170002 -8.3199997 2.0250001 9
4.4380002 -8.3179998 2.0190001 9
4.4910002 -8.3199997 2.0769999 9
4.4029999 -8.3179998 2.0639999 9
4.4510002 -8.3179998 2.0050001 9
4.4029999 -8.3179998 2.05 9
4.4419999 -8.3190002 2.115 9
4.493 -8.3190002 2.0009999 9
4.48 -8.3199997 2.0409999 9
4.4400001 -8.3190002 2.1270001 9
4.414 -8.3199997 2.2509999 9
4.434 -8.3179998 1.997 9
4.428 -8.3179998 2.059 9
4.4039998 -8.3179998 2.0650001 9
4.4419999 -8.3199997 2.197 9
4.4159999 -8.3179998 2.075 9
4.4229999 -8.3179998 2.0220001 9
4.4629998 -8.3190002 1.998 9
4.415 -8.3199997 2.227 9
4.4640002 -8.3199997 2.131 9
4.4050002 -8.3170004 2.0190001 9
4.507 -8.3199997 2.0220001 9
4.54 -8.3210001 2.046 9
4.4099998 -8.3190002 2.115 9
4.5320001 -8.3210001 2.023 9
4.402 -8.3179998 2.115 9
4.494 -8.3199997 2.0929999 9
4.5630002 -8.3210001 2.0020001 9
4.4380002 -8.3190002 2.0599999 9
4.4369998 -8.3199997 2.1900001 9
4.4860001 -8.3210001 2.1370001 9
4.4970002 -8.3199997 2.046 9
4.4499998 -8.3190002 2.0899999 9
4.5300002 -8.3199997 1.995 9
4.4260001 -8.3210001 2.2609999 9
4.4109998 -8.3190002 2.131 9
4.4679999 -8.3190002 2.027 9
4.4330001 -8.3190002 2.0799999 9
4.5310001 -8.3210001 2.036 9
4.5149999 -8.3199997 2.0190001 9
4.4829998 -8.3199997 2.0420001 9
4.4949999 -8.3199997 2.059 9
4.4419999 -8.3199997 2.1989999 9
4.4130001 -8.3199997 2.243 9
4.5300002 -8.3210001 2.0179999 9
4.4829998 -8.3199997 2.0710001 9
4.5019999 -8.3210001 2.0869999 9
4.4450002 -8.3210001 2.2149999 9
4.4660001 -8.3199997 2.125 9
4.4180002 -8.3179998 2.0680001 9
4.4229999 -8.3199997 2.247 9
4.4439998 -8.3190002 2.0650001 9
4.401 -8.3170004 2.03 9
4.448 -8.3179998 2.0039999 9
4.473 -8.3199997 2.108 9
4.4710002 -8.3199997 2.1370001 9
4.4099998 -8.3190002 2.145 9
4.461 -8.3199997 2.096 9
4.5450001 -8.3210001 2.0209999 9
4.415 -8.3199997 2.267 9
4.421 -8.3179998 2.073 9
4.5159998 -8.3210001 2.0439999 9
4.4949999 -8.3210001 2.1010001 9
4.4679999 -8.3199997 2.0610001 9
4.5539999 -8.3210001 2.0150001 9
4.4770002 -8.3199997 2.0639999 9
4.447 -8.3199997 2.1949999 9
4.4190001 -8.3179998 2.0699999 9
4.4089999 -8.3179998 2.0339999 9
4.447 -8.3179998 2.013 9
4.5050001 -8.3199997 1.994 9
4.4050002 -8.3190002 2.1889999 9
4.4260001 -8.3199997 2.223 9
4.52 -8.3210001 2.04 9
4.4310002 -8.3190002 2.0810001 9
4.4569998 -8.3190002 2.0840001 9
4.4099998 -8.3179998 2.0450001 9
4.4260001 -8.3199997 2.21 9
4.454 -8.3199997 2.119 9
4.4260001 -8.3199997 2.2 9
4.4099998 -8.3199997 2.2839999 9
4.4959998 -8.3199997 2.0710001 9
4.421 -8.3179998 2.0339999 9
4.4190001 -8.3179998 2.066 9
4.4050002 -8.3199997 2.2160001 9
4.4510002 -8.3199997 2.194 9
4.46 -8.3199997 2.1489999 9
4.4450002 -8.3199997 2.188 9
4.4169998 -8.3199997 2.257 9
4.4229999 -8.3179998 2.02 9
4.4640002 -8.3190002 2.026 9
4.4429998 -8.3179998 2.0109999 9
4.4590001 -8.3190002 2.075 9
4.4860001 -8.3199997 2.1059999 9
4.5190001 -8.3199997 2.0139999 9
4.467 -8.3190002 2.0039999 9
4.4889998 -8.3199997 2.0799999 9
4.4029999 -8.3170004 2.0009999 9
4.447 -8.3199997 2.1949999 9
4.4180002 -8.3190002 2.1240001 9
4.4819999 -8.3199997 2.0680001 9
4.4559999 -8.3190002 2.029 9
4.4580002 -8.3190002 2.0780001 9
4.414 -8.3179998 2.013 9
4.5089998 -8.3210001 2.0999999 9
4.4619999 -8.3210001 2.197 9
4.5349998 -8.3210001 2.0450001 9
4.4229999 -8.3179998 2.0710001 9
4.4400001 -8.3190002 2.092 9
4.4860001 -8.3199997 2.0220001 9
4.4299998 -8.3190002 2.0799999 9
4.4520001 -8.3190002 2.062 9
4.4840002 -8.3199997 2.0480001 9
4.4569998 -8.3190002 2.0639999 9
4.4390001 -8.3199997 2.1619999 9
4.4759998 -8.3199997 2.069 9
4.5019999 -8.3210001 2.108 9
4.5229998 -8.3210001 2.052 9
4.434 -8.3179998 2.033 9
4.5019999 -8.3199997 2.066 9
4.46 -8.3199997 2.1470001 9
4.4089999 -8.3190002 2.158 9
4.421 -8.3179998 2.033 9
4.421 -8.3199997 2.2620001 9
4.4720001 -8.3199997 2.1440001 9
4.4580002 -8.3199997 2.096 9
4.4770002 -8.3190002 2.006 9
4.4439998 -8.3190002 2.0309999 9
4.4320002 -8.3199997 2.24 9
4.4720001 -8.3210001 2.175 9
4.402 -8.3179998 2.059 9
4.4250002 -8.3190002 2.0810001 9
4.4400001 -8.3199997 2.164 9
4.421 -8.3179998 2.0050001 9
4.4229999 -8.3199997 2.214 9
4.4640002 -8.3190002 1.998 9
4.421 -8.3179998 2.0769999 9
4.553 -8.3210001 2.0090001 9
4.4180002 -8.3190002 2.1730001 9
4.4260001 -8.3199997 2.184 9
4.427 -8.3199997 2.2349999 9
4.4780002 -8.3210001 2.1570001 9
4.493 -8.3199997 2.016 9
4.4260001 -8.3210001 2.2639999 9
4.4229999 -8.3179998 2.072 9
4.4229999 -8.3199997 2.207 9
4.4109998 -8.3190002 2.1070001 9
4.4349999 -8.3210001 2.247 9
4.441 -8.3210001 2.2349999 9
4.4400001 -8.3190002 2.0880001 9
4.4219999 -8.3199997 2.2650001 9
4.4429998 -8.3199997 2.1329999 9
4.4780002 -8.3199997 2.1170001 9
4.4330001 -8.3190002 2.1029999 9
4.415 -8.3190002 2.1210001 9
4.434 -8.3199997 2.2160001 9
4.4650002 -8.3199997 2.105 9
4.4660001 -8.3190002 2.0090001 9
4.5450001 -8.3210001 2.0250001 9
4.4330001 -8.3179998 2.0209999 9
4.4710002 -8.3199997 2.1110001 9
4.4489999 -8.3210001 2.221 9
4.5019999 -8.3199997 2.053 9
4.454 -8.3199997 2.165 9
4.4970002 -8.3199997 2.0109999 9
4.421 -8.3199997 2.1760001 9
4.506 -8.3199997 2.003 9
4.427 -8.3190002 2.108 9
4.4229999 -8.3179998 2 9
4.4520001 -8.3199997 2.164 9
4.5510001 -8.3210001 1.997 9
4.4530001 -8.3190002 2.04 9
4.4710002 -8.3199997 2.105 9
4.5040002 -8.3199997 2.023 9
4.493 -8.3199997 2.049 9
4.4289999 -8.3190002 2.092 9
4.4759998 -8.3199997 2.1110001 9
4.5409999 -8.3210001 2.0109999 9
4.4310002 -8.3199997 2.22 9
4.5630002 -8.3210001 2.0009999 9
4.447 -8.3179998 2.006 9
4.4380002 -8.3199997 2.1919999 9
4.4169998 -8.3190002 2.1359999 9
4.5139999 -8.3210001 2.049 9
4.4920001 -8.3199997 2.0710001 9
4.4039998 -8.3190002 2.141 9
4.4829998 -8.3199997 2.056 9
4.4289999 -8.3190002 2.0840001 9
4.4419999 -8.3179998 1.995 9
4.474 -8.3190002 2.017 9
4.454 -8.3199997 2.115 9
4.4790001 -8.3199997 2.1099999 9
4.4590001 -8.3199997 2.1659999 9
4.5570002 -8.3210001 2.017 9
4.5019999 -8.3199997 2.01 9
4.4180002 -8.3190002 2.1789999 9
4.4400001 -8.3190002 2.125 9
4.414 -8.3199997 2.2420001 9
4.5120001 -8.3210001 2.0580001 9
4.4369998 -8.3179998 2.003 9
4.4970002 -8.3199997 2.052 9
4.401 -8.3179998 2.04 9
4.4559999 -8.3210001 2.207 9
4.454 -8.3190002 2.0599999 9
4.4450002 -8.3190002 2.0339999 9
4.4559999 -8.3190002 2.063 9
4.4899998 -8.3190002 2.0050001 9
4.4070001 -8.3190002 2.1730001 9
4.493 -8.3210001 2.1099999 9
4.4159999 -8.3179998 2.0580001 9
4.4580002 -8.3210001 2.191 9
4.467 -8.3190002 2.027 9
4.473 -8.3199997 2.096 9
4.408 -8.3199997 2.29 9
4.4260001 -8.3190002 2.0929999 9
4.526 -8.3199997 1.995 9
4.408 -8.3190002 2.1140001 9
4.4980001 -8.3199997 2.0829999 9
4.4260001 -8.3199997 2.2349999 9
4.414 -8.3199997 2.2809999 9
4.4819999 -8.3190002 2.0139999 9
4.4380002 -8.3190002 2.0840001 9
4.4840002 -8.3190002 2.016 9
4.4829998 -8.3199997 2.043 9
4.4790001 -8.3199997 2.066 9
4.4070001 -8.3199997 2.2409999 9
4.5180001 -8.3199997 2.027 9
4.4169998 -8.3190002 2.0999999 9
4.4229999 -8.3199997 2.2290001 9
4.4889998 -8.3190002 1.9960001 9
4.4109998 -8.3199997 2.2780001 9
4.4660001 -8.3190002 2.04 9
4.454 -8.3179998 1.999 9
4.4510002 -8.3199997 2.1259999 9
4.4219999 -8.3199997 2.175 9
4.5279999 -8.3210001 2.0369999 9
4.4190001 -8.3199997 2.223 9
4.5250001 -8.3199997 2.0090001 9
4.454 -8.3190002 2.0829999 9
4.408 -8.3199997 2.2809999 9
4.4569998 -8.3190002 2.0550001 9
4.4679999 -8.3199997 2.063 9
4.4959998 -8.3199997 2.073 9
4.4710002 -8.3199997 2.0940001 9
4.513 -8.3210001 2.0699999 9
4.4559999 -8.3190002 2.072 9
4.4109998 -8.3199997 2.283 9
4.447 -8.3210001 2.217 9
4.4840002 -8.3190002 2.0039999 9
4.467 -8.3190002 2.0480001 9
4.539 -8.3210001 2.0339999 9
4.4289999 -8.3199997 2.2030001 9
4.4109998 -8.3190002 2.1719999 9
4.4369998 -8.3199997 2.1589999 9
4.4120002 -8.3190002 2.1860001 9
4.474 -8.3199997 2.1129999 9
4.4359999 -8.3199997 2.175 9
4.4850001 -8.3210001 2.148 9
4.4130001 -8.3199997 2.224 9
4.4200001 -8.3179998 2.0780001 9
4.4879999 -8.3199997 2.0739999 9
4.4320002 -8.3179998 2.026 9
4.473 -8.3199997 2.0840001 9
4.4180002 -8.3190002 2.1210001 9
4.4120002 -8.3179998 2.043 9
4.5019999 -8.3210001 2.0929999 9
4.4889998 -8.3199997 2.0669999 9
4.4590001 -8.349 2.3380001 9
4.5040002 -8.3690004 2.358 9
4.4840002 -8.3719997 2.3659999 9
4.4910002 -8.3610001 2.349 9
4.4530001 -8.3590002 2.3529999 9
4.4390001 -8.3400002 2.329 9
4.467 -8.3509998 2.339 9
4.4380002 -8.368 2.368 9
4.4650002 -8.3479996 2.336 9
4.4569998 -8.3540001 2.345 9
4.4790001 -8.3610001 2.352 9
4.4450002 -8.3409996 2.329 9
4.4289999 -8.3699999 2.3729999 9
4.4190001 -8.3479996 2.3429999 9
4.4879999 -8.3669996 2.358 9
4.474 -8.3649998 2.358 9
4.4829998 -8.3599997 2.349 9
4.4169998 -8.3660002 2.369 9
4.414 -8.3369999 2.329 9
4.4369998 -8.3620005 2.3599999 9
4.4130001 -8.335 2.326 9
4.4530001 -8.3450003 2.3340001 9
4.4530001 -8.3579998 2.352 9
4.4660001 -8.3610001 2.3540001 9
4.4460001 -8.3620005 2.359 9
4.4120002 -8.3240004 2.3110001 9
4.4809999 -8.3629999 2.3540001 9
4.4489999 -8.3660002 2.3629999 9
4.4099998 -8.3260002 2.3139999 9
4.414 -8.3559999 2.355 9
4.5 -8.3690004 2.359 9
4.4380002 -8.3520002 2.346 9
4.473 -8.3699999 2.365 9
4.5079999 -8.368 2.3570001 9
4.4439998 -8.3610001 2.3570001 9
4.4780002 -8.3599997 2.3499999 9
4.441 -8.3409996 2.329 9
4.4169998 -8.3360004 2.326 9
4.4699998 -8.3669996 2.362 9
4.46 -8.3640003 2.359 9
4.4250002 -8.349 2.3429999 9
4.4530001 -8.3450003 2.3340001 9
4.4239998 -8.3439999 2.3369999 9
4.4250002 -8.3540001 2.3510001 9
4.4260001 -8.3400002 2.3310001 9
4.4720001 -8.3529997 2.3410001 9
4.4840002 -8.3660002 2.3570001 9
4.48 -8.3599997 2.3499999 9
4.473 -8.3620005 2.3540001 9
4.5570002 -8.382 1.942 9
4.573 -8.3730001 1.964 9
4.52 -8.3439999 1.924 9
4.5650001 -8.3769999 1.954 9
4.552 -8.3269997 1.9680001 9
4.572 -8.3369999 1.983 9
4.5700002 -8.3739996 1.961 9
4.5640001 -8.3699999 1.957 9
4.5440001 -8.3369999 1.954 9
4.5100002 -8.3339996 1.92 9
4.553 -8.3400002 1.962 9
4.5339999 -8.3430004 1.9400001 9
4.552 -8.3669996 1.9450001 9
4.5669999 -8.368 1.961 9
4.5679998 -8.3830004 1.954 9
4.546 -8.3769999 1.933 9
4.566 -8.3649998 1.961 9
4.5570002 -8.3739996 1.947 9
4.5370002 -8.3629999 1.932 9
4.5349998 -8.3479996 1.939 9
4.5409999 -8.3660002 1.934 9
4.5749998 -8.3850002 1.96 9
4.5510001 -8.3599997 1.949 9
4.5250001 -8.3509998 1.926 9
4.5279999 -8.3360004 1.938 9
4.5310001 -8.3310003 1.943 9
4.5560002 -8.368 1.949 9
4.5479999 -8.342 1.956 9
4.5450001 -8.368 1.938 9
4.5139999 -8.3450003 1.918 9
4.572 -8.375 1.962 9
4.52 -8.349 1.9220001 9
4.5510001 -8.3520002 1.9529999 9
4.5640001 -8.3780003 1.952 9
4.5380001 -8.3459997 1.942 9
4.5700002 -8.342 1.979 9
4.5560002 -8.3559999 1.957 9
4.5560002 -8.3319998 1.969 9
4.5409999 -8.3610001 1.937 9
4.559 -8.3240004 1.977 9
4.5570002 -8.3500004 1.961 9
4.5549998 -8.3780003 1.943 9
4.5349998 -8.3649998 1.929 9
4.5339999 -8.3660002 1.927 9
4.5489998 -8.3719997 1.9400001 9
4.5500002 -8.3699999 1.942 9
4.5409999 -8.3299999 2.286 9
4.5079999 -8.3360004 2.3039999 9
4.5079999 -8.3649998 2.352 9
4.5149999 -8.3500004 2.325 9
4.4439998 -8.3339996 2.319 9
4.4650002 -8.3439999 2.329 9
4.4990001 -8.3319998 2.299 9
4.5219998 -8.323 2.279 9
4.4580002 -8.3210001 2.293 9
4.4990001 -8.3339996 2.3039999 9
4.4920001 -8.3280001 2.2950001 9
4.4260001 -8.3260002 2.3099999 9
4.4619999 -8.3439999 2.329 9
4.5050001 -8.3430004 2.3169999 9
4.4990001 -8.3310003 2.299 9
4.5279999 -8.3280001 2.2850001 9
4.4889998 -8.3330002 2.3039999 9
4.4899998 -8.3439999 2.3210001 9
4.5240002 -8.3509998 2.325 9
4.48 -8.3249998 2.293 9
4.4910002 -8.3290005 2.2969999 9
4.4380002 -8.3280001 2.3110001 9
4.5349998 -8.3219995 2.273 9
4.4749999 -8.3339996 2.3099999 9
4.4910002 -8.335 2.3069999 9
4.4169998 -8.323 2.3069999 9
4.4819999 -8.3290005 2.3 9
4.5240002 -8.3599997 2.3399999 9
4.533 -8.3439999 2.3110001 9
4.5279999 -8.335 2.2969999 9
4.4899998 -8.3249998 2.2909999 9
4.4899998 -8.3219995 2.286 9
4.4130001 -8.3219995 2.3080001 9
4.5139999 -8.3540001 2.332 9
4.513 -8.3280001 2.289 9
4.54 -8.349 2.316 9
4.493 -8.3470001 2.326 9
4.5310001 -8.3310003 2.29 9
4.5240002 -8.3509998 2.325 9
4.52 -8.342 2.3110001 9
4.5300002 -8.3280001 2.2839999 9
4.4640002 -8.3240004 2.296 9
4.4980001 -8.3470001 2.3239999 9
4.5209999 -8.3579998 2.3369999 9
4.4899998 -8.3310003 2.3010001 9
4.5209999 -8.3540001 2.3310001 9
4.513 -8.3240004 2.283 9
4.4289999 -8.3299999 2.3150001 9
4.5370002 -8.3529997 2.3239999 9
4.474 -8.3430004 2.325 9
4.5450001 -8.3240004 2.2739999 9
4.4489999 -8.3389997 2.326 9
4.5310001 -8.3570004 2.332 9
4.5310001 -8.3240004 2.277 9
4.5079999 -8.3299999 2.2950001 9
4.4819999 -8.3479996 2.3310001 9
4.5100002 -8.3260002 2.286 9
4.441 -8.335 2.3199999 9
4.527 -8.3219995 2.276 9
4.5159998 -8.3339996 2.299 9
4.5250001 -8.3260002 2.283 9
4.5050001 -8.3450003 2.319 9
4.5079999 -8.3500004 2.3269999 9
4.506 -8.3549995 2.336 9
4.527 -8.375 2.3629999 9
4.4840002 -8.3369999 2.313 9
4.4780002 -8.3299999 2.303 9
4.487 -8.3529997 2.3380001 9
4.5110002 -8.3640003 2.349 9
4.4780002 -8.3269997 2.2980001 9
4.5149999 -8.3669996 2.3540001 9
4.4590001 -8.323 2.296 9
4.4780002 -8.3520002 2.339 9
4.513 -8.3369999 2.3050001 9
4.5009999 -8.3610001 2.3469999 9
4.4860001 -8.3219995 2.2869999 9
4.4850001 -8.3330002 2.3050001 9
4.5349998 -8.3240004 2.277 9
4.5380001 -8.3549995 2.3269999 9
4.4860001 -8.3599997 1.915 9
4.552 -8.3859997 1.936 9
4.5009999 -8.3809996 1.923 9
4.5110002 -8.3549995 1.919 9
4.5100002 -8.382 1.925 9
4.4850001 -8.3520002 1.913 9
4.4390001 -8.3839998 1.91 9
4.4889998 -8.3509998 1.913 9
4.4520001 -8.3710003 1.91 9
4.4530001 -8.3710003 1.91 9
4.5339999 -8.3730001 1.928 9
4.5089998 -8.3649998 1.921 9
4.5320001 -8.368 1.927 9
4.4650002 -8.3699999 1.9119999 9
4.493 -8.3430004 1.9119999 9
4.5079999 -8.3850002 1.925 9
4.467 -8.3839998 1.916 9
4.533 -8.3760004 1.929 9
4.4759998 -8.3769999 1.916 9
4.5029998 -8.3409996 1.914 9
4.4980001 -8.3699999 1.92 9
4.527 -8.3859997 1.9299999 9
4.4990001 -8.3369999 1.9119999 9
4.54 -8.3850002 1.933 9
4.5339999 -8.3699999 1.928 9
4.5159998 -8.3660002 1.923 9
4.5110002 -8.3590002 1.92 9
4.4819999 -8.3690004 1.916 9
4.4580002 -8.3769999 1.9119999 9
4.4790001 -8.368 1.915 9
4.5219998 -8.3559999 1.9220001 9
4.5009999 -8.3850002 1.924 9
4.46 -8.3839998 1.914 9
4.5240002 -8.3669996 1.925 9
4.5029998 -8.3620005 1.919 9
4.4959998 -8.3760004 1.921 9
4.5289998 -8.3610001 1.925 9
4.5089998 -8.3730001 1.923 9
4.5079999 -8.3690004 1.9220001 9
4.54 -8.3210001 2.0699999 9
4.4790001 -8.3199997 2.234 9
4.5159998 -8.3210001 2.1860001 9
4.4520001 -8.3210001 2.2349999 9
4.5159998 -8.3210001 2.1589999 9
4.4980001 -8.3210001 2.161 9
4.5570002 -8.3210001 2.122 9
4.5240002 -8.3210001 2.178 9
4.5029998 -8.3199997 2.2309999 9
4.4879999 -8.3210001 2.1900001 9
4.4910002 -8.3199997 2.277 9
4.4650002 -8.3199997 2.286 9
4.494 -8.3199997 2.2739999 9
4.5209999 -8.3199997 2.267 9
4.5380001 -8.3210001 2.1300001 9
4.5510001 -8.3199997 2.1689999 9
4.4949999 -8.3199997 2.2360001 9
4.5580001 -8.3210001 2.04 9
4.5229998 -8.3199997 2.267 9
4.5029998 -8.3199997 2.2709999 9
4.4569998 -8.3210001 2.2179999 9
4.4910002 -8.3199997 2.267 9
4.507 -8.3199997 2.2160001 9
4.4910002 -8.3210001 2.214 9
4.4359999 -8.3199997 2.2969999 9
4.4920001 -8.3199997 2.2379999 9
4.4790001 -8.3210001 2.2179999 9
4.5469999 -8.3199997 2.2090001 9
4.5619998 -8.3210001 2.108 9
4.5500002 -8.3199997 2.221 9
4.5409999 -8.3210001 2.0780001 9
4.5159998 -8.3210001 2.1470001 9
4.5510001 -8.3210001 2.0669999 9
4.553 -8.3210001 2.0940001 9
4.493 -8.3210001 2.2119999 9
4.52 -8.3210001 2.175 9
4.4510002 -8.3210001 2.2579999 9
4.5159998 -8.3210001 2.174 9
4.5240002 -8.3210001 2.0929999 9
4.5500002 -8.3199997 2.1830001 9
4.5110002 -8.3210001 2.1199999 9
4.5149999 -8.3210001 2.1630001 9
4.5170002 -8.3210001 2.1630001 9
4.5500002 -8.3199997 2.1960001 9
4.4549999 -8.3210001 2.2449999 9
4.4770002 -8.3210001 2.1860001 9
4.5279999 -8.3199997 2.2090001 9
4.5560002 -8.3199997 2.1700001 9
4.513 -8.3199997 2.256 9
4.4530001 -8.3210001 2.243 9
4.5580001 -8.3210001 2.141 9
4.4629998 -8.3199997 2.2590001 9
4.5489998 -8.3199997 2.1819999 9
4.5190001 -8.3199997 2.2 9
4.5159998 -8.3210001 2.1700001 9
4.5190001 -8.3210001 2.128 9
4.467 -8.3210001 2.201 9
4.5440001 -8.3210001 2.063 9
4.5440001 -8.3210001 2.105 9
4.5320001 -8.3199997 2.2049999 9
4.5089998 -8.3199997 2.2520001 9
4.5180001 -8.3199997 2.217 9
4.5240002 -8.3210001 2.112 9
4.4949999 -8.3210001 2.1619999 9
4.461 -8.3199997 2.2539999 9
4.5209999 -8.3210001 2.1300001 9
4.4429998 -8.3210001 2.247 9
4.526 -8.3199997 2.2320001 9
4.54 -8.3199997 2.201 9
4.5089998 -8.3210001 2.175 9
4.487 -8.3210001 2.1600001 9
4.5560002 -8.3199997 2.1700001 9
4.5419998 -8.3199997 2.2049999 9
4.5100002 -8.3210001 2.132 9
4.4439998 -8.3210001 2.256 9
4.428 -8.3210001 2.2720001 9
4.4850001 -8.3210001 2.1600001 9
4.5219998 -8.3199997 2.2249999 9
4.48 -8.3210001 2.1730001 9
4.5149999 -8.3210001 2.1440001 9
4.5430002 -8.3210001 2.115 9
4.5440001 -8.3210001 2.069 9
4.54 -8.3210001 2.161 9
4.4770002 -8.3210001 2.1889999 9
4.4920001 -8.3210001 2.1719999 9
4.5440001 -8.3210001 2.053 9
4.494 -8.3210001 2.194 9
4.5430002 -8.3199997 2.2090001 9
4.5359998 -8.3210001 2.165 9
4.4920001 -8.3210001 2.145 9
4.5040002 -8.3210001 2.1600001 9
4.4860001 -8.3210001 2.1989999 9
4.54 -8.3210001 2.1040001 9
4.4889998 -8.3199997 2.2479999 9
4.553 -8.3210001 2.141 9
4.428 -8.3199997 2.2880001 9
4.5500002 -8.3210001 2.069 9
4.5050001 -8.3210001 2.1659999 9
4.513 -8.3199997 2.2149999 9
4.4429998 -8.3210001 2.2449999 9
4.5380001 -8.3210001 2.1040001 9
4.5009999 -8.3210001 2.132 9
4.5279999 -8.3199997 2.1919999 9
4.4949999 -8.3199997 2.24 9
4.4759998 -8.3199997 2.2460001 9
4.4699998 -8.3210001 2.227 9
4.5489998 -8.3210001 2.0669999 9
4.5430002 -8.3199997 2.2090001 9
4.54 -8.3199997 2.223 9
4.4899998 -8.3210001 2.151 9
4.5479999 -8.3199997 2.1849999 9
4.4840002 -8.3210001 2.2049999 9
4.5139999 -8.3210001 2.1700001 9
4.4809999 -8.3199997 2.2449999 9
4.4299998 -8.3199997 2.2920001 9
4.546 -8.3210001 2.1240001 9
4.5440001 -8.3210001 2.1110001 9
4.4650002 -8.3210001 2.237 9
4.4920001 -8.3210001 2.211 9
4.4590001 -8.3210001 2.2320001 9
4.4679999 -8.3210001 2.2060001 9
4.5170002 -8.3210001 2.1849999 9
4.461 -8.3210001 2.2119999 9
4.527 -8.3199997 2.2620001 9
4.539 -8.3199997 2.2249999 9
4.507 -8.3210001 2.1489999 9
4.4559999 -8.3210001 2.2550001 9
4.4619999 -8.3210001 2.2260001 9
4.5570002 -8.3210001 2.0999999 9
4.4759998 -8.3210001 2.2090001 9
4.5289998 -8.3210001 2.1619999 9
4.533 -8.3210001 2.1470001 9
4.447 -8.3210001 2.2320001 9
4.539 -8.3210001 2.151 9
4.54 -8.3210001 2.155 9
4.5149999 -8.3210001 2.1689999 9
4.494 -8.3199997 2.221 9
4.4780002 -8.3199997 2.2609999 9
4.5209999 -8.3210001 2.171 9
4.533 -8.3210001 2.0899999 9
4.533 -8.3210001 2.0699999 9
4.4819999 -8.3199997 2.2520001 9
4.4759998 -8.3199997 2.263 9
4.4629998 -8.3210001 2.2320001 9
4.5469999 -8.3199997 2.22 9
4.5630002 -8.3210001 2.0769999 9
4.5609999 -8.3210001 2.039 9
4.4819999 -8.3210001 2.1789999 9
4.4720001 -8.3199997 2.2620001 9
4.48 -8.3199997 2.273 9
4.5450001 -8.3199997 2.1960001 9
4.513 -8.3199997 2.273 9
4.4569998 -8.3199997 2.2539999 9
4.5489998 -8.3210001 2.043 9
4.5419998 -8.3210001 2.069 9
4.4250002 -8.3210001 2.277 9
4.5229998 -8.3199997 2.2479999 9
4.506 -8.3199997 2.276 9
4.4860001 -8.3210001 2.1589999 9
4.5320001 -8.3210001 2.095 9
4.4619999 -8.3199997 2.2620001 9
4.487 -8.3199997 2.2460001 9
4.5040002 -8.3199997 2.2309999 9
4.5040002 -8.3210001 2.1930001 9
4.5409999 -8.3210001 2.098 9
4.5580001 -8.3210001 2.0769999 9
4.4499998 -8.3199997 2.2869999 9
4.461 -8.3199997 2.2739999 9
4.5170002 -8.3210001 2.1329999 9
4.5209999 -8.3210001 2.118 9
4.493 -8.3199997 2.257 9
4.5050001 -8.3210001 2.151 9
4.5609999 -8.3210001 2.0869999 9
4.5450001 -8.3199997 2.2019999 9
4.5009999 -8.3210001 2.1570001 9
4.5089998 -8.3210001 2.1689999 9
4.4850001 -8.3210001 2.204 9
4.4970002 -8.3199997 2.2609999 9
4.4250002 -8.3210001 2.2720001 9
4.4349999 -8.3210001 2.266 9
4.48 -8.3199997 2.2609999 9
4.5479999 -8.3199997 2.1600001 9
4.526 -8.3210001 2.1570001 9
4.46 -8.3210001 2.204 9
4.4980001 -8.3210001 2.1340001 9
4.546 -8.3210001 2.063 9
4.507 -8.3199997 2.2720001 9
4.4590001 -8.3199997 2.2720001 9
4.427 -8.3199997 2.2880001 9
4.4359999 -8.3210001 2.2509999 9
4.5 -8.3199997 2.214 9
4.5440001 -8.3199997 2.2579999 9
4.5770001 -8.3730001 1.985 9
4.598 -8.3859997 2.148 9
4.5869999 -8.3789997 2.0669999 9
4.5819998 -8.368 2.0280001 9
4.5809999 -8.349 2.0409999 9
4.5970001 -8.3850002 2.1429999 9
4.5840001 -8.3699999 2.046 9
4.592 -8.3769999 2.108 9
4.5890002 -8.3780003 2.0829999 9
4.573 -8.3409996 1.987 9
4.5739999 -8.3380003 1.999 9
4.5890002 -8.3730001 2.089 9
4.5749998 -8.3339996 2.0139999 9
4.586 -8.3599997 2.0799999 9
4.5780001 -8.3739996 1.989 9
4.579 -8.3470001 2.0309999 9
4.5739999 -8.3430004 1.992 9
4.5770001 -8.382 1.971 9
4.5939999 -8.3830004 2.1229999 9
4.5840001 -8.3540001 2.0639999 9
4.5830002 -8.3830004 2.0280001 9
4.5840001 -8.3669996 2.049 9
4.5869999 -8.3760004 2.066 9
4.5809999 -8.3529997 2.0369999 9
4.5830002 -8.3789997 2.0280001 9
4.586 -8.382 2.0480001 9
4.579 -8.3800001 1.9960001 9
4.5890002 -8.3660002 2.0940001 9
4.5749998 -8.3660002 1.977 9
4.573 -8.3260002 2.0039999 9
4.5840001 -8.3710003 2.0480001 9
4.5910001 -8.3830004 2.095 9
4.5799999 -8.3830004 2.0009999 9
4.5929999 -8.368 2.1289999 9
4.5840001 -8.3579998 2.0599999 9
4.585 -8.3529997 2.079 9
4.5749998 -8.3629999 1.977 9
4.5900002 -8.3830004 2.086 9
4.5760002 -8.368 1.984 9
4.5929999 -8.3710003 2.1199999 9
4.5890002 -8.3809996 2.076 9
4.5939999 -8.3730001 2.1340001 9
4.585 -8.3570004 2.069 9
4.5830002 -8.3529997 2.0569999 9
4.5739999 -8.3599997 1.976 9
4.5809999 -8.3739996 2.016 9
4.5770001 -8.3809996 1.977 9
4.5840001 -8.3699999 2.0469999 9
4.5770001 -8.3789997 1.982 9
4.5799999 -8.3780003 2.0009999 9
4.585 -8.3739996 2.049 9
4.5739999 -8.3520002 1.984 9
4.586 -8.3669996 2.0650001 9
4.5809999 -8.349 2.05 9
4.5840001 -8.3859997 2.027 9
4.5929999 -8.3789997 2.112 9
4.579 -8.3699999 2.0079999 9
4.5780001 -8.3839998 1.979 9
4.579 -8.368 2.01 9
4.5869999 -8.3540001 2.0880001 9
4.585 -8.3690004 2.0539999 9
4.5809999 -8.3669996 2.03 9
4.573 -8.3299999 1.994 9
4.5809999 -8.3850002 2.0039999 9
4.5770001 -8.3470001 2.0150001 9
4.585 -8.3800001 2.0439999 9
4.5939999 -8.382 2.1170001 9
4.5819998 -8.3719997 2.0250001 9
4.5739999 -8.3579998 1.976 9
4.5890002 -8.3830004 2.072 9
4.5770001 -8.3730001 1.984 9
4.5890002 -8.3830004 2.076 9
4.5770001 -8.3470001 2.01 9
4.5879998 -8.3719997 2.0780001 9
4.5809999 -8.3769999 2.01 9
4.579 -8.3640003 2.0139999 9
4.5809999 -8.3789997 2.0120001 9
4.5970001 -8.3809996 2.1500001 9
4.5879998 -8.3690004 2.0869999 9
4.5840001 -8.3809996 2.0369999 9
4.5879998 -8.3599997 2.096 9
4.5999999 -8.3850002 2.165 9
4.592 -8.3669996 2.1489999 9
4.598 -8.3850002 2.2279999 9
4.5879998 -8.3660002 2.1949999 9
4.5669999 -8.3299999 2.1389999 9
4.573 -8.3500004 2.2290001 9
4.5689998 -8.335 2.1570001 9
4.598 -8.3830004 2.2190001 9
4.566 -8.323 2.0769999 9
4.592 -8.3719997 2.1860001 9
4.5689998 -8.3210001 2.02 9
4.5809999 -8.3610001 2.2320001 9
4.5840001 -8.3520002 2.108 9
4.5939999 -8.3839998 2.273 9
4.5819998 -8.3540001 2.152 9
4.5960002 -8.3839998 2.2490001 9
4.5630002 -8.3299999 2.1860001 9
4.586 -8.3719997 2.2720001 9
4.5840001 -8.3549995 2.141 9
4.5910001 -8.3620005 2.1199999 9
4.5640001 -8.3330002 2.1960001 9
4.5910001 -8.3769999 2.2449999 9
4.5760002 -8.3540001 2.24 9
4.579 -8.3400002 2.0650001 9
4.5960002 -8.3839998 2.2460001 9
4.592 -8.3769999 2.233 9
4.5700002 -8.3240004 2.0280001 9
4.5929999 -8.3809996 2.26 9
4.5570002 -8.3249998 2.2219999 9
4.5739999 -8.3459997 2.184 9
4.5710001 -8.3249998 2.0339999 9
4.5809999 -8.3450003 2.0829999 9
4.5749998 -8.3430004 2.1370001 9
4.5830002 -8.3590002 2.1849999 9
4.566 -8.3290005 2.141 9
4.5780001 -8.3360004 2.04 9
4.5900002 -8.3669996 2.1719999 9
4.5939999 -8.3780003 2.217 9
4.5869999 -8.3559999 2.1029999 9
4.573 -8.3299999 2.052 9
4.5890002 -8.3640003 2.1570001 9
4.572 -8.3319998 2.086 9
4.5549998 -8.3269997 2.2650001 9
4.5900002 -8.3719997 2.2119999 9
4.5679998 -8.3360004 2.1700001 9
4.573 -8.3430004 2.1700001 9
4.5700002 -8.3450003 2.2249999 9
4.5689998 -8.3319998 2.1140001 9
4.5739999 -8.342 2.141 9
4.5819998 -8.3599997 2.2179999 9
4.5809999 -8.3629999 2.25 9
4.5650001 -8.3310003 2.1670001 9
4.5999999 -8.3839998 2.1960001 9
4.586 -8.3649998 2.204 9
4.5770001 -8.3540001 2.2219999 9
4.5760002 -8.3389997 2.095 9
4.5830002 -8.3590002 2.1889999 9
4.573 -8.3360004 2.1099999 9
4.572 -8.3269997 2.029 9
4.5879998 -8.3719997 2.2520001 9
4.5929999 -8.3730001 2.1860001 9
4.5669999 -8.3299999 2.1270001 9
4.5809999 -8.3640003 2.263 9
4.5710001 -8.3439999 2.2179999 9
4.585 -8.3559999 2.132 9
4.5910001 -8.3710003 2.1989999 9
4.5560002 -8.3219995 2.1930001 9
4.5739999 -8.3319998 2.0539999 9
4.5760002 -8.3439999 2.135 9
4.572 -8.3450003 2.2090001 9
4.5879998 -8.3669996 2.207 9
4.5539999 -8.3199997 2.207 9
4.5700002 -8.335 2.138 9
4.5580001 -8.323 2.1830001 9
4.5760002 -8.3540001 2.2349999 9
4.5710001 -8.3500004 2.2679999 9
4.573 -8.3459997 2.1930001 9
4.573 -8.3330002 2.072 9
4.559 -8.3260002 2.1930001 9
4.5710001 -8.3330002 2.1059999 9
4.5749998 -8.3559999 2.2650001 9
4.5819998 -8.3520002 2.1389999 9
4.5739999 -8.3470001 2.1860001 9
4.5799999 -8.3579998 2.2219999 9
4.5760002 -8.3400002 2.1059999 9
4.5749998 -8.3339996 2.066 9
4.573 -8.3280001 2.036 9
4.566 -8.3409996 2.2479999 9
4.592 -8.3710003 2.187 9
4.5580001 -8.3290005 2.243 9
4.5799999 -8.3479996 2.1259999 9
4.5910001 -8.3730001 2.217 9
4.5869999 -8.3570004 2.1110001 9
4.586 -8.3610001 2.161 9
4.585 -8.3710003 2.2679999 9
4.5929999 -8.3730001 2.1800001 9
4.5809999 -8.3450003 2.0769999 9
4.5999999 -8.3850002 2.2119999 9
4.5900002 -8.3699999 2.1989999 9
4.5710001 -8.3360004 2.1289999 9
4.5780001 -8.3450003 2.1240001 9
4.5710001 -8.335 2.125 9
4.5599999 -8.3249998 2.184 9
4.5760002 -8.3409996 2.1029999 9
4.5939999 -8.382 2.26 9
4.5840001 -8.3509998 2.1010001 9
4.5879998 -8.368 2.2130001 9
4.5809999 -8.3559999 2.184 9
4.573 -8.3310003 2.056 9
4.5760002 -8.3369999 2.076 9
4.5749998 -8.3500004 2.2079999 9
4.573 -8.3520002 2.2539999 9
4.5910001 -8.375 2.2320001 9
4.599 -8.382 2.191 9
4.5760002 -8.335 2.056 9
4.5970001 -8.3839998 2.2449999 9
4.573 -8.3400002 2.145 9
4.5760002 -8.3339996 2.036 9
4.5679998 -8.3450003 2.2509999 9
4.586 -8.3690004 2.2550001 9
4.5700002 -8.3389997 2.181 9
4.5949998 -8.3850002 2.276 9
4.5689998 -8.3260002 2.0599999 9
4.566 -8.3409996 2.2460001 9
4.5549998 -8.3210001 2.207 9
4.5650001 -8.3219995 2.082 9
4.5630002 -8.3369999 2.2490001 9
4.5609999 -8.3310003 2.2179999 9
4.5910001 -8.3719997 2.204 9
4.5799999 -8.3599997 2.2309999 9
4.5999999 -8.3850002 2.2049999 9
4.572 -8.3269997 2.0369999 9
4.5700002 -8.335 2.1389999 9
4.5580001 -8.3310003 2.2550001 9
4.5840001 -8.3509998 2.105 9
4.573 -8.3450003 2.1900001 9
4.5879998 -8.3669996 2.194 9
4.566 -8.3299999 2.1400001 9
4.5910001 -8.3789997 2.2650001 9
4.573 -8.3400002 2.1530001 9
4.5780001 -8.3579998 2.2490001 9
4.5960002 -8.3769999 2.187 9
4.5640001 -8.3380003 2.2509999 9
4.5900002 -8.3610001 2.1199999 9
4.5700002 -8.3339996 2.1210001 9
4.5840001 -8.3640003 2.224 9
4.5910001 -8.375 2.24 9
4.559 -8.3310003 2.2509999 9
4.5669999 -8.3430004 2.256 9
4.5960002 -8.382 2.2379999 9
4.5419998 -8.3629999 2.302 9
4.5440001 -8.349 2.2909999 9
4.54 -8.3629999 2.29 9
4.5409999 -8.3690004 2.3139999 9
4.5419998 -8.3549995 2.283 9
4.5419998 -8.3710003 2.3269999 9
4.5359998 -8.3839998 2.303 9
4.539 -8.3690004 2.296 9
4.54 -8.375 2.316 9
4.5430002 -8.3579998 2.3050001 9
4.546 -8.3380003 2.2809999 9
4.5419998 -8.3669996 2.3139999 9
4.546 -8.342 2.2909999 9
4.539 -8.3780003 2.3180001 9
4.5430002 -8.3559999 2.3039999 9
4.5450001 -8.3500004 2.3 9
4.546 -8.3400002 2.28 9
4.5380001 -8.3800001 2.316 9
4.533 -8.3739996 2.358 9
4.5419998 -8.3540001 2.3180001 9
4.5339999 -8.3719997 2.3540001 9
4.5430002 -8.3500004 2.3099999 9
4.5440001 -8.3380003 2.2980001 9
4.539 -8.3629999 2.332 9
4.5419998 -8.3629999 2.325 9
4.5419998 -8.3710003 2.3310001 9
4.5430002 -8.3620005 2.2839999 9
4.5749998 -8.3579998 2.273 9
4.5879998 -8.3780003 2.276 9
4.5739999 -8.3809996 2.2820001 9
4.566 -8.3699999 2.28 9
4.5580001 -8.3629999 2.28 9
4.5830002 -8.375 2.276 9
4.5609999 -8.3590002 2.277 9
4.572 -8.3570004 2.273 9
4.546 -8.3590002 2.2820001 9
4.5619998 -8.3760004 2.283 9
4.573 -8.3590002 2.273 9
4.585 -8.3859997 2.28 9
4.5560002 -8.3310003 2.2679999 9
4.5650001 -8.3690004 2.28 9
4.579 -8.3780003 2.279 9
4.5469999 -8.3319998 2.2709999 9
4.5469999 -8.3409996 2.2750001 9
4.5760002 -8.3739996 2.279 9
4.572 -8.3559999 2.273 9
4.559 -8.382 2.2869999 9
4.5669999 -8.3459997 2.2709999 9
4.5890002 -8.3789997 2.276 9
4.5760002 -8.3629999 2.2739999 9
4.5700002 -8.3839998 2.2839999 9
