# .PCD v0.7 - Point Cloud Data file format
VERSION 0.7
FIELDS x y z label
SIZE 4 4 4 4
TYPE F F F U
COUNT 1 1 1 1
WIDTH 1591
HEIGHT 1
VIEWPOINT 0 0 0 1 0 0 0
POINTS 1591
DATA ascii
8.1269999 -6.5830002 0.73699999 3
8.158 -6.6030002 0.73699999 3
8.0900002 -6.539 0.736 3
7.974 -6.704 0.73699999 3
8.1470003 -6.5409999 0.736 3
8.0369997 -6.6160002 0.736 3
8.085 -6.553 0.736 3
8.066 -6.6469998 0.73699999 3
8.0979996 -6.5539999 0.736 3
8.2030001 -6.5630002 0.73699999 3
8.0469999 -6.6069999 0.736 3
7.9650002 -6.697 0.73699999 3
8.1549997 -6.5700002 0.73699999 3
8.0310001 -6.6479998 0.73699999 3
7.9819999 -6.7030001 0.73699999 3
8.0270004 -6.6230001 0.73699999 3
8.1429996 -6.5440001 0.736 3
8.1029997 -6.5050001 0.736 3
8.0579996 -6.605 0.73699999 3
8.2030001 -6.553 0.73699999 3
8.0609999 -6.6490002 0.73699999 3
8.052 -6.6389999 0.73699999 3
8.0500002 -6.6090002 0.73699999 3
8.1330004 -6.6030002 0.73699999 3
8.0389996 -6.6680002 0.73699999 3
7.9689999 -6.6989999 0.73699999 3
8.0880003 -6.5349998 0.736 3
8.066 -6.6300001 0.73699999 3
8.0240002 -6.6279998 0.73699999 3
8.0819998 -6.6220002 0.73699999 3
8.0860004 -6.645 0.73699999 3
8.0209999 -6.6789999 0.73699999 3
7.9510002 -6.7220001 0.73699999 3
8.1239996 -6.5190001 0.736 3
8.0810003 -6.5510001 0.736 3
8.1269999 -6.605 0.73699999 3
8.0769997 -6.6269999 0.73699999 3
8.1440001 -6.5749998 0.73699999 3
8.0799999 -6.5339999 0.736 3
7.9489999 -6.711 0.73699999 3
8.099 -6.5100002 0.736 3
8.099 -6.6329999 0.73699999 3
8.1619997 -6.5560002 0.73699999 3
8.0810003 -6.6259999 0.73699999 3
8.1780005 -6.5570002 0.73699999 3
8.0740004 -6.5440001 0.736 3
8.191 -6.5560002 0.73699999 3
8.1169996 -6.5630002 0.736 3
8.1809998 -6.553 0.73699999 3
8.0930004 -6.6300001 0.73699999 3
7.9899998 -6.6630001 0.73699999 3
8.0310001 -6.6199999 0.736 3
8.1219997 -6.5580001 0.736 3
8.2220001 -6.5599999 0.73699999 3
8.1040001 -6.5910001 0.73699999 3
8.1719999 -6.573 0.73699999 3
8.099 -6.5570002 0.736 3
8.1940002 -6.5599999 0.73699999 3
8.0120001 -6.6399999 0.73699999 3
8.1400003 -6.5840001 0.73699999 3
8.1339998 -6.546 0.736 3
8.0039997 -6.6719999 0.73699999 3
8.0539999 -6.5970001 0.736 3
8.1169996 -6.5170002 0.736 3
8.0010004 -6.6599998 0.73699999 3
8.0120001 -6.6430001 0.73699999 3
8.1599998 -6.5799999 0.73699999 3
8.1029997 -6.6269999 0.73699999 3
8.1029997 -6.527 0.736 3
8.0690002 -6.652 0.73699999 3
8.0459995 -6.605 0.736 3
8.1330004 -6.526 0.736 3
8.0249996 -6.6220002 0.736 3
8.1090002 -6.546 0.736 3
8.1309996 -6.5229998 0.736 3
8.0810003 -6.559 0.736 3
8.0139999 -6.6859999 0.73699999 3
8.0649996 -6.6290002 0.73699999 3
8.007 -6.6729999 0.73699999 3
8.1219997 -6.5139999 0.736 3
8.1099997 -6.533 0.736 3
8.1289997 -6.5780001 0.73699999 3
7.9629998 -6.7129998 0.73699999 3
7.9990001 -6.6570001 0.73699999 3
7.96 -6.7189999 0.73699999 3
8.0469999 -6.5879998 0.736 3
8.1280003 -6.6090002 0.73699999 3
8.0760002 -6.5700002 0.736 3
8.1479998 -6.5809999 0.73699999 3
7.9819999 -6.6680002 0.73699999 3
8.2189999 -6.5679998 0.73699999 3
8.0570002 -6.5700002 0.736 3
7.9959998 -6.6950002 0.73699999 3
8.085 -6.6389999 0.73699999 3
8.0830002 -6.5599999 0.736 3
8.1949997 -6.5780001 0.73699999 3
8.0600004 -6.5609999 0.736 3
8.1599998 -6.5939999 0.73699999 3
7.9679999 -6.6890001 0.73699999 3
8.0539999 -6.6360002 0.73699999 3
8.099 -6.6360002 0.73699999 3
7.9390001 -6.7290001 0.73699999 3
7.9860001 -6.664 0.73699999 3
8.0880003 -6.5840001 0.73699999 3
8.0179996 -6.6490002 0.73699999 3
8.1000004 -6.5869999 0.73699999 3
8.0500002 -6.651 0.73699999 3
8.066 -6.5799999 0.736 3
7.9629998 -6.71 0.73699999 3
8.0459995 -6.612 0.73699999 3
8.1820002 -6.5780001 0.73699999 3
8.132 -6.5430002 0.736 3
8.0509996 -6.5910001 0.736 3
8.1309996 -6.5760002 0.73699999 3
8.0640001 -6.5599999 0.736 3
8.1409998 -6.54 0.736 3
8.0799999 -6.6230001 0.73699999 3
8.0880003 -6.5469999 0.736 3
8.0290003 -6.6690001 0.73699999 3
8.0469999 -6.6370001 0.73699999 3
8.1300001 -6.5710001 0.73699999 3
8.1219997 -6.5450001 0.736 3
8.0539999 -6.6560001 0.73699999 3
8.1540003 -6.605 0.73699999 3
8.0050001 -6.6900001 0.73699999 3
8.1230001 -6.6199999 0.73699999 3
8.0059996 -6.677 0.73699999 3
8.1680002 -6.5760002 0.73699999 3
7.9809999 -6.6669998 0.73699999 3
8.1759996 -6.5739999 0.73699999 3
8.0530005 -6.6539998 0.73699999 3
7.9759998 -6.6880002 0.73699999 3
8.1040001 -6.5780001 0.73699999 3
8.1099997 -6.5910001 0.73699999 3
8.0089998 -6.6350002 0.73699999 3
8.0310001 -6.658 0.73699999 3
8.0170002 -6.6220002 0.736 3
8.1730003 -6.586 0.73699999 3
8.158 -6.5450001 0.73699999 3
8.1040001 -6.5500002 0.736 3
8.0360003 -6.6690001 0.73699999 3
8.1680002 -6.5910001 0.73699999 3
8.0699997 -6.652 0.73699999 3
7.994 -6.6999998 0.73699999 3
8.1280003 -6.5749998 0.73699999 3
8.0900002 -6.487 0.736 3
8.0979996 -6.4920001 0.736 3
8.0880003 -6.4819999 0.736 3
8.0939999 -6.4759998 0.736 3
8.0410004 -6.579 0.736 3
8.0570002 -6.527 0.736 3
8.0699997 -6.5050001 0.736 3
8.0970001 -6.5079999 0.736 3
8.0410004 -6.5700002 0.736 3
8.0570002 -6.5440001 0.736 3
8.0059996 -6.6079998 0.736 3
8.0380001 -6.5500002 0.736 3
7.9770002 -6.6599998 0.73699999 3
8.0209999 -6.585 0.736 3
7.9889998 -6.6360002 0.73699999 3
8.0299997 -6.5650001 0.736 3
8.085 -6.4860001 0.736 3
7.974 -6.652 0.73699999 3
8.0059996 -6.5949998 0.73699999 3
8.0310001 -6.553 0.736 3
7.9829998 -6.6350002 0.73699999 3
8.0109997 -6.619 0.736 3
8.0039997 -6.6090002 0.73699999 3
8.0970001 -6.5029998 0.736 3
7.9749999 -6.6599998 0.73699999 3
8.0699997 -6.4889998 0.736 3
8.0830002 -6.4840002 0.736 3
7.9780002 -6.6659999 0.73699999 3
8.0780001 -6.506 0.736 3
8.0380001 -6.5689998 0.736 3
7.9720001 -6.6729999 0.73699999 3
8.0530005 -6.5650001 0.736 3
8.0310001 -6.5900002 0.736 3
8.0509996 -6.5489998 0.736 3
8.0719995 -6.493 0.736 3
8.0220003 -6.5780001 0.736 3
8.0129995 -6.5879998 0.736 3
8.0509996 -6.5510001 0.736 3
8.0719995 -6.5300002 0.736 3
7.9990001 -6.6279998 0.73699999 3
7.9250002 -6.737 0.73699999 3
7.98 -6.664 0.73699999 3
8.0279999 -6.5710001 0.736 3
8.0860004 -6.493 0.736 3
7.9879999 -6.632 0.73699999 3
7.941 -6.7150002 0.73699999 3
7.9990001 -6.6240001 0.73699999 3
8.0430002 -6.573 0.736 3
8.0030003 -6.6269999 0.736 3
7.9790001 -6.6529999 0.73699999 3
8.0279999 -6.599 0.736 3
8.0629997 -6.5079999 0.736 3
7.9920001 -6.631 0.73699999 3
7.993 -6.645 0.73699999 3
8.0469999 -6.5500002 0.736 3
8 -6.6020002 0.73699999 3
7.9650002 -6.6729999 0.73699999 3
8.0690002 -6.5289998 0.736 3
8.0719995 -6.526 0.736 3
8.0670004 -6.5229998 0.736 3
7.987 -6.6459999 0.73699999 3
8.0240002 -6.5890002 0.736 3
8.092 -6.5 0.736 3
8.0459995 -6.5510001 0.736 3
7.9400001 -6.711 0.73699999 3
8.0939999 -6.5019999 0.736 3
8.092 -6.4720001 0.736 3
8.0959997 -6.4580002 0.736 3
8.0869999 -6.4640002 0.736 3
8.0900002 -6.4590001 0.736 3
8.1040001 -6.3280001 0.736 3
8.0930004 -6.4369998 0.736 3
8.1000004 -6.3829999 0.736 3
8.0889997 -6.4510002 0.736 3
8.0950003 -6.4000001 0.736 3
8.0930004 -6.402 0.736 3
8.1000004 -6.4060001 0.736 3
8.0839996 -6.441 0.736 3
8.0979996 -6.427 0.736 3
8.0819998 -6.461 0.736 3
8.1000004 -6.395 0.736 3
8.0930004 -6.3839998 0.736 3
8.099 -6.4130001 0.736 3
8.0979996 -6.3779998 0.736 3
8.0939999 -6.3909998 0.736 3
8.0769997 -6.4580002 0.736 3
8.0830002 -6.4190001 0.736 3
8.092 -6.4289999 0.736 3
8.0979996 -6.3639998 0.736 3
8.1000004 -6.4400001 0.736 3
8.0959997 -6.4320002 0.736 3
8.1160002 -6.3759999 0.736 3
8.1890001 -6.4829998 0.73699999 3
8.1110001 -6.382 0.736 3
8.1520004 -6.4050002 0.73699999 3
8.1929998 -6.494 0.73699999 3
8.165 -6.494 0.736 3
8.1820002 -6.5120001 0.73699999 3
8.2139997 -6.539 0.73699999 3
8.191 -6.4840002 0.73699999 3
8.1199999 -6.4590001 0.736 3
8.1300001 -6.4510002 0.736 3
8.1280003 -6.4200001 0.736 3
8.1400003 -6.4559999 0.736 3
8.1709995 -6.4990001 0.73699999 3
8.2139997 -6.5419998 0.73699999 3
8.1260004 -6.368 0.736 3
8.1730003 -6.4819999 0.73699999 3
8.2220001 -6.5479999 0.73699999 3
8.1639996 -6.4559999 0.73699999 3
8.1070004 -6.3260002 0.736 3
8.1619997 -6.4549999 0.73699999 3
8.1700001 -6.4679999 0.73699999 3
8.1599998 -6.4320002 0.73699999 3
8.1059999 -6.4120002 0.736 3
8.1239996 -6.4039998 0.736 3
8.1120005 -6.3309999 0.736 3
8.2030001 -6.5149999 0.73699999 3
8.1610003 -6.4590001 0.73699999 3
8.1099997 -6.4029999 0.736 3
8.2069998 -6.5209999 0.73699999 3
8.118 -6.3870001 0.736 3
8.1059999 -6.3990002 0.736 3
8.1709995 -6.4679999 0.73699999 3
8.1490002 -6.4330001 0.73699999 3
8.1309996 -6.4130001 0.736 3
8.1379995 -6.3629999 0.73699999 3
8.1359997 -6.395 0.73699999 3
8.1669998 -6.4489999 0.73699999 3
8.1059999 -6.3699999 0.736 3
8.1809998 -6.4990001 0.73699999 3
8.1049995 -6.3730001 0.736 3
8.1780005 -6.5100002 0.73699999 3
8.1870003 -6.52 0.73699999 3
8.1960001 -6.494 0.73699999 3
8.1230001 -6.3390002 0.73699999 3
8.1429996 -6.474 0.736 3
8.1350002 -6.4120002 0.736 3
8.1210003 -6.3940001 0.736 3
8.1490002 -6.4130001 0.73699999 3
8.1169996 -6.335 0.73699999 3
8.1160002 -6.4310002 0.736 3
8.1289997 -6.3870001 0.736 3
8.1309996 -6.46 0.736 3
8.1350002 -6.3730001 0.73699999 3
8.1520004 -6.4569998 0.736 3
8.1560001 -6.4390001 0.73699999 3
8.1309996 -6.4109998 0.736 3
8.165 -6.421 0.73699999 3
8.1239996 -6.4190001 0.736 3
8.1219997 -6.4359999 0.736 3
8.1800003 -6.48 0.73699999 3
8.1809998 -6.4959998 0.73699999 3
8.1129999 -6.369 0.736 3
8.1569996 -6.4450002 0.73699999 3
8.1619997 -6.454 0.73699999 3
8.1389999 -6.4239998 0.736 3
8.1520004 -6.4190001 0.73699999 3
8.1260004 -6.4190001 0.736 3
8.1149998 -6.3439999 0.736 3
8.1630001 -6.4169998 0.73699999 3
8.177 -6.4460001 0.73699999 3
8.118 -6.3600001 0.736 3
8.1070004 -6.441 0.736 3
8.1689997 -6.494 0.73699999 3
8.1450005 -6.467 0.736 3
8.1219997 -6.335 0.73699999 3
8.1389999 -6.4679999 0.736 3
8.1350002 -6.4689999 0.736 3
8.1700001 -6.4910002 0.73699999 3
8.1160002 -6.3369999 0.736 3
8.1219997 -6.4439998 0.736 3
8.1079998 -6.3579998 0.736 3
8.1199999 -6.4320002 0.736 3
8.1639996 -6.4229999 0.73699999 3
8.1569996 -6.4099998 0.73699999 3
8.1079998 -6.427 0.736 3
8.1149998 -6.388 0.736 3
8.1540003 -6.4840002 0.736 3
8.1079998 -6.3959999 0.736 3
8.1429996 -6.415 0.73699999 3
8.1219997 -6.4419999 0.736 3
8.1549997 -6.474 0.736 3
8.1300001 -6.4650002 0.736 3
8.1190004 -6.3990002 0.736 3
8.1949997 -6.5 0.73699999 3
8.1110001 -6.415 0.736 3
8.1850004 -6.5139999 0.73699999 3
8.1440001 -6.3920002 0.73699999 3
8.1190004 -6.473 0.736 3
8.1049995 -6.4920001 0.736 3
8.1190004 -6.474 0.736 3
8.1230001 -6.4720001 0.736 3
8.1479998 -6.507 0.736 3
8.165 -6.5229998 0.736 3
8.1470003 -6.5019999 0.736 3
8.1929998 -6.533 0.73699999 3
8.2130003 -6.5489998 0.73699999 3
8.1260004 -6.5009999 0.736 3
8.1269999 -6.5 0.736 3
8.1330004 -6.4959998 0.736 3
8.1780005 -6.5380001 0.73699999 3
8.158 -6.5149999 0.736 3
8.1459999 -6.493 0.736 3
8.1289997 -6.5029998 0.736 3
8.1300001 -6.487 0.736 3
8.2089996 -6.5440001 0.73699999 3
8.1610003 -6.5229998 0.736 3
8.1400003 -6.5180001 0.736 3
8.1309996 -6.4920001 0.736 3
8.1750002 -6.5370002 0.73699999 3
8.1520004 -6.5110002 0.736 3
8.2060003 -6.5500002 0.73699999 3
8.1630001 -6.507 0.736 3
8.1280003 -6.4910002 0.736 3
8.1680002 -6.5229998 0.736 3
8.1420002 -6.5009999 0.736 3
8.1730003 -6.526 0.736 3
8.1870003 -6.5409999 0.73699999 3
8.151 -6.494 0.736 3
8.1370001 -6.493 0.736 3
8.1120005 -6.4640002 0.736 3
8.1160002 -6.4720001 0.736 3
8.1149998 -6.4699998 0.736 3
8.1029997 -6.4520001 0.736 3
8.1680002 -6.5040002 0.736 3
7.9899998 -7.4559999 0.73199999 3
8.0369997 -7.4679999 0.727 3
8.191 -7.507 0.71200001 3
8.151 -7.5110002 0.70999998 3
8.151 -7.5040002 0.713 3
8.177 -7.5009999 0.71499997 3
8.0719995 -7.4759998 0.72399998 3
8.0699997 -7.4990001 0.71399999 3
8.0640001 -7.4759998 0.72399998 3
8.2299995 -7.5149999 0.70899999 3
8.1219997 -7.494 0.71700001 3
8.0679998 -7.5100002 0.708 3
8.0799999 -7.5079999 0.70899999 3
8.0600004 -7.473 0.72500002 3
8.0810003 -7.4809999 0.722 3
8.0200005 -7.4640002 0.72899997 3
8.1479998 -7.5050001 0.71200001 3
8.0480003 -7.4770002 0.72299999 3
7.9899998 -7.4590001 0.73100001 3
8.1429996 -7.4970002 0.71600002 3
7.9959998 -7.4629998 0.72899997 3
8.1020002 -7.5120001 0.708 3
8.0710001 -7.5019999 0.71200001 3
8.0909996 -7.4990001 0.71399999 3
8.0830002 -7.5110002 0.708 3
8.099 -7.4889998 0.71899998 3
8.1029997 -7.5050001 0.71100003 3
8.1689997 -7.4990001 0.71499997 3
8.1960001 -7.5050001 0.713 3
8.1289997 -7.4889998 0.71899998 3
8.2360001 -7.513 0.70999998 3
8.2279997 -7.5149999 0.70899999 3
8.0240002 -7.4749999 0.72399998 3
8.0270004 -7.4759998 0.72299999 3
8.0509996 -7.4829998 0.72100002 3
8.1280003 -7.4959998 0.71600002 3
8.2290001 -7.5159998 0.70899999 3
8.1450005 -7.493 0.71799999 3
8.0679998 -7.4889998 0.71799999 3
8.1090002 -7.5100002 0.70899999 3
8.0380001 -7.473 0.72500002 3
8.0089998 -7.467 0.72799999 3
8.0740004 -7.4980001 0.71399999 3
8.2320004 -7.5159998 0.70899999 3
8.0670004 -7.5089998 0.70899999 3
8.033 -7.4860001 0.71899998 3
8.125 -7.4889998 0.71899998 3
8.04 -7.4759998 0.72399998 3
8.0909996 -7.4809999 0.72299999 3
8.0930004 -7.5040002 0.71100003 3
8.1230001 -7.4959998 0.71600002 3
8.1689997 -7.5040002 0.713 3
8.0200005 -7.4759998 0.72299999 3
8.1560001 -7.5019999 0.71399999 3
8.0979996 -7.5040002 0.71200001 3
8.1680002 -7.5120001 0.70899999 3
8.0389996 -7.4819999 0.72100002 3
8.0220003 -7.4790001 0.722 3
8.099 -7.506 0.71100003 3
8.1090002 -7.4889998 0.71899998 3
8.1630001 -7.4949999 0.71700001 3
8.1440001 -7.5100002 0.70999998 3
8.2010002 -7.4850001 0.72500002 3
8.0109997 -7.4559999 0.73299998 3
8.1870003 -7.494 0.71899998 3
8.257 -7.513 0.71100003 3
8.2510004 -7.506 0.71499997 3
8.1230001 -7.4720001 0.72899997 3
8.1029997 -7.4640002 0.73299998 3
8.1990004 -7.4990001 0.71700001 3
8.1719999 -7.4889998 0.72100002 3
8.1479998 -7.4809999 0.72500002 3
8.1660004 -7.494 0.71799999 3
8.2150002 -7.4689999 0.73500001 3
8.1540003 -7.474 0.72899997 3
8.118 -7.4790001 0.72500002 3
8.1210003 -7.4819999 0.72299999 3
8.0959997 -7.473 0.727 3
8.2030001 -7.48 0.727 3
8.1899996 -7.4759998 0.72899997 3
8.0710001 -7.4720001 0.727 3
8.2539997 -7.4749999 0.73299998 3
8.2189999 -7.4910002 0.722 3
8.1239996 -7.4850001 0.72100002 3
8.2019997 -7.4889998 0.72299999 3
8.2399998 -7.4970002 0.72000003 3
8.0760002 -7.4699998 0.72799999 3
8.2200003 -7.474 0.73199999 3
8.099 -7.4790001 0.72399998 3
8.224 -7.48 0.72799999 3
8.1890001 -7.4770002 0.72899997 3
8.198 -7.4770002 0.72899997 3
8.151 -7.4640002 0.73500001 3
8.2370005 -7.4860001 0.72600001 3
8.2150002 -7.4720001 0.73299998 3
8.158 -7.4910002 0.71899998 3
8.2030001 -7.4899998 0.722 3
8.1370001 -7.4689999 0.73100001 3
8.0360003 -7.4569998 0.73299998 3
8.0690002 -7.4720001 0.72600001 3
8.2150002 -7.4749999 0.73100001 3
8.1099997 -7.4749999 0.727 3
7.9910002 -7.4559999 0.73199999 3
8.1999998 -7.4829998 0.72600001 3
8.2110004 -7.5009999 0.71600002 3
8.1450005 -7.4710002 0.73000002 3
8.1059999 -7.4689999 0.73000002 3
8.0640001 -7.4580002 0.73400003 3
8.2030001 -7.467 0.73500001 3
7.9970002 -7.4559999 0.73299998 3
8.1129999 -7.4749999 0.72600001 3
8.1549997 -7.4899998 0.72000003 3
8.092 -7.474 0.727 3
8.1870003 -7.4879999 0.722 3
8.2130003 -7.4679999 0.73500001 3
8.0240002 -7.461 0.73100001 3
8.1949997 -7.4689999 0.73400003 3
8.1639996 -7.4679999 0.73299998 3
8.2139997 -7.4829998 0.727 3
8.1660004 -7.4710002 0.73100001 3
8.1940002 -7.4829998 0.72600001 3
8.1529999 -7.4749999 0.72799999 3
8.1599998 -7.4819999 0.72500002 3
8.21 -7.4759998 0.73000002 3
8.1660004 -7.494 0.71799999 3
8.1490002 -7.4780002 0.727 3
8.1689997 -7.4840002 0.72399998 3
8.1409998 -7.4650002 0.73400003 3
8.0780001 -7.474 0.72600001 3
8.1479998 -7.4889998 0.72000003 3
8.1800003 -7.4850001 0.72399998 3
8.224 -7.4809999 0.72799999 3
8.2419996 -7.487 0.72500002 3
8.1400003 -7.4809999 0.72500002 3
8.198 -7.4770002 0.72899997 3
8.0690002 -7.4580002 0.73400003 3
8.1560001 -7.4850001 0.72299999 3
8.1809998 -7.4749999 0.73000002 3
8.2510004 -7.4860001 0.72600001 3
8.3280001 -6.9759998 0.73699999 3
8.1969995 -7.2160001 0.736 3
8.3280001 -6.9510002 0.73699999 3
8.2309999 -7.4109998 0.73500001 3
8.1719999 -7.027 0.736 3
8.2279997 -7.0640001 0.736 3
8.3439999 -6.914 0.73699999 3
8.3249998 -7.0580001 0.73699999 3
8.2930002 -7.2589998 0.736 3
8.2399998 -7.0749998 0.736 3
8.3559999 -6.9380002 0.73699999 3
8.2869997 -7.2480001 0.736 3
8.2889996 -6.974 0.73699999 3
8.1669998 -7.0619998 0.736 3
8.2209997 -7.3629999 0.736 3
8.2489996 -7.3039999 0.736 3
8.1370001 -7.1259999 0.736 3
8.158 -7.1020002 0.736 3
8.0740004 -7.217 0.73500001 3
8.3100004 -7.0089998 0.73699999 3
8.1969995 -7.1560001 0.736 3
8.0220003 -7.1389999 0.73500001 3
8.1610003 -7.039 0.736 3
8.1820002 -7.368 0.73500001 3
8.2130003 -7.2519999 0.736 3
8.2110004 -7.1589999 0.736 3
8.2980003 -7.2119999 0.736 3
8.3039999 -7.2080002 0.736 3
8.1499996 -7.204 0.736 3
8.2390003 -7.1170001 0.736 3
8.1359997 -7.0359998 0.736 3
8.2489996 -7.2529998 0.736 3
8.158 -7.2140002 0.736 3
8.1520004 -7.3039999 0.73500001 3
8.0270004 -7.1360002 0.73500001 3
8.309 -7.1220002 0.73699999 3
8.1700001 -7.1269999 0.736 3
8.125 -7.165 0.736 3
8.2659998 -7.25 0.736 3
8.0670004 -7.1500001 0.736 3
8.1309996 -7.2410002 0.73500001 3
8.3310003 -6.927 0.73699999 3
8.0889997 -7.1799998 0.736 3
8.1610003 -7.3270001 0.73500001 3
8.2659998 -7.368 0.736 3
8.3000002 -6.9850001 0.73699999 3
8.1969995 -7.0619998 0.736 3
8.1190004 -7.2579999 0.73500001 3
8.25 -7.3080001 0.736 3
8.2189999 -7.237 0.736 3
8.0760002 -7.1220002 0.736 3
8.1820002 -7.0609999 0.736 3
8.276 -7.1370001 0.736 3
8.0179996 -7.1139998 0.73500001 3
8.0909996 -7.125 0.736 3
8.2360001 -7.1750002 0.736 3
8.309 -7.112 0.73699999 3
8.2460003 -7.079 0.736 3
8.302 -7.1479998 0.736 3
8.1560001 -7.191 0.736 3
8.2639999 -7.2969999 0.736 3
8.3079996 -7.0739999 0.73699999 3
8.2010002 -7.3249998 0.736 3
8.29 -6.9829998 0.73699999 3
8.0270004 -7.1100001 0.73500001 3
8.1429996 -7.2490001 0.736 3
8.2609997 -7.1220002 0.736 3
8.2119999 -6.9829998 0.73699999 3
8.2229996 -7.0359998 0.736 3
8.1239996 -7.2740002 0.73500001 3
8.0129995 -7.1290002 0.73500001 3
8.2770004 -7.0100002 0.73699999 3
8.0670004 -7.1209998 0.736 3
8.2659998 -7.3759999 0.736 3
8.2749996 -6.9790001 0.73699999 3
8.2130003 -7.1420002 0.736 3
8.1639996 -7.2649999 0.736 3
8.1009998 -7.1900001 0.736 3
8.2519999 -7.2690001 0.736 3
8.2209997 -7.2859998 0.736 3
8.2159996 -7.158 0.736 3
8.2729998 -7.3439999 0.736 3
8.1820002 -7.2849998 0.736 3
8.1079998 -7.151 0.736 3
8.0970001 -7.1659999 0.736 3
8.1149998 -7.1599998 0.736 3
8.3149996 -6.9860001 0.73699999 3
8.118 -7.1789999 0.736 3
8.2810001 -7.026 0.73699999 3
8.1599998 -7.2519999 0.736 3
8.2299995 -7.362 0.736 3
8.3219995 -6.9260001 0.73699999 3
8.1590004 -7.2909999 0.73500001 3
8.2919998 -6.9809999 0.73699999 3
8.243 -7.1290002 0.736 3
8.1920004 -7.257 0.736 3
8.1870003 -7.2670002 0.736 3
8.052 -7.178 0.73500001 3
8.1210003 -7.1469998 0.736 3
8.2989998 -6.947 0.73699999 3
8.1309996 -7.1690001 0.736 3
8.1879997 -7.2210002 0.736 3
8.1339998 -7.1129999 0.736 3
8.2229996 -7.329 0.736 3
8.0819998 -7.204 0.73500001 3
8.1850004 -7.105 0.736 3
8.1940002 -7.0560002 0.736 3
8.2580004 -7.0840001 0.736 3
8.2989998 -7.0300002 0.73699999 3
8.125 -7.2480001 0.73500001 3
8.1190004 -7.1820002 0.736 3
8.2819996 -7.3080001 0.736 3
8.1599998 -7.2389998 0.736 3
8.2679996 -7.3670001 0.736 3
8.25 -6.9959998 0.73699999 3
8.1160002 -7.1830001 0.736 3
8.2399998 -7.3330002 0.736 3
8.2399998 -7.0560002 0.736 3
8.092 -7.1300001 0.736 3
8.2799997 -7.1259999 0.736 3
8.3400002 -7.0209999 0.73699999 3
8.1300001 -7.1869998 0.736 3
8.1269999 -7.0760002 0.736 3
8.2580004 -6.994 0.73699999 3
8.224 -7.1100001 0.736 3
8.3210001 -7.027 0.73699999 3
8.184 -7.1009998 0.736 3
8.0869999 -7.1290002 0.736 3
8.2969999 -7.007 0.73699999 3
8.0799999 -7.1440001 0.736 3
8.2259998 -7.0370002 0.736 3
8.3249998 -7.0289998 0.73699999 3
8.2910004 -7.243 0.736 3
8.165 -7.0999999 0.736 3
8.1730003 -7.112 0.736 3
8.0450001 -7.164 0.73500001 3
8.1730003 -7.243 0.736 3
8.2659998 -7.25 0.736 3
8.2449999 -7.0840001 0.736 3
8.2460003 -7.276 0.736 3
8.3059998 -7.1040001 0.73699999 3
8.2790003 -7.046 0.73699999 3
8.3369999 -6.9980001 0.73699999 3
8.3140001 -7.1529999 0.736 3
8.1750002 -7.1020002 0.736 3
8.2849998 -7.1230001 0.736 3
8.2320004 -7.3889999 0.73500001 3
8.2220001 -7.0809999 0.736 3
8.257 -7.362 0.736 3
8.1870003 -7.3649998 0.73500001 3
8.2629995 -7.1799998 0.736 3
8.2379999 -7.0999999 0.736 3
8.2729998 -6.9679999 0.73699999 3
8.3070002 -7.0890002 0.73699999 3
8.1999998 -7.2129998 0.736 3
8.2539997 -7.211 0.736 3
8.2119999 -7.0869999 0.736 3
8.0719995 -7.2129998 0.73500001 3
8.2200003 -7.401 0.73500001 3
8.2089996 -7.3140001 0.736 3
8.2650003 -7.322 0.736 3
8.2519999 -7.1659999 0.736 3
8.1199999 -7.046 0.736 3
8.3219995 -7.0580001 0.73699999 3
8.2840004 -7.053 0.73699999 3
8.2969999 -7.0500002 0.73699999 3
8.1350002 -7.1490002 0.736 3
8.0480003 -7.1059999 0.736 3
8.132 -7.1240001 0.736 3
8.2930002 -7.277 0.736 3
8.0550003 -7.191 0.73500001 3
8.2250004 -7.217 0.736 3
8.3249998 -7.0799999 0.73699999 3
8.224 -7.368 0.736 3
8.1389999 -7.2659998 0.73500001 3
8.3039999 -7.1399999 0.736 3
8.1899996 -7.3660002 0.73500001 3
8.1120005 -7.0479999 0.736 3
8.2819996 -7.177 0.736 3
8.2220001 -7.1659999 0.736 3
8.2250004 -7.2550001 0.736 3
8.1949997 -7.1929998 0.736 3
8.2469997 -7.4349999 0.73500001 3
8.1549997 -7.0799999 0.736 3
8.2229996 -7.2540002 0.736 3
8.073 -7.1500001 0.736 3
8.224 -7.0050001 0.73699999 3
8.21 -7.2210002 0.736 3
8.2860003 -7.158 0.736 3
8.323 -7.0279999 0.73699999 3
8.2419996 -7.0869999 0.736 3
8.1809998 -7.2680001 0.736 3
8.04 -7.1069999 0.736 3
8.2659998 -7.395 0.736 3
8.2779999 -7.0040002 0.73699999 3
8.2259998 -7.421 0.73500001 3
8.2840004 -7.198 0.736 3
8.2419996 -7.1999998 0.736 3
8.2679996 -7.2470002 0.736 3
8.1379995 -7.1420002 0.736 3
8.2229996 -7.1009998 0.736 3
8.1029997 -7.2189999 0.73500001 3
8.3129997 -6.9749999 0.73699999 3
8.2950001 -7.138 0.736 3
8.2049999 -7.3940001 0.73500001 3
8.2489996 -7.0229998 0.73699999 3
8.2790003 -6.954 0.73699999 3
8.2189999 -7.1690001 0.736 3
8.0699997 -7.1680002 0.73500001 3
8.2270002 -7.151 0.736 3
8.2659998 -7.3909998 0.736 3
8.3310003 -7.0570002 0.73699999 3
8.2930002 -7.2379999 0.736 3
8.3129997 -6.9419999 0.73699999 3
8.2150002 -7.0050001 0.73699999 3
8.2390003 -7.0469999 0.736 3
8.2959995 -7.2329998 0.736 3
8.3109999 -7.0539999 0.73699999 3
8.2370005 -7.0159998 0.73699999 3
8.2229996 -7.2389998 0.736 3
8.2919998 -7.2119999 0.736 3
8.2620001 -7.3379998 0.736 3
8.3459997 -6.9060001 0.73699999 3
8.2419996 -7.3270001 0.736 3
8.257 -7.3400002 0.736 3
8.1239996 -7.1020002 0.736 3
8.3219995 -7.1230001 0.73699999 3
8.3100004 -7.152 0.736 3
8.2959995 -7.1059999 0.73699999 3
8.2299995 -7.2410002 0.736 3
8.0889997 -7.191 0.73500001 3
8.3260002 -6.9759998 0.73699999 3
8.2349997 -7.2420001 0.736 3
8.1700001 -7.033 0.736 3
8.1590004 -7.2220001 0.736 3
8.165 -7.309 0.73500001 3
8.2959995 -7.0900002 0.73699999 3
8.1400003 -7.2940001 0.73500001 3
8.2959995 -7.1960001 0.736 3
8.2329998 -7.29 0.736 3
8.2390003 -7.2839999 0.736 3
8.2510004 -6.9749999 0.73699999 3
8.2539997 -7.3470001 0.736 3
8.1700001 -7.303 0.73500001 3
8.2959995 -7.1919999 0.736 3
8.2040005 -7.0050001 0.736 3
8.2629995 -7.1589999 0.736 3
8.1169996 -7.1880002 0.736 3
8.2749996 -7.3060002 0.736 3
8.3479996 -6.901 0.73699999 3
8.1239996 -7.2820001 0.73500001 3
8.1210003 -7.0739999 0.736 3
8.151 -7.2410002 0.736 3
8.1379995 -7.3039999 0.73500001 3
8.2530003 -6.9660001 0.73699999 3
8.1660004 -7.257 0.736 3
8.0469999 -7.1430001 0.73500001 3
8.1709995 -7.184 0.736 3
8.2609997 -7.289 0.736 3
8.2740002 -7.3629999 0.736 3
8.2460003 -7.1300001 0.736 3
8.2849998 -7.1789999 0.736 3
8.1850004 -7.3000002 0.736 3
8.0710001 -7.165 0.73500001 3
8.2770004 -7.1440001 0.736 3
8.0019999 -7.119 0.73500001 3
8.1809998 -7.2129998 0.736 3
8.2989998 -6.9780002 0.73699999 3
8.1470003 -7.027 0.736 3
8.2080002 -7.1859999 0.736 3
8.1610003 -7.2620001 0.736 3
8.1669998 -7.3080001 0.73500001 3
8.1920004 -7.29 0.736 3
8.2489996 -7.3889999 0.736 3
8.2270002 -7.2690001 0.736 3
8.2519999 -7.1230001 0.736 3
8.3470001 -6.9089999 0.73699999 3
8.1630001 -7.0430002 0.736 3
8.1420002 -7.1890001 0.736 3
8.2089996 -7.2930002 0.736 3
8.1520004 -7.2459998 0.736 3
8.0690002 -7.0970001 0.736 3
8.1169996 -7.2670002 0.73500001 3
8.2460003 -7.3870001 0.736 3
8.0769997 -7.2150002 0.73500001 3
8.2539997 -7.04 0.73699999 3
8.3129997 -6.9460001 0.73699999 3
8.2659998 -6.993 0.73699999 3
8.1960001 -7.0999999 0.736 3
8.0799999 -7.0700002 0.736 3
8.2679996 -7.0339999 0.73699999 3
8.1289997 -7.2729998 0.73500001 3
8.1400003 -7.2150002 0.736 3
8.3280001 -6.941 0.73699999 3
8.21 -7.3119998 0.736 3
8.0889997 -7.0869999 0.736 3
8.2700005 -7.0760002 0.73699999 3
8.2259998 -7.1220002 0.736 3
8.0699997 -7.1409998 0.736 3
8.1330004 -7.289 0.73500001 3
8.3219995 -7.0050001 0.73699999 3
8.2519999 -7.1939998 0.736 3
8.2510004 -7.4000001 0.736 3
8.1450005 -7.2259998 0.736 3
8.2650003 -7.0079999 0.73699999 3
8.2950001 -7.0419998 0.73699999 3
8.3380003 -6.9229999 0.73699999 3
8.1639996 -7.145 0.736 3
8.2379999 -7.3150001 0.736 3
8.2989998 -6.9809999 0.73699999 3
8.1680002 -7.0219998 0.736 3
8.1739998 -7.0710001 0.736 3
8.257 -7.283 0.736 3
8.158 -7.0619998 0.736 3
8.1129999 -7.2449999 0.73500001 3
8.2840004 -7.006 0.73699999 3
8.1330004 -7.1469998 0.736 3
8.132 -7.2810001 0.73500001 3
8.2670002 -7.4000001 0.736 3
8.0860004 -7.098 0.736 3
8.184 -7.1929998 0.736 3
8.3339996 -7.027 0.73699999 3
8.2930002 -6.9520001 0.73699999 3
8.0290003 -7.1570001 0.73500001 3
8.2060003 -7.2259998 0.736 3
8.2250004 -7.4159999 0.73500001 3
8.2869997 -7.0599999 0.73699999 3
8.1870003 -7.3379998 0.73500001 3
8.1990004 -7.098 0.736 3
8.2849998 -7.2670002 0.736 3
8.2700005 -7.3150001 0.736 3
8.1079998 -7.0809999 0.736 3
8.1549997 -7.0440001 0.736 3
8.2860003 -6.974 0.73699999 3
8.2349997 -7.052 0.736 3
8.1709995 -7.309 0.73500001 3
8.2749996 -7.1469998 0.736 3
8.3109999 -7.165 0.736 3
8.2329998 -7.039 0.736 3
8.1420002 -7.092 0.736 3
8.1070004 -7.1209998 0.736 3
8.3339996 -6.9320002 0.73699999 3
8.0880003 -7.1719999 0.736 3
8.2440004 -7.0970001 0.736 3
8.2440004 -7.4039998 0.73500001 3
8.2460003 -7.3800001 0.736 3
8.2600002 -7.0040002 0.73699999 3
8.2969999 -6.9959998 0.73699999 3
8.2290001 -7.0240002 0.73699999 3
8.2069998 -6.993 0.73699999 3
8.1680002 -7.2950001 0.73500001 3
8.1260004 -7.1789999 0.736 3
8.3109999 -6.9439998 0.73699999 3
8.1800003 -7.0780001 0.736 3
8.2580004 -7.4260001 0.73500001 3
8.1309996 -7.1430001 0.736 3
8.0340004 -7.1599998 0.73500001 3
8.2040005 -7.3730001 0.73500001 3
8.3240004 -6.9229999 0.73699999 3
8.2150002 -7.3140001 0.736 3
8.1789999 -7.132 0.736 3
8.1800003 -7.0679998 0.736 3
8.2709999 -7.1550002 0.736 3
8.2320004 -7.3340001 0.736 3
8.2919998 -7.2610002 0.736 3
8.2930002 -7.079 0.73699999 3
8.3129997 -7.053 0.73699999 3
8.3540001 -6.902 0.73699999 3
8.3070002 -7.073 0.73699999 3
8.2819996 -7.0180001 0.73699999 3
8.2880001 -7.3010001 0.736 3
8.2849998 -6.9959998 0.73699999 3
8.2620001 -7.3429999 0.736 3
8.2709999 -6.9759998 0.73699999 3
8.2670002 -7.2480001 0.736 3
8.2559996 -7.3559999 0.736 3
8.2460003 -7.4089999 0.73500001 3
8.1409998 -7.1389999 0.736 3
8.2370005 -7.0370002 0.73699999 3
8.2589998 -7.2750001 0.736 3
8.3319998 -6.9920001 0.73699999 3
8.1750002 -7.3169999 0.73500001 3
8.2609997 -7.1550002 0.736 3
8.2220001 -7.4190001 0.73500001 3
8.2150002 -7.1539998 0.736 3
8.2080002 -7.2649999 0.736 3
8.3039999 -6.9439998 0.73699999 3
8.2159996 -7.408 0.73500001 3
8.0939999 -7.1329999 0.736 3
8.2849998 -7.1529999 0.736 3
8.2530003 -7.3280001 0.736 3
8.1859999 -7.2789998 0.736 3
8.2390003 -7.0310001 0.73699999 3
8.25 -6.9949999 0.73699999 3
8.3459997 -6.928 0.73699999 3
8.3249998 -7.0419998 0.73699999 3
8.2329998 -7.316 0.736 3
8.0509996 -7.171 0.73500001 3
8.2910004 -7.1300001 0.736 3
8.2469997 -7.4559999 0.73500001 3
8.1540003 -7.1329999 0.736 3
8.3299999 -7.066 0.73699999 3
8.0039997 -7.1230001 0.73500001 3
8.1190004 -7.1329999 0.736 3
8.1780005 -7.177 0.736 3
8.2200003 -7.1430001 0.736 3
8.3339996 -6.967 0.73699999 3
8.3430004 -6.9689999 0.73699999 3
8.184 -7.1199999 0.736 3
8.1409998 -7.283 0.73500001 3
8.276 -7.1919999 0.736 3
8.1239996 -7.1929998 0.736 3
8.0450001 -7.105 0.736 3
8.2659998 -7.1079998 0.736 3
8.3009996 -7.112 0.73699999 3
8.1440001 -7.1570001 0.736 3
8.2959995 -6.9400001 0.73699999 3
8.2410002 -7.3829999 0.736 3
8.2480001 -7.1789999 0.736 3
8.0570002 -7.1399999 0.73500001 3
8.2720003 -7.0799999 0.73699999 3
8.3450003 -6.9250002 0.73699999 3
8.1210003 -7.1849999 0.736 3
8.3290005 -6.9679999 0.73699999 3
8.1859999 -7.1269999 0.736 3
8.1490002 -7.217 0.736 3
8.2379999 -7.0440001 0.736 3
8.2060003 -7.25 0.736 3
8.2019997 -7.3080001 0.736 3
8.2869997 -7.1820002 0.736 3
8.1040001 -7.2589998 0.73500001 3
8.2729998 -7.1100001 0.736 3
8.2880001 -6.9330001 0.73699999 3
8.2390003 -6.9860001 0.73699999 3
8.0500002 -7.0900002 0.736 3
8.1490002 -7.098 0.736 3
8.132 -7.2579999 0.73500001 3
8.1309996 -7.27 0.73500001 3
8.2849998 -7.2140002 0.736 3
8.302 -6.9819999 0.73699999 3
8.21 -6.9910002 0.73699999 3
8.0620003 -7.1430001 0.736 3
8.2320004 -7.414 0.73500001 3
8.2480001 -7.1420002 0.736 3
8.2969999 -7.013 0.73699999 3
8.1689997 -7.2940001 0.736 3
8.1379995 -7.1529999 0.736 3
8.1450005 -7.191 0.736 3
8.0690002 -7.0999999 0.736 3
8.3210001 -6.9959998 0.73699999 3
8.1470003 -7.0840001 0.736 3
8.2779999 -6.9959998 0.73699999 3
8.2200003 -7.0370002 0.736 3
8.2480001 -6.9660001 0.73699999 3
8.2250004 -7.3839998 0.73500001 3
8.2080002 -7.3299999 0.736 3
8.1540003 -7.0700002 0.736 3
8.2930002 -7.0300002 0.73699999 3
8.0830002 -7.1820002 0.73500001 3
8.1829996 -7.2280002 0.736 3
8.2889996 -7.085 0.73699999 3
8.0760002 -7.0939999 0.736 3
8.1700001 -7.2950001 0.736 3
8.1709995 -7.3140001 0.73500001 3
8.2690001 -7.0560002 0.73699999 3
8.3039999 -7.119 0.73699999 3
8.316 -7.0970001 0.73699999 3
8.2600002 -7.316 0.736 3
8.3109999 -6.9879999 0.73699999 3
8.1300001 -7.263 0.73500001 3
8.2720003 -7.3520002 0.736 3
8.1569996 -7.2919998 0.73500001 3
8.2589998 -7.2470002 0.736 3
8.0299997 -7.1560001 0.73500001 3
8.2469997 -7.04 0.73699999 3
8.1630001 -7.2930002 0.73500001 3
8.0629997 -7.1020002 0.736 3
8.2010002 -7.007 0.736 3
8.3109999 -7.072 0.73699999 3
8.2259998 -7.2800002 0.736 3
8.2049999 -7 0.736 3
8.1969995 -7.3210001 0.736 3
8.1850004 -7.171 0.736 3
8.2819996 -7.0139999 0.73699999 3
8.3360004 -6.9829998 0.73699999 3
8.3039999 -7.1890001 0.736 3
8.1120005 -7.2199998 0.73500001 3
8.2670002 -6.994 0.73699999 3
8.052 -7.171 0.73500001 3
8.2069998 -7.073 0.736 3
8.2209997 -7.296 0.736 3
8.2460003 -7.2979999 0.736 3
8.0389996 -7.1129999 0.73500001 3
8.1739998 -7.0970001 0.736 3
8.0609999 -7.1820002 0.73500001 3
8.2910004 -7.0949998 0.73699999 3
8.2370005 -7.3829999 0.736 3
8.1879997 -7.039 0.736 3
8.2559996 -7.2309999 0.736 3
8.2370005 -7.171 0.736 3
8.3190002 -7.1240001 0.73699999 3
8.2370005 -7.2950001 0.736 3
8.2840004 -6.9559999 0.73699999 3
8.3120003 -6.928 0.73699999 3
8.2419996 -7 0.73699999 3
8.1859999 -7.322 0.73500001 3
8.3050003 -7.1009998 0.73699999 3
8.1260004 -7.256 0.73500001 3
8.1700001 -7.2059999 0.736 3
8.1210003 -7.1609998 0.736 3
8.1879997 -7.3109999 0.736 3
8.1569996 -7.2160001 0.736 3
8.2770004 -7.3509998 0.736 3
8.224 -7.0469999 0.736 3
8.1289997 -7.2399998 0.73500001 3
8.2559996 -7.427 0.73500001 3
8.2270002 -7.2470002 0.736 3
8.1619997 -7.2280002 0.736 3
8.1339998 -7.2270002 0.736 3
8.2959995 -6.98 0.73699999 3
8.1639996 -7.3080001 0.73500001 3
8.1300001 -7.2589998 0.73500001 3
8.2959995 -6.9510002 0.73699999 3
8.1110001 -7.0890002 0.736 3
8.2119999 -7.1269999 0.736 3
8.2150002 -7.1259999 0.736 3
8.2209997 -6.9949999 0.73699999 3
8.1230001 -7.079 0.736 3
8.2709999 -7.3899999 0.736 3
8.1040001 -7.1090002 0.736 3
8.2159996 -7.27 0.736 3
8.2010002 -7.2540002 0.736 3
8.2180004 -7.178 0.736 3
8.1730003 -7.2550001 0.736 3
8.243 -7.4520001 0.73500001 3
8.0819998 -7.1420002 0.736 3
8.2119999 -7.1020002 0.736 3
8.25 -7.256 0.736 3
8.2919998 -7.1409998 0.736 3
8.342 -6.9000001 0.73699999 3
8.2010002 -7.3169999 0.736 3
8.2390003 -7.2670002 0.736 3
8.2620001 -7.25 0.736 3
8.3009996 -6.9629998 0.73699999 3
8.1199999 -7.217 0.736 3
8.2270002 -7.421 0.73500001 3
8.29 -7.0279999 0.73699999 3
8.3470001 -6.9380002 0.73699999 3
8.2880001 -7.171 0.736 3
8.2360001 -7.1550002 0.736 3
8.1739998 -7.1100001 0.736 3
8.1230001 -7.2030001 0.736 3
8.1700001 -7.1009998 0.736 3
8.2080002 -7.0050001 0.736 3
8.2370005 -7.0869999 0.736 3
8.1689997 -7.303 0.73500001 3
8.3240004 -6.9260001 0.73699999 3
8.3529997 -6.8959999 0.73699999 3
8.1339998 -7.1849999 0.736 3
8.2189999 -7.1669998 0.736 3
8.1260004 -7.1440001 0.736 3
8.1540003 -7.2719998 0.736 3
8.2150002 -7.3720002 0.73500001 3
8.0939999 -7.2049999 0.73500001 3
8.0970001 -7.243 0.73500001 3
8.349 -6.9489999 0.73699999 3
8.2600002 -6.974 0.73699999 3
8.2749996 -7.3200002 0.736 3
8.1780005 -7.1550002 0.736 3
8.217 -7.0700002 0.736 3
8.2399998 -7.046 0.736 3
8.2910004 -7.1620002 0.736 3
8.1120005 -7.1360002 0.736 3
8.2659998 -7.3699999 0.736 3
8.1820002 -7.2659998 0.736 3
8.2180004 -7.1529999 0.736 3
8.2849998 -7.0669999 0.73699999 3
8.3140001 -7.0890002 0.73699999 3
8.2019997 -7.0700002 0.736 3
8.1610003 -7.2220001 0.736 3
8.2349997 -7.1680002 0.736 3
8.2110004 -7.263 0.736 3
8.2639999 -7.1570001 0.736 3
8.1569996 -7.2880001 0.73500001 3
8.2819996 -6.9619999 0.73699999 3
8.1149998 -7.1430001 0.736 3
8.0819998 -7.072 0.736 3
8.1700001 -7.164 0.736 3
8.0900002 -7.0619998 0.736 3
8.0389996 -7.1030002 0.736 3
8.2799997 -7.2909999 0.736 3
8.1990004 -7.0300002 0.736 3
8.1230001 -7.052 0.736 3
8.0220003 -7.1420002 0.73500001 3
8.2880001 -7.2909999 0.736 3
8.118 -7.0549998 0.736 3
8.1330004 -7.0840001 0.736 3
8.316 -6.9920001 0.73699999 3
8.3299999 -7.0040002 0.73699999 3
8.2270002 -7.1469998 0.736 3
8.2639999 -7.1659999 0.736 3
8.1809998 -7.2509999 0.736 3
8.026 -7.1170001 0.73500001 3
8.2010002 -7.3249998 0.736 3
8.2480001 -6.987 0.73699999 3
8.2799997 -7.0570002 0.73699999 3
8.2040005 -7.2849998 0.736 3
8.0410004 -7.177 0.73500001 3
8.3149996 -6.9310002 0.73699999 3
8.2939997 -7.27 0.736 3
8.2200003 -7.336 0.736 3
8.2449999 -7.1040001 0.736 3
8.1590004 -7.3379998 0.73500001 3
8.1639996 -7.3429999 0.73500001 3
8.1199999 -7.118 0.736 3
8.2419996 -7.3499999 0.736 3
8.1719999 -7.0819998 0.736 3
8.2510004 -7.4039998 0.736 3
8.0900002 -7.204 0.73500001 3
8.0939999 -7.1929998 0.73500001 3
8.0170002 -7.1220002 0.73500001 3
8.2959995 -7.0799999 0.73699999 3
8.198 -7.2750001 0.736 3
8.1879997 -7.3140001 0.736 3
8.1709995 -7.217 0.736 3
8.092 -7.1329999 0.736 3
8.2989998 -7.1139998 0.73699999 3
8.2340002 -7.2259998 0.736 3
8.2060003 -7.2659998 0.736 3
8.3100004 -7.0599999 0.73699999 3
8.1709995 -7.0669999 0.736 3
8.2460003 -6.9629998 0.73699999 3
8.276 -7.2259998 0.736 3
8.2939997 -7.1859999 0.736 3
8.2139997 -7.1290002 0.736 3
8.0609999 -7.1199999 0.736 3
8.1920004 -7.1360002 0.736 3
8.1899996 -7.0209999 0.736 3
8.2410002 -7.2399998 0.736 3
8.1730003 -7.1090002 0.736 3
8.1020002 -7.2329998 0.73500001 3
8.1780005 -7.007 0.736 3
8.2790003 -7.2870002 0.736 3
8.1610003 -7.0910001 0.736 3
8.0970001 -7.2119999 0.73500001 3
8.2010002 -7.3649998 0.73500001 3
8.2740002 -7.197 0.736 3
8.0050001 -7.118 0.73500001 3
8.2320004 -7.0619998 0.736 3
8.2119999 -7.2490001 0.736 3
8.2220001 -7.165 0.736 3
8.217 -7.0139999 0.736 3
8.1800003 -7.2059999 0.736 3
8.2290001 -7.4190001 0.73500001 3
8.1049995 -7.1659999 0.736 3
8.073 -7.1430001 0.736 3
8.2480001 -7.0479999 0.73699999 3
8.2539997 -7.2290001 0.736 3
8.2550001 -7.3569999 0.736 3
8.2040005 -7.013 0.736 3
8.3360004 -7.027 0.73699999 3
8.2840004 -6.98 0.73699999 3
8.1719999 -7.2659998 0.736 3
8.25 -7.0840001 0.736 3
8.0839996 -7.1539998 0.736 3
8.2679996 -7.0749998 0.73699999 3
8.1929998 -7.1090002 0.736 3
8.2910004 -7.2189999 0.736 3
8.1289997 -7.1240001 0.736 3
8.1169996 -7.1139998 0.736 3
8.3079996 -7.1560001 0.736 3
8.2919998 -7.0440001 0.73699999 3
8.2309999 -7.0939999 0.736 3
8.1160002 -7.0830002 0.736 3
8.1099997 -7.085 0.736 3
8.1960001 -7.3759999 0.73500001 3
8.2209997 -7.0570002 0.736 3
8.3059998 -6.9949999 0.73699999 3
8.3050003 -7.1950002 0.736 3
8.1269999 -7.1690001 0.736 3
8.2770004 -7.336 0.736 3
8.283 -7.2290001 0.736 3
8.1920004 -7.0359998 0.736 3
8.2740002 -7.3179998 0.736 3
8.2530003 -7.3629999 0.736 3
8.1759996 -7.0040002 0.736 3
8.2440004 -7.3189998 0.736 3
8.2460003 -7.105 0.736 3
8.2539997 -7.2909999 0.736 3
8.1929998 -7.0489998 0.736 3
8.2399998 -7.4299998 0.73500001 3
8.1689997 -7.2020001 0.736 3
8.1700001 -7.2140002 0.736 3
8.1000004 -7.1009998 0.736 3
8.2720003 -7.369 0.736 3
8.3140001 -6.9689999 0.73699999 3
8.2589998 -7.1370001 0.736 3
8.1540003 -7.3060002 0.73500001 3
8.0699997 -7.0770001 0.736 3
8.1140003 -7.1360002 0.736 3
8.2340002 -7.3779998 0.736 3
8.2480001 -7.4070001 0.73500001 3
8.2530003 -7.2459998 0.736 3
8.2679996 -7.0139999 0.73699999 3
8.2440004 -7.2820001 0.736 3
8.0970001 -7.125 0.736 3
8.2209997 -7.164 0.736 3
8.1599998 -7.277 0.736 3
8.257 -7.2820001 0.736 3
8.1239996 -7.1999998 0.736 3
8.2709999 -7.342 0.736 3
8.1040001 -7.1789999 0.736 3
8.3170004 -6.9970002 0.73699999 3
8.1859999 -7.3390002 0.73500001 3
8.2410002 -7.3099999 0.736 3
8.2040005 -7.283 0.736 3
8.3030005 -6.9829998 0.73699999 3
8.2980003 -7.1139998 0.73699999 3
8.2290001 -7.0320001 0.736 3
8.1379995 -7.119 0.736 3
8.3310003 -6.9559999 0.73699999 3
8.2530003 -7.0450001 0.73699999 3
8.2399998 -7.02 0.73699999 3
8.2589998 -7.342 0.736 3
8.1379995 -7.1469998 0.736 3
8.1059999 -7.204 0.736 3
8.2379999 -6.9749999 0.73699999 3
8.1359997 -7.066 0.736 3
8.2209997 -7.2810001 0.736 3
8.1940002 -7.0219998 0.736 3
8.2349997 -7.3169999 0.736 3
8.1610003 -7.2119999 0.736 3
8.1540003 -7.3239999 0.73500001 3
8.0799999 -7.1750002 0.73500001 3
8.198 -7.0609999 0.736 3
8.2089996 -7.1929998 0.736 3
8.1389999 -7.2509999 0.73500001 3
8.2040005 -7.2639999 0.736 3
8.3339996 -7.027 0.73699999 3
8.2700005 -7.342 0.736 3
8.2849998 -6.9499998 0.73699999 3
8.2360001 -7.0840001 0.736 3
8.0200005 -7.132 0.73500001 3
8.1359997 -7.1849999 0.736 3
8.1789999 -7.1160002 0.736 3
8.2309999 -7.3649998 0.736 3
8.1309996 -7.2410002 0.73500001 3
8.0019999 -7.1149998 0.73500001 3
8.1389999 -7.256 0.73500001 3
8.2749996 -7.066 0.73699999 3
8.2519999 -7.4349999 0.73500001 3
8.1829996 -7.086 0.736 3
8.2049999 -7.0929999 0.736 3
8.2040005 -7.1659999 0.736 3
8.217 -7.0479999 0.736 3
8.2150002 -7.224 0.736 3
8.3050003 -7.0739999 0.73699999 3
8.2290001 -7.0609999 0.736 3
8.2089996 -7.0869999 0.736 3
8.2670002 -7.0510001 0.73699999 3
8.2519999 -7.3319998 0.736 3
8.2340002 -7.2719998 0.736 3
8.1280003 -7.0879998 0.736 3
8.2489996 -7.3629999 0.736 3
8.2840004 -7.1700001 0.736 3
8.3280001 -6.9910002 0.73699999 3
8.2539997 -7.3330002 0.736 3
8.2379999 -7.0079999 0.73699999 3
8.1129999 -7.053 0.736 3
8.2840004 -7.0320001 0.73699999 3
8.3179998 -7.085 0.73699999 3
8.1709995 -7.2459998 0.736 3
8.3310003 -7.0500002 0.73699999 3
8.2510004 -7.1069999 0.736 3
8.1210003 -7.25 0.73500001 3
8.2040005 -7.2719998 0.736 3
8.2489996 -7.1560001 0.736 3
8.1689997 -7.2090001 0.736 3
8.2959995 -7.237 0.736 3
8.1859999 -7.1199999 0.736 3
8.2690001 -7.039 0.73699999 3
8.1110001 -7.1360002 0.736 3
8.2539997 -7.0770001 0.736 3
8.2799997 -7.1139998 0.736 3
8.1289997 -7.0999999 0.736 3
8.2530003 -7.0450001 0.73699999 3
8.2290001 -7.1149998 0.736 3
8.177 -7.1919999 0.736 3
8.2449999 -7.382 0.736 3
8.1359997 -7.1350002 0.736 3
8.2670002 -7.2519999 0.736 3
8.2550001 -7.3470001 0.736 3
8.0690002 -7.145 0.736 3
8.0839996 -7.1030002 0.736 3
8.184 -7.2870002 0.736 3
8.3210001 -7.1259999 0.73699999 3
8.1149998 -7.276 0.73500001 3
8.198 -7.223 0.736 3
8.2749996 -7.2800002 0.736 3
8.1660004 -7.2810001 0.736 3
8.1789999 -7.2119999 0.736 3
8.1529999 -7.1440001 0.736 3
8.2700005 -7.3070002 0.736 3
8.1309996 -7.105 0.736 3
8.2130003 -7.0320001 0.736 3
8.1409998 -7.152 0.736 3
8.25 -7.3210001 0.736 3
8.2370005 -7.2540002 0.736 3
8.3149996 -7.1599998 0.736 3
8.1239996 -7.0419998 0.736 3
8.3079996 -7.177 0.736 3
8.29 -7.0380001 0.73699999 3
8.0190001 -7.1370001 0.73500001 3
8.1190004 -7.165 0.736 3
8.3310003 -6.9850001 0.73699999 3
8.1700001 -7.2399998 0.736 3
8.2189999 -7.3979998 0.73500001 3
8.1820002 -7.0580001 0.736 3
8.2360001 -7.1139998 0.736 3
8.1540003 -7.1469998 0.736 3
8.1920004 -7.2020001 0.736 3
8.1070004 -7.0560002 0.736 3
8.283 -7.2600002 0.736 3
8.1099997 -7.0609999 0.736 3
8.224 -7.0359998 0.736 3
8.2399998 -7.244 0.736 3
8.1630001 -7.0209999 0.736 3
8.2410002 -7.388 0.736 3
8.2299995 -7.1810002 0.736 3
8.2220001 -7.191 0.736 3
8.2329998 -7.0479999 0.736 3
8.1129999 -7.2030001 0.736 3
8.1660004 -7.2290001 0.736 3
8.3339996 -7.0609999 0.73699999 3
8.1479998 -7.1919999 0.736 3
8.2010002 -7.3280001 0.736 3
8.1099997 -7.1900001 0.736 3
8.2379999 -7.2270002 0.736 3
8.1409998 -7.2750001 0.73500001 3
8.1890001 -7.046 0.736 3
8.3179998 -6.9250002 0.73699999 3
8.1079998 -7.2480001 0.73500001 3
8.2530003 -7.2049999 0.736 3
8.1739998 -7.323 0.73500001 3
8.1040001 -7.2249999 0.73500001 3
8.3290005 -6.921 0.73699999 3
8.1429996 -7.2459998 0.736 3
8.1149998 -7.1139998 0.736 3
8.3129997 -7.0409999 0.73699999 3
8.2290001 -7.0079999 0.73699999 3
8.1379995 -7.0630002 0.736 3
8.2480001 -7.256 0.736 3
8.1300001 -7.0689998 0.736 3
8.2650003 -7.1760001 0.736 3
8.2950001 -7.0970001 0.73699999 3
8.3070002 -7.2020001 0.736 3
8.3059998 -6.9320002 0.73699999 3
8.2910004 -7.0430002 0.73699999 3
8.1420002 -7.1669998 0.736 3
8.2290001 -7.0679998 0.736 3
8.1879997 -7.0999999 0.736 3
8.1739998 -7.0180001 0.736 3
8.3380003 -6.993 0.73699999 3
8.1890001 -7.2189999 0.736 3
8.1339998 -7.1220002 0.736 3
8.1669998 -7.0100002 0.736 3
8.3070002 -7.1100001 0.73699999 3
8.0740004 -7.2090001 0.73500001 3
8.1610003 -7.1919999 0.736 3
8.2550001 -7.2210002 0.736 3
8.3109999 -7.1409998 0.73699999 3
8.0600004 -7.119 0.736 3
8.3199997 -6.9780002 0.73699999 3
8.2530003 -7.1830001 0.736 3
8.2539997 -7.2189999 0.736 3
8.2069998 -7.3709998 0.73500001 3
8.0780001 -7.2090001 0.73500001 3
8.0389996 -7.1750002 0.73500001 3
8.3120003 -7.0219998 0.73699999 3
8.2629995 -7.3010001 0.736 3
8.3219995 -7.1079998 0.73699999 3
8.2480001 -7.414 0.73500001 3
8.0450001 -7.1500001 0.73500001 3
8.2969999 -7.0229998 0.73699999 3
8.1029997 -7.0500002 0.736 3
8.3030005 -7.1750002 0.736 3
8.2329998 -7.2639999 0.736 3
8.1370001 -7.1069999 0.736 3
8.2849998 -7.2859998 0.736 3
8.2530003 -7.1339998 0.736 3
8.1520004 -7.2709999 0.73500001 3
8.316 -6.9250002 0.73699999 3
8.1689997 -7.29 0.736 3
8.3330002 -6.934 0.73699999 3
8.2869997 -7.3070002 0.736 3
8.1990004 -7.1960001 0.736 3
8.1780005 -7.3239999 0.73500001 3
8.0229998 -7.119 0.73500001 3
8.0830002 -7.086 0.736 3
8.2609997 -7.401 0.736 3
8.1499996 -7.2659998 0.736 3
8.2469997 -7.4219999 0.73500001 3
8.1379995 -7.2789998 0.73500001 3
8.1079998 -7.1350002 0.736 3
8.2530003 -7.4099998 0.736 3
8.1120005 -7.1690001 0.736 3
8.1400003 -7.2470002 0.736 3
8.2620001 -7.1560001 0.736 3
8.257 -7.335 0.736 3
8.1289997 -7.0650001 0.736 3
8.1520004 -7.2210002 0.736 3
8.2449999 -7.3109999 0.736 3
8.1409998 -7.0580001 0.736 3
8.1239996 -7.152 0.736 3
8.224 -7.2810001 0.736 3
8.1009998 -7.191 0.736 3
8.2410002 -7.164 0.736 3
8.1870003 -7.066 0.736 3
8.1029997 -7.164 0.736 3
8.2259998 -7.2389998 0.736 3
8.0959997 -7.1360002 0.736 3
8.1890001 -7.027 0.736 3
8.29 -7.1360002 0.736 3
8.2489996 -7.382 0.736 3
8.2679996 -7.2160001 0.736 3
8.3030005 -7.1409998 0.736 3
8.1969995 -7.2399998 0.736 3
8.1829996 -7.1950002 0.736 3
8.2259998 -7.099 0.736 3
8.184 -7.1269999 0.736 3
8.3000002 -7.1570001 0.736 3
8.217 -7.1389999 0.736 3
8.0819998 -7.0770001 0.736 3
8.2329998 -7.171 0.736 3
8.1730003 -7.0180001 0.736 3
8.3299999 -7.0089998 0.73699999 3
8.0950003 -7.0890002 0.736 3
8.2740002 -7.039 0.73699999 3
8.0909996 -7.145 0.736 3
8.0950003 -7.0749998 0.736 3
8.0469999 -7.1009998 0.736 3
8.2449999 -7.362 0.736 3
8.3059998 -7.0450001 0.73699999 3
8.2419996 -7.0139999 0.73699999 3
8.2320004 -7.1869998 0.736 3
8.1999998 -7.2049999 0.736 3
8.1409998 -7.1209998 0.736 3
8.1199999 -7.053 0.736 3
8.1949997 -7.2680001 0.736 3
8.25 -7.3979998 0.736 3
8.3050003 -6.9369998 0.73699999 3
8.2840004 -7.2639999 0.736 3
8.25 -6.9990001 0.73699999 3
8.2740002 -7.2540002 0.736 3
8.2729998 -7.3540001 0.736 3
8.2250004 -7.1230001 0.736 3
8.2370005 -7.1880002 0.736 3
8.1809998 -7.1440001 0.736 3
8.2639999 -7.0040002 0.73699999 3
8.2869997 -7.4790001 0.72500002 3
8.2889996 -7.5 0.713 3
8.3129997 -7.4949999 0.71200001 3
8.323 -7.4920001 0.71200001 3
8.2709999 -7.4809999 0.727 3
8.3059998 -7.4949999 0.713 3
8.2749996 -7.4910002 0.72100002 3
8.2779999 -7.4840002 0.72399998 3
8.2650003 -7.5079999 0.71399999 3
8.2860003 -7.507 0.70999998 3
8.3210001 -7.4949999 0.70999998 3
8.3140001 -7.4860001 0.71700001 3
8.2629995 -7.4910002 0.72299999 3
8.2799997 -7.4879999 0.722 3
8.3140001 -7.4879999 0.71600002 3
8.2639999 -7.5050001 0.71499997 3
8.2670002 -7.4970002 0.71899998 3
8.2720003 -7.4920001 0.72100002 3
8.2659998 -7.4819999 0.727 3
8.2580004 -7.4759998 0.73199999 3
8.2810001 -7.4780002 0.727 3
8.2959995 -7.4889998 0.71899998 3
8.3039999 -7.493 0.71499997 3
8.3800001 -6.5840001 0.73799998 3
8.4549999 -6.638 0.73799998 3
8.4219999 -6.6079998 0.73799998 3
8.3380003 -6.7919998 0.73699999 3
8.5629997 -6.4029999 0.73900002 3
8.4420004 -6.5939999 0.73799998 3
8.3380003 -6.5760002 0.73799998 3
8.3970003 -6.809 0.73799998 3
8.3269997 -6.5440001 0.73799998 3
8.3879995 -6.52 0.73799998 3
8.4040003 -6.6209998 0.73799998 3
8.4860001 -6.5050001 0.73799998 3
8.3959999 -6.664 0.73799998 3
8.3380003 -6.697 0.73799998 3
8.493 -6.5419998 0.73799998 3
8.3000002 -6.6830001 0.73699999 3
8.4049997 -6.5479999 0.73799998 3
8.29 -6.6849999 0.73699999 3
8.29 -6.5580001 0.73799998 3
8.3120003 -6.5840001 0.73799998 3
8.4510002 -6.6300001 0.73799998 3
8.3439999 -6.7480001 0.73799998 3
8.2469997 -6.5560002 0.73699999 3
8.5039997 -6.48 0.73799998 3
8.5010004 -6.5079999 0.73799998 3
8.408 -6.7290001 0.73799998 3
8.2810001 -6.579 0.73699999 3
8.3299999 -6.631 0.73799998 3
8.4300003 -6.6810002 0.73799998 3
8.441 -6.5949998 0.73799998 3
8.3540001 -6.7140002 0.73799998 3
8.2819996 -6.612 0.73699999 3
8.3690004 -6.6950002 0.73799998 3
8.4540005 -6.572 0.73799998 3
8.4890003 -6.5609999 0.73799998 3
8.4230003 -6.6329999 0.73799998 3
8.4020004 -6.5289998 0.73799998 3
8.3590002 -6.763 0.73799998 3
8.4919996 -6.4720001 0.73799998 3
8.5270004 -6.4369998 0.73900002 3
8.507 -6.461 0.73900002 3
8.4560003 -6.6279998 0.73799998 3
8.4420004 -6.5910001 0.73799998 3
8.3170004 -6.7270002 0.73699999 3
8.5150003 -6.4359999 0.73900002 3
8.441 -6.572 0.73799998 3
8.3870001 -6.5240002 0.73799998 3
8.4820004 -6.5650001 0.73799998 3
8.4160004 -6.6069999 0.73799998 3
8.3100004 -6.5679998 0.73799998 3
8.3620005 -6.6090002 0.73799998 3
8.3710003 -6.7389998 0.73799998 3
8.4060001 -6.6479998 0.73799998 3
8.3509998 -6.618 0.73799998 3
8.4029999 -6.7290001 0.73799998 3
8.3030005 -6.678 0.73699999 3
8.2589998 -6.5900002 0.73699999 3
8.5349998 -6.4289999 0.73900002 3
8.3269997 -6.5419998 0.73799998 3
8.382 -6.6100001 0.73799998 3
8.401 -6.4920001 0.73799998 3
8.4519997 -6.6259999 0.73799998 3
8.3529997 -6.5500002 0.73799998 3
8.3590002 -6.6399999 0.73799998 3
8.493 -6.5339999 0.73799998 3
8.2969999 -6.631 0.73699999 3
8.335 -6.7259998 0.73799998 3
8.4139996 -6.5939999 0.73799998 3
8.3529997 -6.724 0.73799998 3
8.4440002 -6.6370001 0.73799998 3
8.3629999 -6.6700001 0.73799998 3
8.4949999 -6.448 0.73799998 3
8.3450003 -6.704 0.73799998 3
8.3439999 -6.6329999 0.73799998 3
8.4709997 -6.6160002 0.73799998 3
8.3809996 -6.513 0.73799998 3
8.4060001 -6.6550002 0.73799998 3
8.3809996 -6.5229998 0.73799998 3
8.3660002 -6.724 0.73799998 3
8.3210001 -6.763 0.73699999 3
8.5080004 -6.5190001 0.73799998 3
8.3719997 -6.5929999 0.73799998 3
8.3690004 -6.6609998 0.73799998 3
8.4680004 -6.5879998 0.73799998 3
8.2659998 -6.6149998 0.73699999 3
8.3249998 -6.677 0.73799998 3
8.3500004 -6.5599999 0.73799998 3
8.3389997 -6.6950002 0.73799998 3
8.4049997 -6.6849999 0.73799998 3
8.2670002 -6.5879998 0.73699999 3
8.3129997 -6.598 0.73799998 3
8.5389996 -6.473 0.73900002 3
8.3149996 -6.6700001 0.73699999 3
8.3310003 -6.5440001 0.73799998 3
8.4069996 -6.5960002 0.73799998 3
8.4849997 -6.5229998 0.73799998 3
8.3249998 -6.7589998 0.73699999 3
8.3959999 -6.6009998 0.73799998 3
8.4069996 -6.6290002 0.73799998 3
