# .PCD v0.7 - Point Cloud Data file format
VERSION 0.7
FIELDS x y z label
SIZE 4 4 4 4
TYPE F F F U
COUNT 1 1 1 1
WIDTH 1562
HEIGHT 1
VIEWPOINT 0 0 0 1 0 0 0
POINTS 1562
DATA ascii
8.0950003 -2.9159999 0.73699999 3
8.2889996 -2.779 0.74000001 3
8.3070002 -2.8139999 0.73900002 3
8.2329998 -2.8410001 0.73900002 3
8.2790003 -2.829 0.73900002 3
8.2810001 -2.8499999 0.73799998 3
8.0640001 -2.951 0.736 3
8.1029997 -2.9719999 0.736 3
8.3369999 -2.763 0.741 3
8.1780005 -2.8859999 0.73799998 3
8.2220001 -2.8559999 0.73799998 3
8.1289997 -2.9719999 0.73500001 3
8.0970001 -2.9230001 0.73699999 3
8.2589998 -2.855 0.73799998 3
8.1540003 -2.849 0.73900002 3
8.1899996 -2.8369999 0.73900002 3
8.3030005 -2.8329999 0.73900002 3
8.1890001 -2.8180001 0.74000001 3
8.0950003 -2.846 0.73900002 3
8.1870003 -2.8759999 0.73799998 3
8.0819998 -2.8800001 0.73799998 3
8.2469997 -2.859 0.73799998 3
8.0600004 -3.0090001 0.73500001 3
8.0179996 -2.9960001 0.73500001 3
8.1999998 -2.869 0.73799998 3
8.217 -2.891 0.73699999 3
8.21 -2.822 0.73900002 3
8.2690001 -2.8469999 0.73799998 3
8.1020002 -2.891 0.73799998 3
8.0979996 -2.961 0.736 3
8.0209999 -2.8829999 0.73799998 3
8.1750002 -2.944 0.736 3
8.2270002 -2.809 0.74000001 3
8.085 -3.013 0.73400003 3
8.2159996 -2.799 0.74000001 3
8.2959995 -2.8039999 0.74000001 3
8.0749998 -2.878 0.73799998 3
8.1669998 -2.9059999 0.73699999 3
8.1619997 -2.8399999 0.73900002 3
8.0799999 -2.9400001 0.73699999 3
8.1409998 -2.9159999 0.73699999 3
8.401 -2.723 0.741 3
8.184 -2.855 0.73900002 3
8.0319996 -2.8959999 0.73799998 3
8.0469999 -3.04 0.73400003 3
8.1160002 -2.9330001 0.73699999 3
8.2089996 -2.921 0.73699999 3
8.3549995 -2.7590001 0.741 3
8.0710001 -2.9059999 0.73799998 3
8.25 -2.7839999 0.74000001 3
8.3170004 -2.803 0.74000001 3
8.0710001 -3.007 0.73500001 3
8.29 -2.7820001 0.74000001 3
8.0200005 -3.0109999 0.73500001 3
8.0950003 -3.0120001 0.73400003 3
8.0979996 -2.8900001 0.73799998 3
8.0740004 -2.8940001 0.73799998 3
8.073 -2.908 0.73699999 3
8.0129995 -2.8940001 0.73799998 3
8.2320004 -2.79 0.74000001 3
8.3330002 -2.813 0.73900002 3
8.2360001 -2.8269999 0.73900002 3
8.0209999 -2.892 0.73799998 3
8.1929998 -2.9170001 0.73699999 3
8.257 -2.8110001 0.74000001 3
8.2399998 -2.8929999 0.73699999 3
8.0249996 -2.927 0.73699999 3
8.059 -3.049 0.73400003 3
8.3129997 -2.826 0.73900002 3
8.4689999 -2.697 0.74199998 3
8.0369997 -2.9089999 0.73799998 3
8.1719999 -2.9389999 0.736 3
8.1780005 -2.8900001 0.73799998 3
8.1040001 -2.8610001 0.73900002 3
8.1739998 -2.8299999 0.73900002 3
8.1630001 -2.865 0.73799998 3
8.1470003 -2.842 0.73900002 3
8.0930004 -2.8900001 0.73799998 3
8.3830004 -2.73 0.741 3
8.0389996 -2.9170001 0.73699999 3
8.2690001 -2.7939999 0.74000001 3
8.2180004 -2.8729999 0.73799998 3
8.2650003 -2.8110001 0.73900002 3
8.2460003 -2.809 0.74000001 3
8.1230001 -2.517 0.73699999 3
8.0959997 -2.572 0.74000001 3
8.151 -2.49 0.73900002 3
8.0979996 -2.556 0.73799998 3
8.1669998 -2.473 0.73900002 3
8.3190002 -2.2969999 0.74199998 3
8.2299995 -2.3900001 0.73900002 3
8.0900002 -2.572 0.73900002 3
8.3030005 -2.3150001 0.74199998 3
8.2139997 -2.4070001 0.73900002 3
8.1350002 -2.4949999 0.73699999 3
8.0719995 -2.6029999 0.74000001 3
8.1359997 -2.4979999 0.73699999 3
8.2329998 -2.401 0.741 3
8.1409998 -2.494 0.73699999 3
8.1190004 -2.526 0.73799998 3
8.1219997 -2.5209999 0.73799998 3
8.1829996 -2.447 0.73900002 3
8.158 -2.464 0.73699999 3
8.1730003 -2.471 0.74000001 3
8.0670004 -2.6099999 0.74000001 3
8.2600002 -2.358 0.74000001 3
8.125 -2.5190001 0.73799998 3
8.2069998 -2.4200001 0.73900002 3
8.243 -2.378 0.74000001 3
8.3249998 -2.293 0.74299997 3
8.1490002 -2.48 0.73699999 3
8.1490002 -2.494 0.73900002 3
8.283 -2.339 0.74199998 3
8.158 -2.484 0.73900002 3
8.1789999 -2.4630001 0.74000001 3
8.1759996 -2.474 0.741 3
8.1190004 -2.5320001 0.73799998 3
8.1350002 -2.49 0.736 3
8.1619997 -2.4749999 0.73799998 3
8.217 -2.4200001 0.741 3
8.3100004 -2.306 0.74199998 3
8.1639996 -2.4619999 0.73699999 3
8.1420002 -2.5079999 0.73900002 3
8.1199999 -2.517 0.73699999 3
8.1669998 -2.48 0.74000001 3
8.1610003 -2.4790001 0.73900002 3
8.1330004 -2.5190001 0.73900002 3
8.2810001 -2.339 0.741 3
8.2469997 -2.3759999 0.74000001 3
8.1450005 -2.4920001 0.73799998 3
8.1289997 -2.5079999 0.73699999 3
8.1190004 -2.5450001 0.74000001 3
8.1400003 -2.5009999 0.73799998 3
8.1370001 -2.5050001 0.73799998 3
8.1420002 -2.497 0.73799998 3
8.1549997 -2.4820001 0.73799998 3
8.1470003 -2.483 0.73699999 3
8.1199999 -2.5280001 0.73799998 3
8.1169996 -2.5339999 0.73799998 3
8.1330004 -2.4979999 0.73699999 3
8.3009996 -3.4260001 0.71100003 3
8.2880001 -3.382 0.73100001 3
8.2860003 -3.375 0.73299998 3
8.2130003 -3.348 0.72399998 3
8.3140001 -3.418 0.71899998 3
8.25 -3.362 0.72899997 3
8.3100004 -3.3970001 0.73000002 3
8.2869997 -3.4000001 0.72000003 3
8.1920004 -3.3269999 0.72899997 3
8.3009996 -3.4330001 0.70700002 3
8.2010002 -3.329 0.73100001 3
8.2250004 -3.345 0.73000002 3
8.1800003 -3.309 0.73500001 3
8.2950001 -3.415 0.71499997 3
8.2749996 -3.3740001 0.73000002 3
8.2259998 -3.3469999 0.72899997 3
8.2729998 -3.3970001 0.71700001 3
8.2919998 -3.381 0.73299998 3
8.2119999 -3.3499999 0.72299999 3
8.2889996 -3.4070001 0.71700001 3
8.2189999 -3.3380001 0.73199999 3
8.2860003 -3.3900001 0.72600001 3
8.1929998 -3.326 0.73000002 3
8.2159996 -3.332 0.73400003 3
8.2709999 -3.392 0.71899998 3
8.2799997 -3.3889999 0.72399998 3
8.165 -3.302 0.73400003 3
8.2550001 -3.3759999 0.72299999 3
8.2650003 -3.385 0.72100002 3
8.2089996 -3.3410001 0.727 3
8.2919998 -3.4130001 0.71399999 3
8.2919998 -3.4159999 0.713 3
8.3170004 -3.4000001 0.73100001 3
8.2729998 -3.382 0.72600001 3
8.3120003 -3.3900001 0.73500001 3
8.3100004 -3.4289999 0.71200001 3
8.309 -3.3889999 0.73400003 3
8.2340002 -3.3559999 0.727 3
8.2379999 -3.3610001 0.72500002 3
8.243 -3.3499999 0.73299998 3
8.3120003 -3.4059999 0.72600001 3
8.3070002 -3.4219999 0.71499997 3
8.1619997 -3.2969999 0.73500001 3
8.2939997 -3.381 0.73299998 3
8.2539997 -3.3610001 0.73000002 3
8.3109999 -3.425 0.71499997 3
8.302 -3.405 0.72299999 3
8.2869997 -3.3870001 0.727 3
8.3380003 -3.4230001 0.72500002 3
8.2709999 -3.3729999 0.73000002 3
8.25 -3.378 0.72000003 3
8.198 -3.336 0.72600001 3
8.2209997 -3.349 0.72600001 3
8.2279997 -3.346 0.73000002 3
8.3050003 -3.4089999 0.722 3
8.3149996 -3.4070001 0.72600001 3
8.2729998 -3.3670001 0.73400003 3
8.2939997 -3.415 0.71399999 3
8.2040005 -3.325 0.73400003 3
8.1719999 -3.302 0.736 3
8.3179998 -3.404 0.72899997 3
8.2659998 -3.369 0.73000002 3
8.3269997 -3.4100001 0.72799999 3
8.2270002 -3.3540001 0.72600001 3
8.302 -3.4059999 0.722 3
8.276 -3.3710001 0.73299998 3
8.3190002 -3.427 0.71600002 3
8.3409996 -3.421 0.72799999 3
8.2840004 -3.3789999 0.73100001 3
8.1719999 -3.3039999 0.73500001 3
8.184 -3.316 0.73199999 3
8.217 -3.3529999 0.72299999 3
8.2530003 -3.3889999 0.71499997 3
8.2819996 -3.395 0.72100002 3
8.198 -3.3329999 0.727 3
8.198 -3.2869999 0.73699999 3
8.198 -3.2880001 0.73699999 3
8.2449999 -3.345 0.736 3
8.3109999 -3.3789999 0.73500001 3
8.2189999 -3.322 0.736 3
8.2410002 -3.302 0.73699999 3
8.2279997 -3.299 0.73699999 3
8.2469997 -3.296 0.73799998 3
8.1630001 -3.2869999 0.73699999 3
8.191 -3.2820001 0.73699999 3
8.2449999 -3.3069999 0.73699999 3
8.2690001 -3.3340001 0.73699999 3
8.2340002 -3.2909999 0.73799998 3
8.316 -3.3840001 0.73500001 3
8.1999998 -3.2820001 0.73799998 3
8.1540003 -3.2809999 0.73699999 3
8.2530003 -3.3069999 0.73699999 3
8.2740002 -3.348 0.736 3
8.191 -3.2980001 0.73699999 3
8.2969999 -3.339 0.73699999 3
8.2670002 -3.352 0.736 3
8.21 -3.316 0.736 3
8.3000002 -3.355 0.736 3
8.25 -3.3199999 0.73699999 3
8.1759996 -3.2839999 0.73699999 3
8.3179998 -3.3889999 0.73500001 3
8.2329998 -3.2920001 0.73799998 3
8.2399998 -3.3399999 0.736 3
8.3070002 -3.359 0.736 3
8.2939997 -3.3399999 0.73699999 3
8.2720003 -3.306 0.73799998 3
8.2220001 -3.3050001 0.73699999 3
8.3059998 -3.3670001 0.736 3
8.2729998 -3.3529999 0.736 3
8.3269997 -3.3840001 0.73500001 3
8.243 -3.323 0.73699999 3
8.2950001 -3.3469999 0.736 3
8.3140001 -3.3759999 0.73500001 3
8.2659998 -3.3080001 0.73799998 3
8.2320004 -3.3139999 0.73699999 3
8.2360001 -3.3 0.73699999 3
8.2720003 -3.3440001 0.736 3
8.2869997 -3.3469999 0.736 3
8.3009996 -3.346 0.73699999 3
8.2799997 -3.329 0.73699999 3
8.1569996 -3.2809999 0.73699999 3
8.2969999 -3.3740001 0.73500001 3
8.283 -3.359 0.736 3
8.2799997 -3.3369999 0.73699999 3
8.2849998 -3.3529999 0.736 3
8.2779999 -3.3629999 0.73500001 3
8.2659998 -3.3399999 0.736 3
8.2650003 -3.2950001 0.73799998 3
8.2519999 -3.302 0.73799998 3
8.2159996 -3.2980001 0.73699999 3
8.2130003 -3.289 0.73799998 3
8.1599998 -3.2909999 0.73699999 3
8.2390003 -3.2980001 0.73799998 3
8.2869997 -3.3369999 0.73699999 3
8.2360001 -3.2939999 0.73799998 3
8.2550001 -3.2850001 0.73799998 3
8.3009996 -3.3540001 0.736 3
8.2980003 -3.3399999 0.73699999 3
8.2390003 -3.306 0.73699999 3
8.1610003 -3.2920001 0.736 3
8.3000002 -3.349 0.736 3
8.1709995 -3.2869999 0.73699999 3
8.2469997 -3.286 0.73799998 3
8.2659998 -3.3139999 0.73699999 3
8.2880001 -3.3529999 0.736 3
8.2049999 -3.3199999 0.736 3
8.309 -3.378 0.73500001 3
8.1820002 -3.296 0.73699999 3
8.3129997 -3.3640001 0.736 3
8.1940002 -3.3050001 0.736 3
8.2930002 -3.3670001 0.736 3
8.2620001 -3.289 0.73799998 3
8.2589998 -3.3429999 0.736 3
8.1899996 -3.3050001 0.736 3
8.2010002 -3.286 0.73699999 3
8.2189999 -3.3139999 0.73699999 3
8.0570002 -3.092 0.73400003 3
8.2559996 -2.9100001 0.73799998 3
8.2489996 -2.8970001 0.73699999 3
8.1389999 -3.0079999 0.73500001 3
8.3070002 -2.875 0.73900002 3
8.2329998 -2.9360001 0.73799998 3
8.0760002 -3.062 0.73400003 3
8.1669998 -3.062 0.73799998 3
8.276 -2.9300001 0.73900002 3
8.3660002 -2.8280001 0.741 3
8.0600004 -3.1140001 0.73500001 3
8.1269999 -3.0009999 0.73500001 3
8.1110001 -3.119 0.73699999 3
8.2700005 -2.905 0.73799998 3
8.2580004 -2.915 0.73799998 3
8.1870003 -2.9790001 0.73699999 3
8.1739998 -3.04 0.73699999 3
8.1110001 -3.1159999 0.73699999 3
8.1700001 -2.9879999 0.736 3
8.1960001 -2.9790001 0.73699999 3
8.1590004 -3.007 0.736 3
8.1140003 -3.105 0.736 3
8.0909996 -3.0369999 0.73400003 3
8.1020002 -3.0780001 0.73500001 3
8.3649998 -2.8239999 0.74000001 3
8.1459999 -2.9820001 0.73500001 3
8.0710001 -3.0469999 0.73400003 3
8.2860003 -2.9030001 0.73900002 3
8.0930004 -3.154 0.73699999 3
8.1009998 -3.096 0.736 3
8.1379995 -3.086 0.73699999 3
8.2200003 -3.0050001 0.73900002 3
8.0439997 -3.075 0.73299998 3
8.2119999 -3.0190001 0.73900002 3
8.2270002 -2.9749999 0.73799998 3
8.2749996 -2.9219999 0.73900002 3
8.2930002 -2.918 0.74000001 3
8.2720003 -2.918 0.73900002 3
8.3210001 -2.8740001 0.74000001 3
8.2159996 -2.925 0.73699999 3
8.2489996 -2.9419999 0.73799998 3
8.151 -2.9790001 0.73500001 3
8.1260004 -3.0409999 0.736 3
8.323 -2.8329999 0.73900002 3
8.2399998 -2.961 0.73799998 3
8.4390001 -2.7349999 0.74199998 3
8.0839996 -3.066 0.73500001 3
8.3030005 -2.8640001 0.73900002 3
8.1750002 -2.99 0.73699999 3
8.0869999 -3.05 0.73400003 3
8.3570004 -2.8340001 0.74000001 3
8.1610003 -2.9760001 0.736 3
8.2299995 -2.9200001 0.73699999 3
8.0939999 -3.1170001 0.736 3
8.0559998 -3.0899999 0.73400003 3
8.3260002 -2.8789999 0.74000001 3
8.1759996 -2.997 0.73699999 3
8.3529997 -2.8310001 0.74000001 3
8.0559998 -3.0680001 0.73299998 3
8.1420002 -3.1040001 0.73799998 3
8.0970001 -3.0539999 0.73500001 3
8.2840004 -2.8889999 0.73900002 3
8.1440001 -2.997 0.73500001 3
8.0839996 -3.0929999 0.73500001 3
8.2089996 -2.938 0.73699999 3
8.3970003 -2.76 0.74000001 3
8.1820002 -2.9619999 0.736 3
8.1450005 -3.0799999 0.73699999 3
8.3070002 -2.8570001 0.73900002 3
8.099 -3.165 0.73699999 3
8.2259998 -2.9159999 0.73699999 3
8.2600002 -2.927 0.73900002 3
8.2290001 -2.948 0.73799998 3
8.0760002 -3.0780001 0.73400003 3
8.2130003 -2.98 0.73799998 3
8.2209997 -2.9449999 0.73699999 3
8.191 -3.03 0.73799998 3
8.1549997 -2.993 0.736 3
8.1020002 -3.102 0.736 3
8.2119999 -2.971 0.73799998 3
8.1110001 -3.052 0.73500001 3
8.2019997 -2.957 0.73699999 3
8.382 -2.7950001 0.741 3
8.2399998 -2.898 0.73699999 3
8.3800001 -2.8069999 0.741 3
8.1359997 -2.9920001 0.73500001 3
8.0900002 -3.085 0.73500001 3
8.059 -3.095 0.73400003 3
8.1639996 -3.04 0.73699999 3
8.1899996 -2.9419999 0.736 3
8.243 -2.9489999 0.73799998 3
8.1619997 -3.069 0.73799998 3
8.1709995 -2.96 0.736 3
8.2720003 -2.8840001 0.73799998 3
8.1660004 -3.0190001 0.73699999 3
8.2469997 -2.918 0.73799998 3
8.1149998 -3.0309999 0.73500001 3
8.3549995 -2.8239999 0.74000001 3
8.158 -3.0320001 0.73699999 3
8.1730003 -2.964 0.736 3
8.0550003 -3.0969999 0.73400003 3
8.2299995 -2.99 0.73900002 3
8.1949997 -2.98 0.73699999 3
8.2410002 -2.911 0.73699999 3
8.1260004 -3.0050001 0.73500001 3
8.2880001 -2.9100001 0.73900002 3
8.1630001 -3.056 0.73699999 3
8.1280003 -3.0090001 0.73500001 3
8.2189999 -2.987 0.73799998 3
8.1590004 -3.063 0.73699999 3
8.1219997 -3.0050001 0.73500001 3
8.3629999 -2.8110001 0.74000001 3
8.2060003 -3.0009999 0.73799998 3
8.1269999 -3.0179999 0.73500001 3
8.0559998 -3.082 0.73400003 3
8.198 -2.957 0.73699999 3
8.2819996 -2.901 0.73900002 3
8.4139996 -2.75 0.741 3
8.0819998 -3.0769999 0.73500001 3
8.3140001 -2.8440001 0.73900002 3
8.1129999 -3.1029999 0.736 3
8.3979998 -2.763 0.741 3
8.1759996 -3.0569999 0.73799998 3
8.3249998 -2.852 0.74000001 3
8.1409998 -3.0999999 0.73699999 3
8.0889997 -3.099 0.73500001 3
8.1420002 -3.0369999 0.736 3
8.1289997 -3.036 0.736 3
8.1359997 -3.0050001 0.73500001 3
8.2919998 -2.8540001 0.73799998 3
8.085 -3.046 0.73400003 3
8.3470001 -2.8310001 0.74000001 3
8.1190004 -3.0339999 0.73500001 3
8.1289997 -3.0280001 0.736 3
8.0699997 -3.0550001 0.73400003 3
8.125 -3.0369999 0.736 3
8.1590004 -3.039 0.73699999 3
8.2290001 -2.97 0.73799998 3
8.3649998 -2.8 0.74000001 3
8.2030001 -2.9949999 0.73799998 3
8.0900002 -3.069 0.73500001 3
8.3339996 -2.826 0.73900002 3
8.2670002 -2.9449999 0.73900002 3
8.0780001 -3.102 0.73500001 3
8.125 -3.0539999 0.736 3
8.2379999 -2.905 0.73699999 3
8.0710001 -3.0569999 0.73400003 3
8.1459999 -2.9990001 0.736 3
8.0489998 -3.0829999 0.73400003 3
8.1070004 -3.03 0.73500001 3
8.276 -2.9219999 0.73900002 3
8.1569996 -2.9860001 0.736 3
8.1470003 -3.0829999 0.73699999 3
8.2060003 -2.9590001 0.73699999 3
8.1590004 -3.066 0.73699999 3
8.1459999 -3.046 0.73699999 3
8.3140001 -2.855 0.73900002 3
8.2819996 -2.901 0.73900002 3
8.3330002 -2.825 0.73900002 3
8.2530003 -2.892 0.73799998 3
8.0909996 -3.089 0.73500001 3
8.1680002 -2.983 0.736 3
8.2370005 -2.9530001 0.73799998 3
8.1750002 -3.0480001 0.73799998 3
8.1639996 -2.9990001 0.736 3
8.052 -3.085 0.73400003 3
8.2150002 -2.98 0.73799998 3
8.1639996 -3.039 0.73699999 3
8.1379995 -3.0139999 0.736 3
8.2440004 -2.918 0.73799998 3
8.3059998 -2.8829999 0.73900002 3
8.1000004 -3.132 0.736 3
8.2530003 -2.905 0.73799998 3
8.092 -3.0810001 0.73500001 3
8.0869999 -3.125 0.736 3
8.1079998 -3.1029999 0.736 3
8.0819998 -3.039 0.73400003 3
8.2150002 -2.9300001 0.73699999 3
8.0930004 -3.0280001 0.73400003 3
8.3769999 -2.8169999 0.741 3
8.2270002 -2.99 0.73900002 3
8.25 -2.8889999 0.73699999 3
8.3640003 -2.8099999 0.74000001 3
8.1829996 -2.9779999 0.73699999 3
8.2530003 -2.9130001 0.73799998 3
8.125 -3.0139999 0.73500001 3
8.0690002 -3.1010001 0.73500001 3
8.0719995 -3.1229999 0.73500001 3
8.1429996 -3.073 0.73699999 3
8.3409996 -2.8210001 0.74000001 3
8.0979996 -3.0510001 0.73500001 3
8.335 -2.8570001 0.74000001 3
8.3310003 -2.8710001 0.74000001 3
8.2019997 -2.964 0.73699999 3
8.1759996 -3.0510001 0.73799998 3
8.2919998 -2.865 0.73900002 3
8.2939997 -2.8929999 0.73900002 3
8.1049995 -3.023 0.73400003 3
8.2709999 -2.911 0.73900002 3
8.2679996 -2.8929999 0.73799998 3
8.184 -3.059 0.73799998 3
8.1709995 -3.0369999 0.73699999 3
8.4029999 -2.7739999 0.741 3
8.2159996 -2.9679999 0.73799998 3
8.1440001 -3.016 0.736 3
8.2159996 -2.9630001 0.73799998 3
8.1739998 -3.01 0.73699999 3
8.257 -2.944 0.73900002 3
8.0629997 -3.073 0.73400003 3
8.1680002 -3.0190001 0.73699999 3
8.349 -2.8510001 0.74000001 3
8.1300001 -3.0309999 0.736 3
8.1789999 -3.046 0.73799998 3
8.46 -2.7049999 0.74199998 3
8.375 -2.7820001 0.74000001 3
8.2580004 -2.9649999 0.73900002 3
8.0670004 -3.072 0.73400003 3
8.3299999 -2.858 0.74000001 3
8.1289997 -3.026 0.73500001 3
8.1990004 -2.9619999 0.73699999 3
8.2419996 -2.98 0.73900002 3
8.3509998 -2.839 0.74000001 3
8.1049995 -3.151 0.73699999 3
8.3140001 -2.846 0.73900002 3
8.1140003 -3.0829999 0.736 3
8.0959997 -3.0699999 0.73500001 3
8.2519999 -2.8900001 0.73699999 3
8.4020004 -2.7820001 0.741 3
8.2930002 -2.9170001 0.74000001 3
8.0909996 -3.0929999 0.73500001 3
8.2010002 -2.9649999 0.73699999 3
8.0959997 -3.1199999 0.736 3
8.1549997 -3.0550001 0.73699999 3
8.1540003 -3.033 0.73699999 3
8.1230001 -3.1199999 0.73699999 3
8.1739998 -2.964 0.736 3
8.1009998 -3.1489999 0.73699999 3
8.0419998 -3.0780001 0.73299998 3
8.1280003 -3.0369999 0.736 3
8.1289997 -3.0780001 0.73699999 3
8.3529997 -2.8269999 0.74000001 3
8.3529997 -2.8150001 0.74000001 3
8.191 -3.0090001 0.73699999 3
8.1639996 -3.016 0.73699999 3
8.3800001 -2.7980001 0.741 3
8.2690001 -2.921 0.73900002 3
8.2209997 -2.964 0.73799998 3
8.3710003 -2.812 0.74000001 3
8.1140003 -3.0409999 0.73500001 3
8.2259998 -2.964 0.73799998 3
8.2180004 -3.0039999 0.73799998 3
8.3100004 -2.848 0.73900002 3
8.1700001 -3.033 0.73699999 3
8.2510004 -2.9749999 0.73900002 3
8.1040001 -3.0999999 0.736 3
8.3479996 -2.8069999 0.73900002 3
8.1160002 -3.082 0.736 3
8.3459997 -2.848 0.74000001 3
8.1569996 -3.0610001 0.73699999 3
8.2469997 -2.9030001 0.73799998 3
8.1899996 -2.983 0.73699999 3
8.0790005 -3.1400001 0.736 3
8.2559996 -2.902 0.73799998 3
8.2819996 -2.8610001 0.73799998 3
8.1669998 -3.076 0.73799998 3
8.2629995 -2.911 0.73799998 3
8.3140001 -2.8670001 0.73900002 3
8.3190002 -2.8759999 0.74000001 3
8.2110004 -2.9360001 0.73699999 3
8.3120003 -2.862 0.73900002 3
8.1409998 -3.085 0.73699999 3
8.1929998 -2.9909999 0.73699999 3
8.165 -2.967 0.736 3
8.1680002 -2.9909999 0.736 3
8.3669996 -2.819 0.74000001 3
8.3830004 -2.8080001 0.741 3
8.1049995 -3.1370001 0.73699999 3
8.0670004 -3.072 0.73400003 3
8.342 -2.846 0.74000001 3
8.1309996 -3.0250001 0.736 3
8.3590002 -2.8269999 0.74000001 3
8.1499996 -3.1010001 0.73799998 3
8.0640001 -3.089 0.73400003 3
8.2370005 -2.95 0.73799998 3
8.1780005 -3.046 0.73799998 3
8.3030005 -2.8829999 0.73900002 3
8.1599998 -3.0179999 0.736 3
8.0839996 -3.0450001 0.73400003 3
8.4230003 -2.7420001 0.741 3
8.1400003 -3.039 0.736 3
8.0690002 -3.1070001 0.73500001 3
8.0489998 -3.0929999 0.73400003 3
8.1520004 -3.0020001 0.736 3
8.3450003 -2.852 0.74000001 3
8.132 -3.0880001 0.73699999 3
8.1079998 -3.115 0.736 3
8.1479998 -3.0439999 0.73699999 3
8.1800003 -3.0020001 0.73699999 3
8.1420002 -3.0469999 0.736 3
8.0530005 -3.1029999 0.73400003 3
8.1239996 -3.119 0.73699999 3
8.1370001 -2.9909999 0.73500001 3
8.0860004 -3.0910001 0.73500001 3
8.3290005 -2.852 0.74000001 3
8.2919998 -2.9170001 0.74000001 3
8.2049999 -2.9860001 0.73799998 3
8.2670002 -2.9219999 0.73900002 3
8.1569996 -3.072 0.73699999 3
8.283 -2.895 0.73900002 3
8.2110004 -2.993 0.73799998 3
8.2270002 -3.0020001 0.73900002 3
8.1420002 -2.987 0.73500001 3
8.1129999 -3.1370001 0.73699999 3
8.0760002 -3.1359999 0.736 3
8.415 -2.766 0.741 3
8.1990004 -2.9790001 0.73699999 3
8.1619997 -3.0369999 0.73699999 3
8.3369999 -2.8310001 0.74000001 3
8.1350002 -3.1059999 0.73699999 3
8.316 -2.8340001 0.73900002 3
8.1389999 -3.0999999 0.73699999 3
8.3479996 -2.825 0.74000001 3
8.0970001 -3.135 0.736 3
8.1429996 -3.0239999 0.736 3
8.3459997 -2.8540001 0.74000001 3
8.1859999 -2.987 0.73699999 3
8.3109999 -2.8770001 0.73900002 3
8.1190004 -3.0209999 0.73500001 3
8.1560001 -3.0090001 0.736 3
8.0530005 -3.0999999 0.73400003 3
8.0860004 -2.658 0.74000001 3
8.1730003 -2.8099999 0.74000001 3
8.1789999 -2.6860001 0.74000001 3
8.2139997 -2.7820001 0.74000001 3
8.0360003 -2.767 0.73900002 3
8.3129997 -2.7149999 0.741 3
8.1040001 -2.668 0.74000001 3
8.0900002 -2.766 0.73900002 3
8.1379995 -2.74 0.74000001 3
8.2159996 -2.704 0.74000001 3
8.0530005 -2.6570001 0.74000001 3
8.2180004 -2.6949999 0.74000001 3
8.2440004 -2.7290001 0.741 3
8.0559998 -2.803 0.73900002 3
8.073 -2.698 0.74000001 3
8.2040005 -2.652 0.741 3
8.283 -2.75 0.741 3
8.1829996 -2.756 0.74000001 3
8.1370001 -2.7620001 0.74000001 3
8.1040001 -2.747 0.74000001 3
8.2650003 -2.7590001 0.741 3
8.1140003 -2.74 0.74000001 3
8.04 -2.8310001 0.73900002 3
8.1949997 -2.704 0.74000001 3
8.3140001 -2.7130001 0.741 3
8.1210003 -2.7179999 0.74000001 3
8.3669996 -2.701 0.741 3
8.2559996 -2.7030001 0.741 3
8.2980003 -2.7520001 0.741 3
8.408 -2.697 0.74199998 3
8.1689997 -2.658 0.74000001 3
8.3640003 -2.733 0.741 3
8.4429998 -2.6989999 0.74199998 3
8.2659998 -2.7179999 0.741 3
8.2729998 -2.6670001 0.741 3
8.1899996 -2.717 0.74000001 3
8.1549997 -2.724 0.74000001 3
8.3059998 -2.7279999 0.741 3
8.1829996 -2.6659999 0.74000001 3
8.1009998 -2.773 0.73900002 3
8.2220001 -2.79 0.74000001 3
8.0839996 -2.7520001 0.73900002 3
8.0760002 -2.6600001 0.74000001 3
8.1059999 -2.7909999 0.73900002 3
8.1700001 -2.668 0.74000001 3
8.0670004 -2.658 0.74000001 3
8.0100002 -2.858 0.73900002 3
8.1619997 -2.7360001 0.74000001 3
8.158 -2.7420001 0.74000001 3
8.1520004 -2.8 0.74000001 3
8.3170004 -2.7490001 0.741 3
8.1300001 -2.7980001 0.74000001 3
8.0839996 -2.7820001 0.73900002 3
8.21 -2.6589999 0.741 3
8.059 -2.6559999 0.74000001 3
8.4309998 -2.6860001 0.74199998 3
8.0690002 -2.7739999 0.73900002 3
8.1020002 -2.816 0.73900002 3
8.316 -2.7079999 0.741 3
8.2189999 -2.7850001 0.74000001 3
8.132 -2.721 0.74000001 3
8.2130003 -2.6440001 0.741 3
8.0959997 -2.7349999 0.74000001 3
8.158 -2.642 0.74000001 3
8.0419998 -2.8559999 0.73900002 3
8.1929998 -2.8 0.74000001 3
8.2589998 -2.7780001 0.74000001 3
8.3900003 -2.7119999 0.74199998 3
8.2390003 -2.704 0.741 3
8.059 -2.8210001 0.73900002 3
8.1339998 -2.6830001 0.74000001 3
8.1140003 -2.7490001 0.74000001 3
8.3360004 -2.6989999 0.741 3
8.1190004 -2.704 0.74000001 3
8.1899996 -2.799 0.74000001 3
8.2290001 -2.6589999 0.741 3
8.3129997 -2.7460001 0.741 3
8.1560001 -2.789 0.74000001 3
8.3330002 -2.7190001 0.741 3
8.0889997 -2.7060001 0.74000001 3
8.0159998 -2.826 0.73900002 3
8.2679996 -2.7720001 0.74000001 3
8.165 -2.671 0.74000001 3
8.0790005 -2.7079999 0.74000001 3
8.0500002 -2.7030001 0.73900002 3
8.1750002 -2.747 0.74000001 3
8.0819998 -2.816 0.73900002 3
8.0699997 -2.793 0.73900002 3
8.1040001 -2.813 0.73900002 3
8.1940002 -2.724 0.74000001 3
8.4280005 -2.7079999 0.74199998 3
8.0950003 -2.763 0.73900002 3
8.1129999 -2.7420001 0.74000001 3
8.3389997 -2.7460001 0.741 3
8.0880003 -2.75 0.73900002 3
8.2069998 -2.7539999 0.74000001 3
8.0710001 -2.734 0.73900002 3
8.1120005 -2.6470001 0.74000001 3
8.1099997 -2.7149999 0.74000001 3
8.1520004 -2.7360001 0.74000001 3
8.0559998 -2.773 0.73900002 3
8.2019997 -2.6700001 0.74000001 3
8.1199999 -2.733 0.74000001 3
8.3940001 -2.7190001 0.74199998 3
8.1490002 -2.7850001 0.74000001 3
8.0600004 -2.631 0.74000001 3
8.2849998 -2.678 0.741 3
8.0380001 -2.839 0.73900002 3
8.1070004 -2.6600001 0.74000001 3
8.0550003 -2.717 0.73900002 3
8.0629997 -2.6800001 0.74000001 3
8.1199999 -2.6730001 0.74000001 3
8.309 -2.688 0.741 3
8.1870003 -2.73 0.74000001 3
8.1660004 -2.6359999 0.74000001 3
8.1780005 -2.638 0.74000001 3
8.3479996 -2.6819999 0.741 3
8.0209999 -2.849 0.73900002 3
8.059 -2.6960001 0.73900002 3
8.198 -2.7550001 0.74000001 3
8.1420002 -2.671 0.74000001 3
8.1210003 -2.721 0.74000001 3
8.0550003 -2.7690001 0.73900002 3
8.1929998 -2.7149999 0.74000001 3
8.3879995 -2.684 0.74199998 3
8.073 -2.8210001 0.73900002 3
8.1689997 -2.6530001 0.74000001 3
8.0740004 -2.8310001 0.73900002 3
8.1020002 -2.8099999 0.73900002 3
8.092 -2.747 0.73900002 3
8.2910004 -2.73 0.741 3
8.1020002 -2.727 0.74000001 3
8.1990004 -2.6559999 0.74000001 3
8.0530005 -2.8169999 0.73900002 3
8.0570002 -2.658 0.74000001 3
8.085 -2.7379999 0.73900002 3
8.3380003 -2.697 0.741 3
8.3140001 -2.7460001 0.741 3
8.375 -2.694 0.741 3
8.3439999 -2.6900001 0.741 3
8.2180004 -2.743 0.74000001 3
8.1059999 -2.7449999 0.74000001 3
8.2180004 -2.7709999 0.74000001 3
8.0550003 -2.8069999 0.73900002 3
8.1160002 -2.8180001 0.73900002 3
8.3509998 -2.6700001 0.741 3
8.1739998 -2.7709999 0.74000001 3
8.3129997 -2.733 0.741 3
8.1239996 -2.7520001 0.74000001 3
8.0550003 -2.8 0.73900002 3
8.052 -2.6630001 0.74000001 3
8.2360001 -2.727 0.74000001 3
8.3260002 -2.7449999 0.741 3
8.3900003 -2.7130001 0.741 3
8.1540003 -2.6470001 0.74000001 3
8.1560001 -2.681 0.74000001 3
8.0710001 -2.638 0.74000001 3
8.2200003 -2.6919999 0.74000001 3
8.1140003 -2.6459999 0.74000001 3
8.0679998 -2.677 0.74000001 3
8.0629997 -2.743 0.73900002 3
8.0380001 -2.789 0.73900002 3
8.1269999 -2.6559999 0.74000001 3
8.1210003 -2.8 0.73900002 3
8.3120003 -2.6960001 0.741 3
8.0930004 -2.8080001 0.73900002 3
8.0150003 -2.8440001 0.73900002 3
8.1680002 -2.655 0.74000001 3
8.4490004 -2.691 0.74199998 3
8.2049999 -2.6530001 0.741 3
8.4540005 -2.6949999 0.74199998 3
8.0710001 -2.826 0.73900002 3
8.3249998 -2.7309999 0.741 3
8.1409998 -2.658 0.74000001 3
8.3290005 -2.7079999 0.741 3
8.0530005 -2.793 0.73900002 3
8.2440004 -2.6689999 0.741 3
8.276 -2.723 0.741 3
8.0290003 -2.836 0.73900002 3
8.1999998 -2.6630001 0.74000001 3
8.21 -2.6700001 0.741 3
8.0419998 -2.8399999 0.73900002 3
8.3339996 -2.743 0.741 3
8.2749996 -2.75 0.741 3
8.0539999 -2.7079999 0.73900002 3
8.2340002 -2.7460001 0.74000001 3
8.0869999 -2.681 0.74000001 3
8.0419998 -2.8150001 0.73900002 3
8.1190004 -2.6340001 0.74000001 3
8.1590004 -2.655 0.74000001 3
8.2580004 -2.7249999 0.741 3
8.2860003 -2.7179999 0.741 3
8.276 -2.757 0.741 3
8.3140001 -2.7490001 0.741 3
8.4049997 -2.7179999 0.74199998 3
8.1940002 -2.779 0.74000001 3
8.0570002 -2.7079999 0.73900002 3
8.1020002 -2.6800001 0.74000001 3
8.2220001 -2.698 0.74000001 3
8.1389999 -2.711 0.74000001 3
8.085 -2.793 0.73900002 3
8.415 -2.678 0.74199998 3
8.2399998 -2.6830001 0.741 3
8.2270002 -2.6919999 0.741 3
8.1040001 -2.697 0.74000001 3
8.092 -2.7690001 0.73900002 3
8.1120005 -2.6270001 0.74000001 3
8.1049995 -2.7049999 0.74000001 3
8.0830002 -2.806 0.73900002 3
8.1470003 -2.776 0.74000001 3
8.2379999 -2.7119999 0.741 3
8.3299999 -2.7049999 0.741 3
8.1829996 -2.737 0.74000001 3
8.0799999 -2.6830001 0.74000001 3
8.1389999 -2.6889999 0.74000001 3
8.2869997 -2.74 0.741 3
8.1990004 -2.7950001 0.74000001 3
8.0459995 -2.8280001 0.73900002 3
8.1630001 -2.7420001 0.74000001 3
8.3739996 -2.72 0.741 3
8.1140003 -2.7090001 0.74000001 3
8.1370001 -2.6830001 0.74000001 3
8.1420002 -2.812 0.74000001 3
8.3940001 -2.674 0.74199998 3
8.066 -2.757 0.73900002 3
8.302 -2.756 0.741 3
8.1569996 -2.7179999 0.74000001 3
8.1029997 -2.835 0.73900002 3
8.1619997 -2.7609999 0.74000001 3
8.0640001 -2.74 0.73900002 3
8.085 -2.6229999 0.74000001 3
8.0679998 -2.839 0.73900002 3
8.0979996 -2.691 0.74000001 3
8.2139997 -2.678 0.741 3
8.3409996 -2.668 0.741 3
8.1730003 -2.757 0.74000001 3
8.1140003 -2.8369999 0.73900002 3
8.2609997 -2.704 0.741 3
8.1630001 -2.641 0.74000001 3
8.1800003 -2.779 0.74000001 3
8.0699997 -2.8069999 0.73900002 3
8.0609999 -2.6470001 0.74000001 3
8.2950001 -2.6760001 0.741 3
8.0900002 -2.687 0.74000001 3
8.2390003 -2.7709999 0.74000001 3
8.3990002 -2.691 0.74199998 3
8.1389999 -2.648 0.74000001 3
8.1490002 -2.6689999 0.74000001 3
8.3409996 -2.677 0.741 3
8.1700001 -2.802 0.74000001 3
8.1420002 -2.734 0.74000001 3
8.0480003 -2.783 0.73900002 3
8.3310003 -2.734 0.741 3
8.0469999 -2.8280001 0.73900002 3
8.1739998 -2.6949999 0.74000001 3
8.0609999 -2.7980001 0.73900002 3
8.1470003 -2.6960001 0.74000001 3
8.3850002 -2.7149999 0.741 3
8.2609997 -2.7490001 0.741 3
8.1079998 -2.694 0.74000001 3
8.132 -2.7460001 0.74000001 3
8.1680002 -2.717 0.74000001 3
8.1879997 -2.7820001 0.74000001 3
8.073 -2.6960001 0.74000001 3
8.2510004 -2.7030001 0.741 3
8.2419996 -2.7130001 0.741 3
8.1780005 -2.6459999 0.74000001 3
8.0469999 -2.8069999 0.73900002 3
8.0939999 -2.694 0.74000001 3
8.1820002 -2.6919999 0.74000001 3
8.2609997 -2.7449999 0.741 3
8.3710003 -2.675 0.74199998 3
8.0679998 -2.6700001 0.74000001 3
8.4530001 -2.6849999 0.74199998 3
8.1000004 -2.8310001 0.73900002 3
8.2700005 -2.661 0.741 3
8.2639999 -2.7409999 0.741 3
8.0699997 -2.6570001 0.74000001 3
8.0740004 -2.7650001 0.73900002 3
8.1750002 -2.6860001 0.74000001 3
8.0559998 -2.859 0.73900002 3
8.1920004 -2.7409999 0.74000001 3
8.0830002 -2.7820001 0.73900002 3
8.0780001 -2.655 0.74000001 3
8.3929996 -2.7119999 0.74199998 3
8.165 -2.727 0.74000001 3
8.0109997 -2.858 0.73900002 3
8.1479998 -2.6949999 0.74000001 3
8.1459999 -2.697 0.74000001 3
8.3509998 -2.7249999 0.741 3
8.2489996 -2.674 0.741 3
8.0839996 -2.7179999 0.74000001 3
8.2519999 -2.7490001 0.74000001 3
8.1470003 -2.7809999 0.74000001 3
8.1339998 -2.7309999 0.74000001 3
8.0699997 -2.6199999 0.74000001 3
8.026 -2.8429999 0.73900002 3
8.066 -2.7409999 0.73900002 3
8.309 -2.734 0.741 3
8.0270004 -2.8629999 0.73900002 3
8.1160002 -2.7320001 0.74000001 3
8.1269999 -2.6300001 0.74000001 3
8.0539999 -2.7379999 0.73900002 3
8.3590002 -2.71 0.741 3
8.316 -2.734 0.741 3
8.1540003 -2.675 0.74000001 3
8.3710003 -2.688 0.741 3
8.2410002 -2.7290001 0.74000001 3
8.1470003 -2.635 0.74000001 3
8.052 -2.6730001 0.73900002 3
8.2930002 -2.737 0.741 3
8.1879997 -2.733 0.74000001 3
8.1140003 -2.7449999 0.74000001 3
8.0550003 -2.803 0.73900002 3
8.2609997 -2.652 0.741 3
8.085 -2.6470001 0.74000001 3
8.0909996 -2.687 0.74000001 3
8.1160002 -2.744 0.74000001 3
8.2989998 -2.6689999 0.741 3
8.0760002 -2.727 0.73900002 3
8.3210001 -2.7019999 0.741 3
8.0640001 -2.6949999 0.73900002 3
8.3719997 -2.7090001 0.741 3
8.1459999 -2.707 0.74000001 3
8.0229998 -2.8099999 0.73900002 3
8.2089996 -2.7279999 0.74000001 3
8.1859999 -2.6800001 0.74000001 3
8.1309996 -2.704 0.74000001 3
8.382 -2.684 0.74199998 3
8.0869999 -2.625 0.74000001 3
8.3030005 -2.7320001 0.741 3
8.0799999 -2.8440001 0.73900002 3
8.0450001 -2.862 0.73900002 3
8.0640001 -2.839 0.73900002 3
8.0480003 -2.7739999 0.73900002 3
8.2519999 -2.7290001 0.741 3
8.3319998 -2.675 0.741 3
8.0710001 -2.684 0.74000001 3
8.3879995 -2.7249999 0.741 3
8.1590004 -2.665 0.74000001 3
8.257 -2.665 0.741 3
8.3409996 -2.71 0.741 3
8.1599998 -2.6989999 0.74000001 3
8.1160002 -2.6930001 0.74000001 3
8.1210003 -2.658 0.74000001 3
8.132 -2.77 0.74000001 3
8.1239996 -2.8069999 0.73900002 3
8.0579996 -2.859 0.73900002 3
8.0200005 -2.868 0.73900002 3
8.0900002 -2.8340001 0.73900002 3
8.1149998 -2.799 0.73900002 3
8.125 -2.6919999 0.74000001 3
8.2180004 -2.698 0.74000001 3
8.2709999 -2.721 0.741 3
8.2220001 -2.7720001 0.74000001 3
8.1949997 -2.7809999 0.74000001 3
8.0530005 -2.6800001 0.73900002 3
8.158 -2.8 0.74000001 3
8.059 -2.848 0.73900002 3
8.1309996 -2.7279999 0.74000001 3
8.2060003 -2.7320001 0.74000001 3
8.3299999 -2.675 0.741 3
8.335 -2.688 0.741 3
8.1490002 -2.812 0.74000001 3
8.0530005 -2.7290001 0.73900002 3
8.1700001 -2.7809999 0.74000001 3
8.1780005 -2.6459999 0.74000001 3
8.2220001 -2.707 0.74000001 3
8.1400003 -2.8110001 0.74000001 3
8.1330004 -2.6819999 0.74000001 3
8.2770004 -2.7130001 0.741 3
8.3380003 -2.74 0.741 3
8.1260004 -2.826 0.73900002 3
8.0530005 -2.7149999 0.73900002 3
8.3990002 -2.717 0.74199998 3
8.1809998 -2.6619999 0.74000001 3
8.1459999 -2.8110001 0.74000001 3
8.2550001 -2.767 0.74000001 3
8.0760002 -2.6289999 0.74000001 3
8.1969995 -2.796 0.74000001 3
8.1940002 -2.743 0.74000001 3
8.0290003 -2.7969999 0.73900002 3
8.1470003 -2.638 0.74000001 3
8.1440001 -2.6489999 0.74000001 3
8.3339996 -2.687 0.741 3
8.0450001 -2.7720001 0.73900002 3
8.118 -2.7379999 0.74000001 3
8.1090002 -2.7149999 0.74000001 3
8.3059998 -2.694 0.741 3
8.1230001 -2.677 0.74000001 3
8.0970001 -2.7969999 0.73900002 3
8.1289997 -2.6470001 0.74000001 3
8.0799999 -2.7550001 0.73900002 3
8.3529997 -2.724 0.741 3
8.1230001 -2.78 0.74000001 3
8.0930004 -2.823 0.73900002 3
8.0830002 -2.6930001 0.74000001 3
8.0290003 -2.848 0.73900002 3
8.1929998 -2.698 0.74000001 3
8.1879997 -2.721 0.74000001 3
8.3479996 -2.6789999 0.741 3
8.0530005 -2.799 0.73900002 3
8.0380001 -2.783 0.73900002 3
8.1000004 -2.79 0.73900002 3
8.3900003 -2.688 0.74199998 3
8.1990004 -2.6800001 0.74000001 3
8.1750002 -2.7780001 0.74000001 3
8.2819996 -2.7190001 0.741 3
8.0900002 -2.8440001 0.73900002 3
8.0780001 -2.7160001 0.74000001 3
8.1569996 -2.678 0.74000001 3
8.0570002 -2.799 0.73900002 3
8.3000002 -2.707 0.741 3
8.0970001 -2.7279999 0.74000001 3
8.0830002 -2.823 0.73900002 3
8.1309996 -2.6459999 0.74000001 3
8.2860003 -2.6659999 0.741 3
8.1239996 -2.7679999 0.74000001 3
8.1759996 -2.7360001 0.74000001 3
8.0909996 -2.7720001 0.73900002 3
8.2360001 -2.756 0.74000001 3
8.3240004 -2.701 0.741 3
8.0050001 -2.868 0.73799998 3
8.0970001 -2.6760001 0.74000001 3
8.2489996 -2.777 0.74000001 3
8.0869999 -2.7650001 0.73900002 3
8.3540001 -2.668 0.741 3
8.0620003 -2.7320001 0.73900002 3
8.0930004 -2.711 0.74000001 3
8.0550003 -2.737 0.73900002 3
8.2360001 -2.74 0.74000001 3
8.2349997 -2.707 0.741 3
8.2410002 -2.7409999 0.74000001 3
8.0270004 -2.835 0.73900002 3
8.2629995 -2.678 0.741 3
8.2779999 -2.661 0.741 3
8.066 -2.6849999 0.74000001 3
8.2799997 -2.72 0.741 3
8.1300001 -2.7060001 0.74000001 3
8.0710001 -2.8069999 0.73900002 3
8.1719999 -2.8039999 0.74000001 3
8.2049999 -2.776 0.74000001 3
8.0830002 -2.7679999 0.73900002 3
8.0970001 -2.7130001 0.74000001 3
8.1829996 -2.645 0.74000001 3
8.0970001 -2.678 0.74000001 3
8.118 -2.628 0.74000001 3
8.3529997 -2.7390001 0.741 3
8.1490002 -2.803 0.74000001 3
8.2279997 -2.743 0.74000001 3
8.2589998 -2.7390001 0.741 3
8.0349998 -2.7609999 0.73900002 3
8.1420002 -2.812 0.74000001 3
8.1020002 -2.7249999 0.74000001 3
8.0810003 -2.665 0.74000001 3
8.1499996 -2.7079999 0.74000001 3
8.2290001 -2.7119999 0.74000001 3
8.1890001 -2.7019999 0.74000001 3
8.3669996 -2.73 0.741 3
8.1759996 -2.7590001 0.74000001 3
8.3479996 -2.6760001 0.741 3
8.2880001 -2.6659999 0.741 3
8.0579996 -2.816 0.73900002 3
8.2489996 -2.6630001 0.741 3
8.052 -2.714 0.73900002 3
8.2030001 -2.7550001 0.74000001 3
8.1599998 -2.6589999 0.74000001 3
8.2989998 -2.6860001 0.741 3
8.4379997 -2.6860001 0.74199998 3
8.0869999 -2.668 0.74000001 3
8.1450005 -2.779 0.74000001 3
8.2229996 -2.7379999 0.74000001 3
8.177 -2.7980001 0.74000001 3
8.4160004 -2.681 0.74199998 3
8.1210003 -2.8050001 0.73900002 3
8.099 -2.6530001 0.74000001 3
8.0719995 -2.6340001 0.74000001 3
8.2040005 -2.7909999 0.74000001 3
8.1479998 -2.78 0.74000001 3
8.0679998 -2.8169999 0.73900002 3
8.1300001 -2.648 0.74000001 3
8.1429996 -2.665 0.74000001 3
8.2220001 -2.6589999 0.741 3
8.2379999 -2.6930001 0.741 3
8.4420004 -2.7 0.74199998 3
8.1969995 -2.7219999 0.74000001 3
8.2329998 -2.7490001 0.74000001 3
8.21 -2.6659999 0.741 3
8.0570002 -2.6630001 0.74000001 3
8.0469999 -2.777 0.73900002 3
8.0909996 -2.7839999 0.73900002 3
8.0609999 -2.638 0.74000001 3
8.0200005 -2.826 0.73900002 3
8.1569996 -2.665 0.74000001 3
8.0559998 -2.665 0.74000001 3
8.1389999 -2.701 0.74000001 3
8.0950003 -2.763 0.73900002 3
8.0570002 -2.6700001 0.74000001 3
8.0740004 -2.7449999 0.73900002 3
8.3979998 -2.697 0.74199998 3
8.1120005 -2.835 0.73900002 3
8.2370005 -2.7060001 0.741 3
8.3900003 -2.6760001 0.74199998 3
8.2589998 -2.7579999 0.74000001 3
8.2290001 -2.7349999 0.74000001 3
8.2130003 -2.648 0.741 3
8.0389996 -2.721 0.73900002 3
8.1499996 -2.6730001 0.74000001 3
8.3039999 -2.6830001 0.741 3
8.1079998 -2.737 0.74000001 3
8.1669998 -2.766 0.74000001 3
8.1309996 -2.7030001 0.74000001 3
8.2849998 -2.7449999 0.741 3
8.2639999 -2.767 0.74000001 3
8.2580004 -2.6689999 0.741 3
8.099 -2.6530001 0.74000001 3
8.1129999 -2.7520001 0.74000001 3
8.125 -2.8269999 0.73900002 3
8.0419998 -2.8440001 0.73900002 3
8.0450001 -2.698 0.73900002 3
8.4040003 -2.701 0.74199998 3
8.4359999 -2.691 0.74199998 3
8.4219999 -2.6819999 0.74199998 3
8.1289997 -2.723 0.74000001 3
8.1890001 -2.6589999 0.74000001 3
8.0819998 -2.694 0.74000001 3
8.0319996 -2.7820001 0.73900002 3
8.1899996 -2.7939999 0.74000001 3
8.191 -2.6429999 0.74000001 3
8.0550003 -2.7290001 0.73900002 3
8.1920004 -2.6830001 0.74000001 3
8.0690002 -2.661 0.74000001 3
8.1289997 -2.688 0.74000001 3
8.3199997 -2.6800001 0.741 3
8.2220001 -2.7290001 0.74000001 3
8.1759996 -2.6600001 0.74000001 3
8.1289997 -2.668 0.74000001 3
8.4180002 -2.7060001 0.74199998 3
8.2930002 -2.6570001 0.741 3
8.059 -2.76 0.73900002 3
8.3979998 -2.684 0.74199998 3
8.0419998 -2.8640001 0.73900002 3
8.073 -2.822 0.73900002 3
8.2690001 -2.7690001 0.741 3
8.1420002 -2.7739999 0.74000001 3
8.0830002 -2.7019999 0.74000001 3
8.2220001 -2.707 0.74000001 3
8.1829996 -2.8080001 0.74000001 3
8.309 -2.6949999 0.741 3
8.1499996 -2.701 0.74000001 3
8.1079998 -2.816 0.73900002 3
8.066 -2.8499999 0.73900002 3
8.1169996 -2.7579999 0.74000001 3
8.3610001 -2.7119999 0.741 3
8.3260002 -2.7049999 0.741 3
8.0600004 -2.76 0.73900002 3
8.2229996 -2.7279999 0.74000001 3
8.0629997 -2.8050001 0.73900002 3
8.165 -2.7360001 0.74000001 3
8.1359997 -2.773 0.74000001 3
8.3179998 -2.7260001 0.741 3
8.2860003 -2.756 0.741 3
8.125 -2.628 0.74000001 3
8.257 -2.7379999 0.741 3
8.0419998 -2.802 0.73900002 3
8.099 -2.7290001 0.74000001 3
8.0939999 -2.8110001 0.73900002 3
8.3280001 -2.687 0.741 3
8.04 -2.783 0.73900002 3
8.0439997 -2.859 0.73900002 3
8.217 -2.743 0.74000001 3
8.0279999 -2.8529999 0.73900002 3
8.1689997 -2.7579999 0.74000001 3
8.2410002 -2.7130001 0.741 3
8.3380003 -2.6919999 0.741 3
8.1639996 -2.6930001 0.74000001 3
8.1459999 -2.7309999 0.74000001 3
8.283 -2.7 0.741 3
8.0530005 -2.753 0.73900002 3
8.467 -2.6670001 0.74199998 3
8.2799997 -2.654 0.741 3
8.3170004 -2.5350001 0.74199998 3
8.2440004 -2.4719999 0.74199998 3
8.257 -2.622 0.741 3
8.2559996 -2.3829999 0.74199998 3
8.3439999 -2.2709999 0.74299997 3
8.3710003 -2.441 0.74299997 3
8.1850004 -2.5239999 0.741 3
8.2799997 -2.5799999 0.741 3
8.3079996 -2.6240001 0.741 3
8.1040001 -2.572 0.74000001 3
8.184 -2.6370001 0.74000001 3
8.1759996 -2.5599999 0.741 3
8.3050003 -2.605 0.741 3
8.3120003 -2.365 0.74299997 3
8.2980003 -2.5450001 0.74199998 3
8.2200003 -2.4630001 0.741 3
8.1269999 -2.6070001 0.74000001 3
8.2370005 -2.414 0.74199998 3
8.1800003 -2.619 0.741 3
8.3129997 -2.529 0.74199998 3
8.4230003 -2.6760001 0.74199998 3
8.3690004 -2.438 0.74299997 3
8.2799997 -2.4070001 0.74199998 3
8.2869997 -2.651 0.741 3
8.4049997 -2.675 0.74199998 3
8.3249998 -2.618 0.741 3
8.3690004 -2.599 0.74199998 3
8.1999998 -2.622 0.741 3
8.2609997 -2.556 0.741 3
8.2360001 -2.576 0.741 3
8.4490004 -2.6170001 0.74199998 3
8.3430004 -2.372 0.74299997 3
8.25 -2.4690001 0.74199998 3
8.3109999 -2.642 0.741 3
8.2659998 -2.645 0.741 3
8.2849998 -2.358 0.74199998 3
8.316 -2.346 0.74299997 3
8.2880001 -2.4159999 0.74199998 3
8.2690001 -2.55 0.741 3
8.2030001 -2.4560001 0.741 3
8.1560001 -2.5899999 0.741 3
8.0979996 -2.6099999 0.74000001 3
8.1820002 -2.5840001 0.741 3
8.3920002 -2.51 0.74199998 3
8.3339996 -2.638 0.741 3
8.2399998 -2.563 0.741 3
8.2860003 -2.408 0.74199998 3
8.3549995 -2.5550001 0.74199998 3
8.2700005 -2.5699999 0.741 3
8.1610003 -2.6040001 0.74000001 3
8.3879995 -2.5320001 0.74199998 3
8.1940002 -2.563 0.741 3
8.3179998 -2.625 0.741 3
8.1890001 -2.51 0.741 3
8.2910004 -2.6359999 0.741 3
8.335 -2.4549999 0.74199998 3
8.2729998 -2.5999999 0.741 3
8.283 -2.5139999 0.74199998 3
8.3380003 -2.355 0.74299997 3
8.3549995 -2.4909999 0.74199998 3
8.368 -2.6359999 0.74199998 3
8.3140001 -2.401 0.74199998 3
8.3909998 -2.4990001 0.74199998 3
8.3959999 -2.52 0.74199998 3
8.401 -2.575 0.74199998 3
8.3360004 -2.345 0.74299997 3
8.1669998 -2.5940001 0.741 3
8.2089996 -2.5209999 0.741 3
8.4289999 -2.655 0.74199998 3
8.2539997 -2.494 0.74199998 3
8.375 -2.6029999 0.74199998 3
8.2419996 -2.4719999 0.74199998 3
8.3830004 -2.562 0.74199998 3
8.3290005 -2.325 0.74299997 3
8.3290005 -2.5810001 0.74199998 3
8.3520002 -2.3429999 0.74299997 3
8.3409996 -2.3599999 0.74299997 3
8.3400002 -2.4030001 0.74299997 3
8.1429996 -2.5569999 0.741 3
8.349 -2.6359999 0.74199998 3
8.2069998 -2.4489999 0.741 3
8.3269997 -2.648 0.741 3
8.184 -2.605 0.741 3
8.4259996 -2.5569999 0.74199998 3
8.3789997 -2.586 0.74199998 3
8.1470003 -2.5899999 0.74000001 3
8.2880001 -2.4630001 0.74199998 3
8.21 -2.596 0.741 3
8.3599997 -2.461 0.74199998 3
8.3330002 -2.598 0.74199998 3
8.2939997 -2.46 0.74199998 3
8.1800003 -2.5799999 0.741 3
8.3999996 -2.5929999 0.74199998 3
8.1929998 -2.553 0.741 3
8.4200001 -2.6329999 0.74199998 3
8.302 -2.4219999 0.74199998 3
8.3649998 -2.473 0.74199998 3
8.2989998 -2.4330001 0.74199998 3
8.3149996 -2.526 0.74199998 3
8.4259996 -2.569 0.74199998 3
8.4589996 -2.641 0.74199998 3
8.3199997 -2.6059999 0.741 3
8.1949997 -2.608 0.741 3
8.3979998 -2.674 0.74199998 3
8.1730003 -2.4909999 0.741 3
8.2349997 -2.5420001 0.741 3
8.3660002 -2.4979999 0.74199998 3
8.1280003 -2.619 0.74000001 3
8.2729998 -2.3670001 0.74199998 3
8.4280005 -2.675 0.74199998 3
8.2770004 -2.4660001 0.74199998 3
8.4589996 -2.661 0.74199998 3
8.3610001 -2.5580001 0.74199998 3
8.1809998 -2.53 0.741 3
8.2320004 -2.602 0.741 3
8.1940002 -2.5350001 0.741 3
8.2939997 -2.5020001 0.74199998 3
8.3039999 -2.3410001 0.74299997 3
8.2519999 -2.5910001 0.741 3
8.2659998 -2.4260001 0.74199998 3
8.3760004 -2.405 0.74299997 3
8.1700001 -2.572 0.741 3
8.3339996 -2.526 0.74199998 3
8.2329998 -2.6110001 0.741 3
8.4359999 -2.6199999 0.74199998 3
8.3850002 -2.487 0.74199998 3
8.3739996 -2.4200001 0.74299997 3
8.2620001 -2.6099999 0.741 3
8.3970003 -2.6570001 0.74199998 3
8.1709995 -2.5810001 0.741 3
8.2620001 -2.438 0.74199998 3
8.1479998 -2.5780001 0.741 3
8.1850004 -2.53 0.741 3
8.2440004 -2.4749999 0.74199998 3
8.3249998 -2.5610001 0.74199998 3
8.349 -2.6140001 0.74199998 3
8.3540001 -2.503 0.74199998 3
8.2799997 -2.5009999 0.74199998 3
8.2939997 -2.494 0.74199998 3
8.184 -2.52 0.741 3
8.2799997 -2.352 0.74199998 3
8.4440002 -2.6819999 0.74199998 3
8.3190002 -2.6329999 0.741 3
8.3610001 -2.4920001 0.74199998 3
8.2530003 -2.628 0.741 3
8.2770004 -2.642 0.741 3
8.4069996 -2.5439999 0.74199998 3
8.3719997 -2.54 0.74199998 3
8.3100004 -2.6029999 0.741 3
8.4069996 -2.5190001 0.74199998 3
8.191 -2.533 0.741 3
8.3879995 -2.4349999 0.74299997 3
8.3479996 -2.296 0.74299997 3
8.3459997 -2.3069999 0.74299997 3
8.3540001 -2.642 0.74199998 3
8.1389999 -2.6170001 0.74000001 3
8.1490002 -2.608 0.74000001 3
8.2609997 -2.599 0.741 3
8.1890001 -2.4909999 0.741 3
8.2229996 -2.5150001 0.741 3
8.3380003 -2.598 0.74199998 3
8.2650003 -2.4389999 0.74199998 3
8.4239998 -2.527 0.74299997 3
8.3179998 -2.428 0.74199998 3
8.2270002 -2.6229999 0.741 3
8.3269997 -2.5710001 0.74199998 3
8.1409998 -2.526 0.741 3
8.3129997 -2.3080001 0.74299997 3
8.2559996 -2.5350001 0.741 3
8.2810001 -2.3699999 0.74199998 3
8.184 -2.582 0.741 3
8.2959995 -2.3670001 0.74199998 3
8.3870001 -2.4200001 0.74299997 3
8.1700001 -2.622 0.74000001 3
8.3430004 -2.5569999 0.74199998 3
8.1949997 -2.6240001 0.741 3
8.2989998 -2.5999999 0.741 3
8.0869999 -2.5910001 0.74000001 3
8.2670002 -2.372 0.74199998 3
8.4370003 -2.6289999 0.74199998 3
8.4259996 -2.5699999 0.74199998 3
8.29 -2.4619999 0.74199998 3
8.3260002 -2.628 0.741 3
8.2580004 -2.5239999 0.741 3
8.3450003 -2.2850001 0.74299997 3
8.3179998 -2.348 0.74299997 3
8.2349997 -2.5940001 0.741 3
8.2080002 -2.575 0.741 3
8.1190004 -2.605 0.74000001 3
8.2740002 -2.549 0.741 3
8.3540001 -2.3729999 0.74299997 3
8.342 -2.4219999 0.74199998 3
8.4200001 -2.5020001 0.74299997 3
8.4069996 -2.625 0.74199998 3
8.1700001 -2.575 0.741 3
8.3310003 -2.5599999 0.74199998 3
8.349 -2.2939999 0.74299997 3
8.243 -2.437 0.74199998 3
8.375 -2.3929999 0.74299997 3
8.3640003 -2.4990001 0.74199998 3
8.408 -2.622 0.74199998 3
8.1879997 -2.5840001 0.741 3
8.1689997 -2.625 0.74000001 3
8.3459997 -2.473 0.74199998 3
8.3149996 -2.651 0.741 3
8.2869997 -2.6530001 0.741 3
8.302 -2.6010001 0.741 3
8.3649998 -2.4389999 0.74299997 3
8.2510004 -2.5339999 0.741 3
8.1960001 -2.598 0.741 3
8.3800001 -2.4530001 0.74299997 3
8.3439999 -2.3410001 0.74299997 3
8.3559999 -2.3970001 0.74299997 3
8.4110003 -2.4979999 0.74299997 3
8.4449997 -2.6670001 0.74199998 3
8.3999996 -2.4760001 0.74299997 3
8.3529997 -2.6470001 0.74199998 3
8.1759996 -2.5610001 0.741 3
8.2810001 -2.427 0.74199998 3
8.316 -2.4089999 0.74199998 3
8.1440001 -2.576 0.74000001 3
8.3439999 -2.661 0.741 3
8.1459999 -2.6170001 0.74000001 3
8.3739996 -2.5799999 0.74199998 3
8.2670002 -2.4519999 0.74199998 3
8.3610001 -2.4560001 0.74199998 3
8.2609997 -2.3710001 0.74199998 3
8.3999996 -2.665 0.74199998 3
8.2410002 -2.4360001 0.74199998 3
8.448 -2.631 0.74199998 3
8.3240004 -2.6029999 0.74199998 3
8.4350004 -2.641 0.74199998 3
8.2969999 -2.335 0.74299997 3
8.1110001 -2.6199999 0.74000001 3
8.3140001 -2.4319999 0.74199998 3
8.335 -2.6389999 0.741 3
8.2159996 -2.566 0.741 3
8.2729998 -2.4330001 0.74199998 3
8.2559996 -2.635 0.741 3
8.3240004 -2.5710001 0.74199998 3
8.3109999 -2.3169999 0.74299997 3
8.3500004 -2.4530001 0.74199998 3
8.3940001 -2.5780001 0.74199998 3
8.4099998 -2.671 0.74199998 3
8.2510004 -2.4549999 0.74199998 3
8.2379999 -2.4200001 0.74199998 3
8.401 -2.654 0.74199998 3
8.349 -2.3970001 0.74299997 3
8.1850004 -2.572 0.741 3
8.2530003 -2.4679999 0.74199998 3
8.2959995 -2.549 0.74199998 3
8.2950001 -2.3859999 0.74199998 3
8.1870003 -2.589 0.741 3
8.3450003 -2.4289999 0.74199998 3
8.2130003 -2.5009999 0.741 3
8.3280001 -2.424 0.74199998 3
8.3100004 -2.5369999 0.74199998 3
8.3109999 -2.6010001 0.741 3
8.408 -2.615 0.74199998 3
8.2799997 -2.562 0.741 3
8.2919998 -2.48 0.74199998 3
8.4200001 -2.559 0.74199998 3
8.4250002 -2.586 0.74199998 3
8.2939997 -2.5439999 0.74199998 3
8.2709999 -2.6359999 0.741 3
8.1780005 -2.5650001 0.741 3
8.1920004 -2.5209999 0.741 3
8.2939997 -2.5699999 0.741 3
8.323 -2.4360001 0.74199998 3
8.1809998 -2.4749999 0.741 3
8.2399998 -2.6059999 0.741 3
8.2790003 -2.563 0.741 3
8.1459999 -2.6300001 0.74000001 3
8.3999996 -2.562 0.74199998 3
8.3599997 -2.4879999 0.74199998 3
8.2360001 -2.4749999 0.74199998 3
8.257 -2.566 0.741 3
8.2709999 -2.5320001 0.74199998 3
8.257 -2.473 0.74199998 3
8.21 -2.566 0.741 3
8.3059998 -2.5869999 0.741 3
8.3500004 -2.566 0.74199998 3
8.2969999 -2.378 0.74199998 3
8.1949997 -2.5639999 0.741 3
8.3310003 -2.309 0.74299997 3
8.2390003 -2.631 0.741 3
8.2609997 -2.5309999 0.741 3
8.3780003 -2.487 0.74199998 3
8.1940002 -2.608 0.741 3
8.2709999 -2.4619999 0.74199998 3
8.3439999 -2.5639999 0.74199998 3
8.3660002 -2.4749999 0.74199998 3
8.1969995 -2.619 0.741 3
8.1599998 -2.5599999 0.741 3
8.3599997 -2.415 0.74299997 3
8.3140001 -2.378 0.74199998 3
8.3889999 -2.658 0.74199998 3
8.2449999 -2.526 0.741 3
8.2659998 -2.6259999 0.741 3
8.1899996 -2.48 0.741 3
8.3839998 -2.404 0.74299997 3
8.3780003 -2.6170001 0.74199998 3
8.1990004 -2.494 0.741 3
8.1789999 -2.572 0.741 3
8.3769999 -2.6670001 0.74199998 3
8.2810001 -2.536 0.74199998 3
8.3109999 -2.313 0.74299997 3
8.0799999 -2.6199999 0.74000001 3
8.3669996 -2.54 0.74199998 3
8.4200001 -2.645 0.74199998 3
8.1949997 -2.4920001 0.741 3
8.368 -2.3840001 0.74299997 3
8.3079996 -2.539 0.74199998 3
8.3009996 -2.5929999 0.741 3
8.2910004 -2.5899999 0.741 3
8.3629999 -2.4170001 0.74299997 3
8.2709999 -2.4419999 0.74199998 3
8.2309999 -2.6010001 0.741 3
8.3079996 -2.5710001 0.74199998 3
8.2720003 -2.483 0.74199998 3
8.302 -2.54 0.74199998 3
8.3120003 -2.3239999 0.74299997 3
8.2119999 -2.49 0.741 3
8.1879997 -2.635 0.741 3
8.302 -2.5899999 0.741 3
8.1730003 -2.5810001 0.741 3
8.3319998 -2.655 0.741 3
8.4099998 -2.579 0.74199998 3
8.2469997 -2.5780001 0.741 3
8.2840004 -2.4489999 0.74199998 3
8.3120003 -2.5639999 0.74199998 3
8.3210001 -2.507 0.74199998 3
8.3009996 -2.5569999 0.74199998 3
8.4099998 -2.5580001 0.74199998 3
8.3249998 -2.546 0.74199998 3
8.2390003 -2.421 0.74199998 3
8.3369999 -2.6170001 0.74199998 3
8.3570004 -2.4460001 0.74199998 3
8.2639999 -2.622 0.741 3
8.3290005 -2.434 0.74199998 3
8.3970003 -2.6700001 0.74199998 3
8.408 -2.619 0.74199998 3
8.0939999 -2.585 0.74000001 3
8.2620001 -2.5369999 0.741 3
8.3079996 -2.5339999 0.74199998 3
8.132 -2.536 0.741 3
8.4289999 -2.622 0.74199998 3
8.2620001 -2.5450001 0.741 3
8.3710003 -2.4159999 0.74299997 3
8.3760004 -2.5409999 0.74199998 3
8.3240004 -2.4349999 0.74199998 3
8.2530003 -2.5109999 0.741 3
8.4490004 -2.6240001 0.74199998 3
8.2559996 -2.4879999 0.74199998 3
8.1409998 -2.5380001 0.741 3
