# .PCD v0.7 - Point Cloud Data file format
VERSION 0.7
FIELDS x y z label
SIZE 4 4 4 4
TYPE F F F U
COUNT 1 1 1 1
WIDTH 1699
HEIGHT 1
VIEWPOINT 0 0 0 1 0 0 0
POINTS 1699
DATA ascii
3.1099999 -2.97 1.874 1
2.9560001 -2.9690001 1.64 1
3.0680001 -2.9690001 1.711 1
2.9719999 -2.97 1.694 1
3.118 -2.97 1.877 1
3.2 -2.9690001 1.7309999 1
3.1340001 -2.97 1.8839999 1
2.9349999 -2.9690001 1.633 1
3.1400001 -2.9690001 1.858 1
3.164 -2.9690001 1.752 1
3.0899999 -2.9690001 1.785 1
3.046 -2.97 1.8200001 1
2.9100001 -2.97 1.614 1
3.138 -2.97 1.955 1
3.0910001 -2.97 1.92 1
3.0209999 -2.97 1.814 1
3.1619999 -2.9690001 1.813 1
2.984 -2.9690001 1.631 1
3.102 -2.9690001 1.702 1
3.0120001 -2.97 1.73 1
2.9820001 -2.9690001 1.6390001 1
3.188 -2.9690001 1.821 1
2.9790001 -2.9690001 1.679 1
3.152 -2.9690001 1.698 1
3.0050001 -2.97 1.755 1
3.197 -2.9690001 1.763 1
3.135 -2.97 1.96 1
3.131 -2.9690001 1.84 1
3.158 -2.9690001 1.776 1
3.1129999 -2.9690001 1.723 1
3.1210001 -2.9690001 1.717 1
3.0680001 -2.9690001 1.704 1
3.1860001 -2.9690001 1.775 1
3.092 -2.9690001 1.711 1
2.997 -2.97 1.732 1
3.1329999 -2.97 1.893 1
2.977 -2.97 1.6950001 1
3.016 -2.9690001 1.7029999 1
3.1670001 -2.9690001 1.735 1
2.994 -2.9690001 1.7029999 1
3.1270001 -2.97 1.858 1
3.0650001 -2.97 1.877 1
2.9849999 -2.97 1.762 1
2.944 -2.97 1.6900001 1
3.175 -2.9690001 1.747 1
3.0139999 -2.9690001 1.707 1
3.0439999 -2.97 1.796 1
3.154 -2.9690001 1.766 1
3.063 -2.9690001 1.724 1
3.1229999 -2.9690001 1.725 1
3.066 -2.9690001 1.744 1
2.9430001 -2.97 1.669 1
3.125 -2.9690001 1.8150001 1
3.1800001 -2.9690001 1.684 1
3.2219999 -2.9690001 1.697 1
2.961 -2.97 1.726 1
3.0940001 -2.97 1.91 1
3.164 -2.9690001 1.7589999 1
3.1229999 -2.9690001 1.7690001 1
3.142 -2.97 1.948 1
2.924 -2.97 1.663 1
3.204 -2.9690001 1.701 1
3.1329999 -2.9690001 1.728 1
3.0650001 -2.9690001 1.673 1
3.059 -2.97 1.832 1
3.1860001 -2.9690001 1.832 1
3.1400001 -2.97 1.887 1
3.0810001 -2.9690001 1.658 1
3.0580001 -2.9690001 1.671 1
3.0320001 -2.9690001 1.733 1
3.158 -2.9690001 1.7460001 1
3.1630001 -2.9690001 1.709 1
3.1559999 -2.9690001 1.7640001 1
3.1619999 -2.9690001 1.808 1
3.1960001 -2.9690001 1.689 1
3.036 -2.97 1.781 1
3.089 -2.97 1.825 1
3.1040001 -2.9690001 1.772 1
2.9949999 -2.9690001 1.67 1
3.1400001 -2.9690001 1.675 1
3.0610001 -2.97 1.802 1
3.1559999 -2.9690001 1.751 1
3.029 -2.97 1.757 1
3.1199999 -2.97 1.87 1
2.987 -2.97 1.743 1
2.9820001 -2.9690001 1.6670001 1
3.1689999 -2.9690001 1.814 1
3.059 -2.97 1.829 1
3.0780001 -2.9690001 1.717 1
3.099 -2.9690001 1.722 1
3.152 -2.9690001 1.863 1
3.098 -2.9690001 1.719 1
2.9849999 -2.9690001 1.638 1
3.1530001 -2.9690001 1.682 1
3.1289999 -2.9690001 1.687 1
3.085 -2.9690001 1.768 1
3.1789999 -2.9690001 1.753 1
3.108 -2.97 1.906 1
2.9260001 -2.97 1.6289999 1
3.204 -2.9690001 1.7589999 1
3.132 -2.9690001 1.8430001 1
2.9300001 -2.97 1.6670001 1
3.0910001 -2.97 1.8789999 1
3.2149999 -2.9690001 1.7180001 1
3.1730001 -2.9690001 1.717 1
3.175 -2.9690001 1.719 1
3.1800001 -2.9690001 1.707 1
3.056 -2.9690001 1.752 1
2.97 -2.97 1.7410001 1
3.1259999 -2.97 1.931 1
3.0929999 -2.97 1.825 1
3.1689999 -2.9690001 1.681 1
3.1199999 -2.9690001 1.829 1
3.099 -2.97 1.913 1
3.221 -2.9690001 1.706 1
3.039 -2.97 1.772 1
3.2179999 -2.9690001 1.704 1
3.0539999 -2.97 1.844 1
3.118 -2.9690001 1.836 1
3.033 -2.97 1.819 1
3.161 -2.9690001 1.794 1
3.0250001 -2.97 1.76 1
3.135 -2.97 1.9529999 1
3.1389999 -2.9690001 1.673 1
3.0109999 -2.97 1.795 1
3.1270001 -2.9690001 1.749 1
3.1819999 -2.9690001 1.77 1
2.938 -2.97 1.647 1
3.0090001 -2.9690001 1.715 1
3.0650001 -2.97 1.7869999 1
3.164 -2.9690001 1.852 1
3.03 -2.97 1.783 1
2.9560001 -2.9690001 1.632 1
3.0869999 -2.9690001 1.719 1
2.9820001 -2.9690001 1.6569999 1
3.1370001 -2.97 1.882 1
3.0669999 -2.9690001 1.7460001 1
3.184 -2.9690001 1.683 1
2.918 -2.97 1.619 1
3.1300001 -2.97 1.95 1
3.0539999 -2.9690001 1.729 1
3.0280001 -2.97 1.786 1
3.2049999 -2.9690001 1.773 1
3.142 -2.97 1.9220001 1
3.0090001 -2.97 1.768 1
3.135 -2.9690001 1.845 1
3.1440001 -2.9690001 1.86 1
2.944 -2.97 1.668 1
3.0150001 -2.97 1.761 1
3.1359999 -2.9690001 1.7970001 1
3.096 -2.97 1.845 1
3.141 -2.9690001 1.698 1
3.085 -2.9690001 1.796 1
2.9419999 -2.97 1.673 1
3.1010001 -2.9690001 1.784 1
3.0150001 -2.9690001 1.6619999 1
3.154 -2.9690001 1.739 1
3.204 -2.9690001 1.6900001 1
3.089 -2.97 1.864 1
2.905 -2.97 1.636 1
3.1619999 -2.9690001 1.7079999 1
3.1619999 -2.9690001 1.699 1
3.095 -2.9690001 1.751 1
2.9430001 -2.9719999 2.056 1
2.98 -2.971 2.059 1
3.0550001 -2.97 2.0610001 1
2.9949999 -2.9690001 2.214 1
2.9230001 -2.971 2.1500001 1
3.043 -2.971 2.0469999 1
2.954 -2.9719999 2.076 1
3.0020001 -2.971 2.0569999 1
2.8929999 -2.9719999 2.085 1
2.9549999 -2.971 2.1300001 1
2.881 -2.973 2.079 1
3.017 -2.9679999 2.247 1
3.0569999 -2.9690001 2.152 1
3.026 -2.9690001 2.1919999 1
3.0079999 -2.97 2.1329999 1
2.9089999 -2.9719999 2.082 1
2.9349999 -2.97 2.164 1
3.0280001 -2.97 2.0739999 1
3.0179999 -2.97 2.1110001 1
2.9649999 -2.971 2.1110001 1
3.0120001 -2.9690001 2.1860001 1
2.967 -2.9719999 2.062 1
2.9460001 -2.971 2.145 1
3.072 -2.9690001 2.1170001 1
2.927 -2.9719999 2.069 1
3.0450001 -2.9690001 2.1359999 1
3.0899999 -2.9690001 2.109 1
3.027 -2.97 2.089 1
3.0150001 -2.97 2.1289999 1
3.026 -2.9690001 2.1359999 1
3.0139999 -2.97 2.1370001 1
3.029 -2.97 2.072 1
3.0209999 -2.9679999 2.25 1
3.046 -2.971 2.026 1
3.02 -2.9690001 2.178 1
3.0339999 -2.9679999 2.2279999 1
3.062 -2.97 2.0610001 1
2.9979999 -2.971 2.0550001 1
3.05 -2.9690001 2.141 1
2.9719999 -2.97 2.138 1
2.9200001 -2.9719999 2.059 1
3.109 -2.97 2.0320001 1
3.01 -2.97 2.1429999 1
3.063 -2.9690001 2.112 1
3.0510001 -2.971 2.023 1
3.016 -2.97 2.1340001 1
3.0409999 -2.9679999 2.1949999 1
3.082 -2.9690001 2.1070001 1
3.062 -2.9690001 2.0999999 1
3.1340001 -2.97 2.023 1
3.0569999 -2.97 2.0869999 1
3.072 -2.97 2.0810001 1
2.8959999 -2.9719999 2.1059999 1
3.0910001 -2.97 2.0190001 1
2.947 -2.9719999 2.0580001 1
2.993 -2.971 2.059 1
3.0450001 -2.9679999 2.177 1
2.8770001 -2.973 2.0880001 1
3.0550001 -2.9679999 2.1849999 1
2.8840001 -2.9719999 2.115 1
3.069 -2.97 2.0369999 1
3.0899999 -2.97 2.046 1
3.1029999 -2.97 2.03 1
3.0120001 -2.971 2.063 1
2.96 -2.97 2.184 1
2.9330001 -2.9719999 2.0599999 1
2.9779999 -2.9719999 2.0510001 1
3.066 -2.971 2.0350001 1
3.0940001 -2.97 2.069 1
2.9660001 -2.971 2.089 1
2.983 -2.97 2.1619999 1
2.9809999 -2.971 2.0810001 1
3.1099999 -2.97 2.0439999 1
3.1140001 -2.97 2.036 1
3.052 -2.97 2.0599999 1
3.029 -2.971 2.0480001 1
3.0480001 -2.971 2.027 1
2.9070001 -2.9719999 2.112 1
3.029 -2.971 2.036 1
2.9679999 -2.971 2.072 1
3.0280001 -2.97 2.072 1
2.994 -2.9690001 2.201 1
3.112 -2.97 2.0209999 1
2.9489999 -2.971 2.135 1
3.0810001 -2.97 2.036 1
2.944 -2.97 2.1659999 1
2.934 -2.9719999 2.0780001 1
3.0650001 -2.971 2.026 1
3.118 -2.97 2.01 1
2.951 -2.9719999 2.079 1
2.9849999 -2.971 2.086 1
3.109 -2.9690001 2.0699999 1
3.0769999 -2.9690001 2.119 1
3.0350001 -2.9690001 2.1440001 1
3.0569999 -2.9690001 2.1470001 1
3.046 -2.9690001 2.1559999 1
2.901 -2.9719999 2.1199999 1
2.9400001 -2.971 2.131 1
3.036 -2.97 2.1010001 1
2.95 -2.971 2.1170001 1
2.973 -2.97 2.1400001 1
3.095 -2.97 2.02 1
2.8959999 -2.9719999 2.0910001 1
2.927 -2.9719999 2.076 1
2.8929999 -2.9719999 2.085 1
2.971 -2.971 2.1199999 1
3.003 -2.9690001 2.2030001 1
2.9630001 -2.97 2.154 1
3.0139999 -2.9679999 2.237 1
3.027 -2.97 2.0810001 1
3.0039999 -2.971 2.0650001 1
2.977 -2.971 2.0680001 1
3.03 -2.97 2.0940001 1
2.9949999 -2.971 2.092 1
3.0539999 -2.971 2.0420001 1
3.138 -2.97 2.016 1
2.9330001 -2.9719999 2.0799999 1
2.9289999 -2.9719999 2.0639999 1
2.9100001 -2.9719999 2.108 1
2.9890001 -2.97 2.112 1
3.017 -2.9679999 2.233 1
3.122 -2.97 2.0380001 1
3.02 -2.9690001 2.155 1
2.849 -2.973 2.069 1
2.9949999 -2.97 2.1029999 1
3.0079999 -2.9690001 2.1849999 1
3.0880001 -2.9690001 2.0769999 1
3.007 -2.9690001 2.1700001 1
3.033 -2.971 2.0480001 1
2.9630001 -2.9719999 2.0469999 1
2.8559999 -2.973 2.0829999 1
3.0150001 -2.9690001 2.191 1
3 -2.97 2.138 1
2.9649999 -2.9719999 2.0669999 1
3.003 -2.971 2.052 1
3.029 -2.971 2.046 1
2.9030001 -2.9719999 2.122 1
2.915 -2.971 2.1470001 1
2.9260001 -2.971 2.152 1
2.993 -2.97 2.1259999 1
3.0220001 -2.971 2.03 1
3.086 -2.9690001 2.1040001 1
2.9349999 -2.9719999 2.053 1
3.0050001 -2.9679999 2.2309999 1
2.9990001 -2.97 2.108 1
3.072 -2.97 2.0369999 1
3.125 -2.97 2.013 1
2.9070001 -2.973 2.062 1
2.9070001 -2.9719999 2.0780001 1
3.086 -2.97 2.039 1
3.0220001 -2.97 2.135 1
2.9630001 -2.9690001 2.191 1
3.033 -2.9690001 2.1570001 1
3.013 -2.97 2.132 1
3.0280001 -2.97 2.119 1
3.141 -2.97 2.0050001 1
2.9000001 -2.9719999 2.108 1
2.9849999 -2.9690001 2.2090001 1
3.046 -2.971 2.036 1
2.994 -2.971 2.089 1
3.0409999 -2.97 2.1140001 1
2.9879999 -2.9690001 2.1860001 1
3.085 -2.9690001 2.0999999 1
3.033 -2.971 2.056 1
3.0469999 -2.9679999 2.184 1
2.948 -2.971 2.1400001 1
3.079 -2.97 2.049 1
2.9130001 -2.973 2.0569999 1
3.098 -2.97 2.0469999 1
3.089 -2.97 2.0469999 1
3.0139999 -2.971 2.05 1
3.023 -2.971 2.05 1
3.016 -2.97 2.138 1
3.069 -2.9690001 2.138 1
2.9990001 -2.97 2.1170001 1
3.056 -2.9690001 2.1300001 1
2.9200001 -2.9719999 2.0539999 1
2.9820001 -2.97 2.1630001 1
3.023 -2.9690001 2.1689999 1
3.053 -2.97 2.062 1
3.082 -2.9690001 2.092 1
2.918 -2.971 2.1240001 1
2.993 -2.971 2.092 1
3.079 -2.971 2.0190001 1
3.122 -2.9690001 2.049 1
2.904 -2.973 2.0569999 1
3.0650001 -2.9690001 2.1229999 1
2.927 -2.9719999 2.0780001 1
3.0369999 -2.9690001 2.131 1
3.0380001 -2.97 2.0769999 1
2.902 -2.973 2.0569999 1
3.039 -2.971 2.0450001 1
3.016 -2.971 2.0480001 1
3.0710001 -2.9690001 2.102 1
2.881 -2.9719999 2.0999999 1
2.9779999 -2.971 2.0899999 1
2.96 -2.9719999 2.059 1
3.0109999 -2.9679999 2.233 1
3.086 -2.9690001 2.1029999 1
3.0380001 -2.971 2.033 1
3.0020001 -2.971 2.0450001 1
2.859 -2.973 2.076 1
3.0969999 -2.97 2.0369999 1
2.9159999 -2.9719999 2.0999999 1
3.026 -2.97 2.089 1
3.1240001 -2.97 2.0409999 1
3.0020001 -2.9690001 2.2060001 1
3.052 -2.97 2.089 1
3.02 -2.9690001 2.1670001 1
3.1099999 -2.9690001 2.066 1
3.0439999 -2.9679999 2.177 1
3.0669999 -2.9690001 2.105 1
2.9679999 -2.97 2.1819999 1
3.003 -2.971 2.043 1
3.0699999 -2.9690001 2.115 1
2.9649999 -2.97 2.184 1
3.013 -2.97 2.1059999 1
3.0250001 -2.9690001 2.1900001 1
2.9960001 -2.97 2.1289999 1
2.971 -2.971 2.1129999 1
3.043 -2.9679999 2.2019999 1
3.0599999 -2.97 2.096 1
3.016 -2.9679999 2.2090001 1
2.954 -2.971 2.086 1
3.085 -2.9690001 2.1170001 1
3.066 -2.97 2.0550001 1
2.9760001 -2.971 2.069 1
3.053 -2.971 2.0309999 1
3.0669999 -2.97 2.0569999 1
3.1059999 -2.97 2.05 1
3.0409999 -2.97 2.0739999 1
3.02 -2.9690001 2.1630001 1
3.0139999 -2.9679999 2.2409999 1
3.017 -2.97 2.096 1
2.9909999 -2.9690001 2.1789999 1
3.0350001 -2.97 2.098 1
3.0699999 -2.97 2.0910001 1
2.964 -2.97 2.1389999 1
3.033 -2.9679999 2.227 1
2.9820001 -2.9719999 2.0469999 1
2.9159999 -2.971 2.1389999 1
3.096 -2.97 2.0190001 1
2.9760001 -2.971 2.0999999 1
2.8659999 -2.973 2.096 1
2.957 -2.97 2.168 1
3.052 -2.97 2.099 1
3.043 -2.9690001 2.1289999 1
2.9949999 -2.971 2.0680001 1
3.03 -2.971 2.0309999 1
3.0179999 -2.9679999 2.2409999 1
2.937 -2.9719999 2.0940001 1
3.0190001 -2.9690001 2.1600001 1
2.9100001 -2.971 2.1289999 1
2.961 -2.971 2.095 1
2.987 -2.971 2.0510001 1
3.1029999 -2.97 2.046 1
2.908 -2.9719999 2.0669999 1
2.993 -2.97 2.1619999 1
3.006 -2.97 2.095 1
3.043 -2.97 2.0669999 1
2.9449999 -2.971 2.1300001 1
3.016 -2.9690001 2.198 1
2.9549999 -2.9719999 2.069 1
2.9330001 -2.9719999 2.059 1
3.0339999 -2.9690001 2.161 1
3.026 -2.9690001 2.1630001 1
3.0799999 -2.97 2.063 1
2.9119999 -2.9719999 2.0999999 1
2.977 -2.97 2.1500001 1
2.9590001 -2.971 2.1170001 1
2.924 -2.9719999 2.0869999 1
3.043 -2.9679999 2.2079999 1
3.0409999 -2.9690001 2.1300001 1
3.0190001 -2.9679999 2.25 1
3.1170001 -2.97 2.0309999 1
3.029 -2.97 2.0840001 1
3.0220001 -2.9690001 2.1719999 1
3.007 -2.9679999 2.211 1
2.9790001 -2.971 2.089 1
3.0179999 -2.9679999 2.2160001 1
3.003 -2.971 2.086 1
3.0350001 -2.97 2.0869999 1
3.0109999 -2.971 2.0610001 1
3.026 -2.9690001 2.187 1
2.9579999 -2.971 2.122 1
2.934 -2.971 2.1400001 1
3.073 -2.9690001 2.1470001 1
2.918 -2.971 2.1440001 1
2.973 -2.9719999 2.052 1
3.1040001 -2.9690001 2.0780001 1
3.0050001 -2.9690001 2.187 1
2.9449999 -2.971 2.132 1
3.099 -2.97 2.0539999 1
3.0739999 -2.97 2.0699999 1
3.053 -2.97 2.0969999 1
3.017 -2.97 2.1229999 1
2.9990001 -2.9690001 2.2079999 1
3.01 -2.97 2.089 1
3.0009999 -2.971 2.0940001 1
3.0650001 -2.9690001 2.154 1
3 -2.97 2.142 1
3 -2.9690001 2.1800001 1
3.0439999 -2.9690001 2.1659999 1
2.9170001 -2.971 2.1300001 1
3.0090001 -2.9690001 2.1600001 1
2.8829999 -2.9719999 2.109 1
3.046 -2.971 2.043 1
3.029 -2.97 2.075 1
3.0910001 -2.9690001 2.099 1
2.8840001 -2.9719999 2.112 1
3.043 -2.9690001 2.1730001 1
3.056 -2.9690001 2.1229999 1
2.9530001 -2.9719999 2.072 1
2.8829999 -2.973 2.066 1
3.026 -2.97 2.125 1
2.9779999 -2.971 2.072 1
2.9760001 -2.9690001 2.197 1
3.0350001 -2.97 2.0699999 1
3.0580001 -2.9690001 2.161 1
2.862 -2.973 2.0840001 1
3.0109999 -2.9690001 2.1800001 1
2.9619999 -2.97 2.1329999 1
2.9949999 -2.97 2.105 1
3.0209999 -2.9690001 2.1459999 1
2.937 -2.9719999 2.0739999 1
3.072 -2.9690001 2.0999999 1
3.0179999 -2.97 2.085 1
2.8499999 -2.973 2.079 1
2.9330001 -2.9719999 2.0940001 1
3.0420001 -2.9679999 2.21 1
3.1240001 -2.97 2.0239999 1
2.97 -2.9719999 2.053 1
2.9949999 -2.971 2.0739999 1
3.0550001 -2.9690001 2.155 1
2.967 -2.97 2.154 1
2.9319999 -2.971 2.112 1
3.098 -2.9690001 2.0810001 1
3.0550001 -2.9690001 2.1340001 1
2.9579999 -2.971 2.0799999 1
3.0450001 -2.97 2.0569999 1
2.961 -2.971 2.125 1
3.017 -2.9690001 2.1989999 1
3.105 -2.97 2.0239999 1
2.9119999 -2.973 2.0550001 1
2.984 -2.97 2.145 1
3.0309999 -2.967 0.67400002 1
2.96 -2.967 0.61299998 1
3.1530001 -2.967 0.85799998 1
2.8840001 -2.9679999 0.634 1
3.115 -2.9660001 0.71200001 1
2.9979999 -2.967 0.74000001 1
3.1600001 -2.9660001 0.838 1
3.1270001 -2.9660001 0.68599999 1
2.892 -2.9679999 0.62599999 1
2.9319999 -2.9679999 0.648 1
3.138 -2.9660001 0.77600002 1
3.1129999 -2.9660001 0.74299997 1
3.0999999 -2.9660001 0.56800002 1
2.925 -2.9679999 0.63 1
2.9960001 -2.967 0.685 1
3.0810001 -2.9660001 0.65700001 1
2.9260001 -2.9679999 0.634 1
3.1140001 -2.9660001 0.62400001 1
3.0550001 -2.967 0.78399998 1
2.96 -2.967 0.66399997 1
3.036 -2.967 0.74400002 1
3.0769999 -2.9660001 0.68000001 1
2.9960001 -2.967 0.58899999 1
3.125 -2.9660001 0.73400003 1
3.1240001 -2.967 0.80400002 1
3.039 -2.967 0.64999998 1
3.1059999 -2.9660001 0.70700002 1
3.1129999 -2.9660001 0.68800002 1
2.948 -2.9679999 0.69 1
3.0880001 -2.967 0.75400001 1
3.0139999 -2.967 0.64700001 1
2.948 -2.9679999 0.65700001 1
2.9549999 -2.9679999 0.667 1
3.109 -2.9660001 0.58999997 1
3.1270001 -2.9660001 0.68300003 1
3.1259999 -2.967 0.79500002 1
3.0780001 -2.967 0.708 1
3.027 -2.9660001 0.57800001 1
2.97 -2.9679999 0.70200002 1
3.154 -2.9660001 0.80199999 1
3.006 -2.967 0.68099999 1
3.003 -2.967 0.62699997 1
3.0380001 -2.967 0.676 1
3.0599999 -2.967 0.77999997 1
3.026 -2.967 0.71100003 1
3.0610001 -2.967 0.72899997 1
3.141 -2.967 0.83999997 1
3.039 -2.967 0.685 1
3.1170001 -2.9660001 0.64600003 1
2.9990001 -2.967 0.611 1
3.0439999 -2.9660001 0.59500003 1
3.1010001 -2.9660001 0.61400002 1
2.9860001 -2.967 0.69700003 1
3.0139999 -2.967 0.57499999 1
3.1099999 -2.9660001 0.671 1
3.1229999 -2.9660001 0.71799999 1
2.9749999 -2.967 0.62300003 1
2.888 -2.9679999 0.65399998 1
3.0899999 -2.9660001 0.61799997 1
3.115 -2.9660001 0.74000001 1
3.1170001 -2.9660001 0.75800002 1
2.9430001 -2.9679999 0.66299999 1
3.086 -2.967 0.81 1
3.1240001 -2.967 0.82599998 1
2.9820001 -2.967 0.66299999 1
3.105 -2.9660001 0.59200001 1
2.9159999 -2.9679999 0.66600001 1
3.099 -2.9660001 0.60600001 1
3.115 -2.967 0.82599998 1
3.0610001 -2.967 0.79100001 1
2.9690001 -2.967 0.66100001 1
3.053 -2.967 0.64399999 1
3.046 -2.967 0.68199998 1
3.109 -2.967 0.81099999 1
2.957 -2.9679999 0.70200002 1
3.1070001 -2.9660001 0.69800001 1
3.0610001 -2.9660001 0.59600002 1
2.9920001 -2.967 0.65100002 1
3.066 -2.967 0.76700002 1
3.0999999 -2.9660001 0.583 1
3.085 -2.9660001 0.55699998 1
3.0139999 -2.967 0.625 1
3.1029999 -2.9660001 0.70700002 1
2.934 -2.9679999 0.69099998 1
3.0469999 -2.967 0.74000001 1
3.1210001 -2.967 0.82300001 1
3.099 -2.9660001 0.65799999 1
3.108 -2.9660001 0.71799999 1
2.941 -2.9679999 0.69 1
3.0669999 -2.9660001 0.565 1
3.1429999 -2.9660001 0.81400001 1
2.941 -2.967 0.63099998 1
2.9960001 -2.967 0.71100003 1
3.056 -2.9660001 0.56199998 1
3.059 -2.967 0.66900003 1
2.9679999 -2.967 0.611 1
2.964 -2.967 0.63 1
2.961 -2.9679999 0.70700002 1
2.994 -2.967 0.66500002 1
2.908 -2.9679999 0.625 1
3.0899999 -2.9660001 0.59100002 1
3.0090001 -2.967 0.61500001 1
3.0650001 -2.967 0.79100001 1
3.1099999 -2.967 0.80400002 1
2.9319999 -2.9679999 0.62199998 1
3.085 -2.9660001 0.69599998 1
3.1159999 -2.967 0.773 1
3.0840001 -2.9660001 0.611 1
2.9389999 -2.9679999 0.65799999 1
3.0090001 -2.967 0.64499998 1
3.0880001 -2.9660001 0.625 1
2.9849999 -2.967 0.70700002 1
3.0739999 -2.9660001 0.60100001 1
3.063 -2.967 0.75 1
2.964 -2.967 0.63 1
2.925 -2.9679999 0.63700002 1
3.0550001 -2.967 0.71399999 1
3.027 -2.967 0.72500002 1
3.1099999 -2.9660001 0.61900002 1
3.0869999 -2.9660001 0.66299999 1
3.0910001 -2.967 0.74800003 1
3.0799999 -2.967 0.69999999 1
3.1270001 -2.9660001 0.68800002 1
2.954 -2.967 0.61199999 1
3.007 -2.967 0.71600002 1
3.0769999 -2.967 0.78600001 1
3.0669999 -2.967 0.671 1
3.132 -2.967 0.81099999 1
2.994 -2.967 0.69999999 1
2.892 -2.9679999 0.648 1
3.053 -2.967 0.75 1
3.089 -2.967 0.80900002 1
3.017 -2.967 0.70200002 1
3.0840001 -2.9660001 0.63200003 1
3.039 -2.9660001 0.58399999 1
3.052 -2.967 0.65499997 1
2.9909999 -2.967 0.60799998 1
3.033 -2.967 0.72799999 1
3.1389999 -2.9660001 0.73000002 1
2.98 -2.967 0.69099998 1
2.9649999 -2.967 0.62900001 1
3.0580001 -2.9660001 0.64399999 1
3.1259999 -2.9660001 0.70599997 1
3.0109999 -2.967 0.61699998 1
3.1059999 -2.9660001 0.65499997 1
2.895 -2.9679999 0.62699997 1
3.086 -2.967 0.73900002 1
3.0680001 -2.9660001 0.57599998 1
3.0929999 -2.9660001 0.69999999 1
2.9200001 -2.9679999 0.63700002 1
3.0680001 -2.967 0.71899998 1
3.1170001 -2.9660001 0.72500002 1
3.1159999 -2.9660001 0.64099997 1
3.006 -2.967 0.70899999 1
3.0050001 -2.967 0.74699998 1
3.076 -2.9660001 0.56199998 1
3.122 -2.9660001 0.72100002 1
3.0510001 -2.9660001 0.61900002 1
3.1199999 -2.9660001 0.77600002 1
2.9879999 -2.967 0.634 1
2.9860001 -2.967 0.67199999 1
3.0250001 -2.967 0.68800002 1
3.1340001 -2.9660001 0.72399998 1
3.0680001 -2.967 0.708 1
3.1440001 -2.9660001 0.81699997 1
3.1659999 -2.9660001 0.85900003 1
2.9719999 -2.967 0.63099998 1
2.97 -2.967 0.66399997 1
2.9879999 -2.967 0.699 1
3.0650001 -2.9660001 0.59600002 1
3.119 -2.9660001 0.68000001 1
3.003 -2.967 0.59500003 1
3.1329999 -2.9660001 0.708 1
3.142 -2.967 0.82200003 1
3.0639999 -2.967 0.71600002 1
3.036 -2.967 0.61400002 1
3.085 -2.967 0.74199998 1
3.105 -2.9660001 0.67000002 1
3.063 -2.967 0.685 1
3.0409999 -2.967 0.759 1
3.0150001 -2.967 0.634 1
3.086 -2.9660001 0.54799998 1
3.023 -2.967 0.68300003 1
2.994 -2.967 0.68599999 1
3.063 -2.967 0.78200001 1
3.118 -2.9660001 0.75800002 1
3.0079999 -2.967 0.634 1
3.102 -2.967 0.80500001 1
3.082 -2.9660001 0.64999998 1
3.1670001 -2.9660001 0.85699999 1
3.0420001 -2.967 0.75999999 1
3.05 -2.9660001 0.60299999 1
2.971 -2.967 0.671 1
2.997 -2.967 0.64099997 1
3.1070001 -2.9660001 0.60399997 1
2.95 -2.967 0.63599998 1
2.99 -2.967 0.72100002 1
3.132 -2.9660001 0.74599999 1
3.053 -2.967 0.67199999 1
3.0810001 -2.9660001 0.69199997 1
3.105 -2.9660001 0.67500001 1
3.036 -2.967 0.727 1
3.0880001 -2.9660001 0.64600003 1
3.098 -2.9660001 0.65600002 1
3.049 -2.9660001 0.59899998 1
3.082 -2.967 0.77899998 1
3.0190001 -2.967 0.60000002 1
3.029 -2.967 0.602 1
3.0339999 -2.967 0.74599999 1
3.0309999 -2.967 0.74900001 1
3.096 -2.9660001 0.56199998 1
3.1300001 -2.9660001 0.73799998 1
3.0929999 -2.967 0.727 1
2.9089999 -2.9679999 0.639 1
3.0409999 -2.967 0.75099999 1
3.03 -2.967 0.62800002 1
2.9960001 -2.967 0.67699999 1
3.0929999 -2.967 0.81099999 1
3.0550001 -2.967 0.72799999 1
3.109 -2.9660001 0.60799998 1
2.97 -2.967 0.653 1
2.9779999 -2.967 0.59600002 1
2.9790001 -2.967 0.653 1
3.0999999 -2.967 0.76200002 1
3.056 -2.9660001 0.57200003 1
3.1129999 -2.9660001 0.68099999 1
3.099 -2.9660001 0.69 1
3.0869999 -2.9660001 0.579 1
3.033 -2.967 0.63700002 1
3.0869999 -2.9660001 0.61199999 1
3.0810001 -2.9660001 0.58600003 1
3.1199999 -2.9660001 0.73299998 1
3.003 -2.967 0.72399998 1
3.0569999 -2.967 0.69700003 1
3.0650001 -2.967 0.745 1
2.9860001 -2.967 0.63700002 1
2.9200001 -2.9679999 0.62900001 1
2.987 -2.967 0.70599997 1
3.142 -2.9660001 0.79799998 1
2.994 -2.967 0.62900001 1
3.0840001 -2.9660001 0.56 1
2.9630001 -2.967 0.65399998 1
3.0469999 -2.9660001 0.611 1
3.0680001 -2.967 0.699 1
3.0009999 -2.967 0.58200002 1
3.033 -2.967 0.68800002 1
3.082 -2.967 0.79000002 1
3.006 -2.967 0.69499999 1
3.0929999 -2.967 0.77700001 1
3.1589999 -2.9660001 0.83899999 1
3.0899999 -2.967 0.75700003 1
3.01 -2.967 0.69400001 1
2.908 -2.9679999 0.63499999 1
3.132 -2.9660001 0.727 1
2.8829999 -2.9679999 0.65100002 1
3.122 -2.967 0.83899999 1
3.1300001 -2.9660001 0.71499997 1
2.9920001 -2.967 0.72399998 1
3.1140001 -2.9660001 0.68599999 1
3.0739999 -2.9660001 0.66399997 1
3.0639999 -2.967 0.70200002 1
2.9860001 -2.967 0.60399997 1
2.9849999 -2.967 0.66000003 1
3.059 -2.967 0.69099998 1
2.9979999 -2.967 0.58399999 1
3.096 -2.9660001 0.55000001 1
3.1619999 -2.9660001 0.83399999 1
3.132 -2.9660001 0.77399999 1
3.099 -2.967 0.74699998 1
3.046 -2.967 0.72500002 1
3.0539999 -2.9660001 0.61299998 1
3.1140001 -2.9660001 0.68599999 1
3.1229999 -2.9660001 0.70999998 1
2.9820001 -2.967 0.70499998 1
3.0350001 -2.967 0.60900003 1
3.0450001 -2.9660001 0.56400001 1
3.0650001 -2.967 0.67199999 1
2.9530001 -2.967 0.61799997 1
2.9849999 -2.967 0.625 1
3.0550001 -2.967 0.70499998 1
3.0050001 -2.967 0.63200003 1
2.904 -2.9679999 0.62599999 1
3.1300001 -2.9660001 0.72799999 1
3.098 -2.9660001 0.60799998 1
3.086 -2.9660001 0.597 1
2.9760001 -2.967 0.60399997 1
3.049 -2.967 0.68400002 1
3.072 -2.967 0.77499998 1
3.0090001 -2.967 0.58399999 1
3.0899999 -2.967 0.787 1
3.0899999 -2.9660001 0.55500001 1
3.0409999 -2.967 0.62900001 1
2.944 -2.9679999 0.67500001 1
3.1029999 -2.967 0.78200001 1
2.921 -2.9679999 0.63 1
3.013 -2.967 0.69499999 1
3.096 -2.9660001 0.597 1
3.003 -2.967 0.60799998 1
3.043 -2.967 0.75400001 1
2.9000001 -2.9679999 0.62800002 1
3.076 -2.9660001 0.60000002 1
3.1329999 -2.9660001 0.755 1
3.119 -2.9660001 0.639 1
3.089 -2.9660001 0.63999999 1
3.0239999 -2.967 0.63300002 1
2.98 -2.967 0.67699999 1
3.0840001 -2.9660001 0.61400002 1
3.1259999 -2.967 0.83600003 1
2.9890001 -2.967 0.611 1
2.994 -2.967 0.67900002 1
3.0869999 -2.9660001 0.588 1
3.0910001 -2.9660001 0.59500003 1
3.0599999 -2.967 0.722 1
3.086 -2.967 0.78200001 1
3.1159999 -2.9660001 0.70300001 1
3.079 -2.9660001 0.63200003 1
3.0869999 -2.9660001 0.588 1
3.013 -2.967 0.58200002 1
3.003 -2.967 0.68900001 1
2.9909999 -2.967 0.64899999 1
2.9579999 -2.9679999 0.68000001 1
3.1110001 -2.967 0.82499999 1
2.9530001 -2.9679999 0.67000002 1
2.9519999 -2.967 0.62800002 1
3.105 -2.9660001 0.61799997 1
3.0899999 -2.967 0.75400001 1
3.1159999 -2.9660001 0.70200002 1
2.931 -2.9679999 0.63 1
3.023 -2.967 0.634 1
3.052 -2.967 0.70999998 1
2.927 -2.9679999 0.63599998 1
3.148 -2.9660001 0.773 1
3.0050001 -2.967 0.67500001 1
3.142 -2.9660001 0.75800002 1
3.1229999 -2.967 0.83899999 1
2.9920001 -2.967 0.59600002 1
3.0350001 -2.967 0.69400001 1
3.0829999 -2.967 0.72000003 1
2.9100001 -2.9679999 0.667 1
3.0569999 -2.9660001 0.62400001 1
2.99 -2.967 0.64499998 1
3.007 -2.967 0.62800002 1
3.0880001 -2.9660001 0.662 1
3.1170001 -2.967 0.81699997 1
3.0799999 -2.9660001 0.54900002 1
3.04 -2.967 0.67400002 1
3.0769999 -2.967 0.78299999 1
3.0599999 -2.967 0.74199998 1
3.086 -2.967 0.71499997 1
3.049 -2.967 0.69700003 1
3.073 -2.967 0.79100001 1
3.1059999 -2.9660001 0.685 1
3.0840001 -2.967 0.77600002 1
3.069 -2.967 0.77399999 1
2.9449999 -2.9679999 0.64999998 1
3.0899999 -2.9660001 0.69800001 1
3.03 -2.967 0.71499997 1
3.108 -2.9660001 0.61500001 1
3.0550001 -2.967 0.74599999 1
3.115 -2.967 0.82599998 1
3.0469999 -2.967 0.64999998 1
3.0829999 -2.967 0.74800003 1
3.0899999 -2.9660001 0.63 1
3.161 -2.9660001 0.86000001 1
2.9530001 -2.967 0.62199998 1
3.096 -2.9660001 0.68099999 1
3.125 -2.967 0.80699998 1
3.082 -2.967 0.77600002 1
3.0510001 -2.967 0.64200002 1
3.1570001 -2.967 0.85299999 1
2.9749999 -2.967 0.70200002 1
2.9000001 -2.9679999 0.653 1
2.9289999 -2.9679999 0.653 1
3.092 -2.9660001 0.60799998 1
3.007 -2.967 0.71399999 1
2.9349999 -2.967 0.61500001 1
3.0880001 -2.9660001 0.58200002 1
3.062 -2.9660001 0.60600001 1
3.082 -2.967 0.71200001 1
3.122 -2.9660001 0.69499999 1
3.059 -2.9660001 0.56199998 1
3.138 -2.9660001 0.76099998 1
3.0239999 -2.967 0.611 1
3.1040001 -2.9660001 0.736 1
3.0510001 -2.967 0.69300002 1
3.072 -2.9660001 0.671 1
3.0539999 -2.967 0.68400002 1
3.152 -2.967 0.85900003 1
3.033 -2.967 0.73100001 1
2.9679999 -2.967 0.63700002 1
3.01 -2.967 0.625 1
3.0580001 -2.9660001 0.56900001 1
3.0439999 -2.967 0.64300001 1
2.977 -2.967 0.648 1
3.115 -2.9660001 0.66000003 1
3.102 -2.9660001 0.64399999 1
3.0929999 -2.967 0.75400001 1
3.0420001 -2.967 0.75999999 1
2.9790001 -2.9679999 0.71700001 1
2.927 -2.9679999 0.66600001 1
3.0580001 -2.9660001 0.56800002 1
3.0650001 -2.9660001 0.63300002 1
3.0840001 -2.9660001 0.639 1
3.0309999 -2.9660001 0.58499998 1
3.1110001 -2.9660001 0.61299998 1
3.1470001 -2.9660001 0.80500001 1
3.079 -2.967 0.75999999 1
2.872 -2.9679999 0.64099997 1
3.1600001 -2.9660001 0.83499998 1
3.0910001 -2.9660001 0.602 1
3.0580001 -2.967 0.68599999 1
3.026 -2.967 0.61900002 1
3.096 -2.9660001 0.66500002 1
2.98 -2.967 0.64999998 1
3.1470001 -2.9660001 0.81999999 1
2.901 -2.9679999 0.63 1
2.98 -2.967 0.69099998 1
3.062 -2.967 0.71499997 1
2.9820001 -2.967 0.616 1
3.0910001 -2.967 0.71600002 1
3.0179999 -2.967 0.59899998 1
3.063 -2.967 0.773 1
3.1340001 -2.9660001 0.71899998 1
2.9809999 -2.967 0.63800001 1
3.0309999 -2.967 0.73199999 1
3.046 -2.9660001 0.60100001 1
3.0179999 -2.967 0.745 1
2.934 -2.967 0.61000001 1
3.0999999 -2.9660001 0.72299999 1
2.987 -2.967 0.59899998 1
2.971 -2.967 0.61900002 1
3.1470001 -2.9660001 0.81599998 1
2.977 -2.967 0.602 1
3.1040001 -2.9660001 0.565 1
3.1240001 -2.9649999 0.17900001 1
3.1300001 -2.9660001 0.19499999 1
3.1589999 -2.967 0.32499999 1
3.102 -2.9649999 0.19599999 1
3.096 -2.9649999 0.145 1
3.0190001 -2.964 0.22499999 1
3.0120001 -2.9649999 0.29300001 1
3.148 -2.9649999 0.119 1
3.0969999 -2.9649999 0.234 1
3.132 -2.9660001 0.242 1
3.161 -2.967 0.37 1
3.096 -2.9660001 0.296 1
3.062 -2.9649999 0.257 1
3.1029999 -2.9649999 0.191 1
3.2290001 -2.967 0.16500001 1
3.2030001 -2.967 0.23199999 1
3.0669999 -2.9649999 0.206 1
3.2190001 -2.967 0.205 1
3.1989999 -2.967 0.31999999 1
3.2219999 -2.967 0.31799999 1
3.131 -2.9649999 0.138 1
3.2019999 -2.9660001 0.030999999 1
3.256 -2.9679999 0.361 1
3.132 -2.9660001 0.20100001 1
3.2149999 -2.967 0.197 1
3.175 -2.967 0.338 1
3.181 -2.9660001 0.163 1
3.1010001 -2.9649999 0.15800001 1
3.1670001 -2.9660001 0.27399999 1
3.0020001 -2.964 0.25099999 1
3.0120001 -2.964 0.259 1
3.1429999 -2.9660001 0.22499999 1
3.1199999 -2.9660001 0.26300001 1
3.201 -2.9660001 0.086999997 1
3.1570001 -2.9660001 0.24600001 1
3.227 -2.967 0.34299999 1
3.2030001 -2.9660001 0.039000001 1
3.0940001 -2.9660001 0.30599999 1
3.0650001 -2.9649999 0.177 1
3.177 -2.9660001 0.11 1
3.092 -2.9649999 0.155 1
3.152 -2.9660001 0.303 1
3.21 -2.9660001 0.071000002 1
3.1340001 -2.9660001 0.29100001 1
3.266 -2.9679999 0.361 1
3.1600001 -2.9660001 0.212 1
3.1029999 -2.9649999 0.168 1
3.0220001 -2.964 0.228 1
3.0699999 -2.9649999 0.27599999 1
3.0699999 -2.9649999 0.24699999 1
3.1949999 -2.967 0.315 1
3.0610001 -2.9649999 0.24699999 1
3.204 -2.967 0.266 1
3.1700001 -2.967 0.30899999 1
3.2249999 -2.967 0.31900001 1
3.1689999 -2.9660001 0.29300001 1
3.1530001 -2.9660001 0.2 1
3.0320001 -2.9649999 0.25099999 1
3.266 -2.9679999 0.35699999 1
3.2030001 -2.967 0.36700001 1
3.125 -2.9660001 0.278 1
3.0320001 -2.9649999 0.26699999 1
3.2679999 -2.9679999 0.34599999 1
3.0899999 -2.9649999 0.197 1
3.2509999 -2.9679999 0.324 1
3.076 -2.9649999 0.264 1
3.0120001 -2.964 0.26499999 1
3.125 -2.9660001 0.27200001 1
3.276 -2.9679999 0.40099999 1
3.2019999 -2.9660001 0.12800001 1
3.1570001 -2.9660001 0.229 1
3.1800001 -2.9660001 0.139 1
3.072 -2.9649999 0.233 1
3.21 -2.967 0.22499999 1
3.128 -2.9649999 0.102 1
3.039 -2.9649999 0.25400001 1
3.151 -2.9660001 0.338 1
3.1719999 -2.967 0.31 1
3.234 -2.9679999 0.35699999 1
3.049 -2.9649999 0.237 1
3.1070001 -2.9649999 0.213 1
3.25 -2.967 0.25799999 1
3.0280001 -2.9649999 0.29699999 1
3.1129999 -2.9660001 0.27599999 1
3.096 -2.9649999 0.161 1
3.0769999 -2.9649999 0.26199999 1
3.211 -2.9660001 0.176 1
3.227 -2.967 0.22499999 1
3.0910001 -2.9649999 0.244 1
3.0810001 -2.9649999 0.186 1
3.131 -2.9660001 0.211 1
3.142 -2.9660001 0.18700001 1
3.253 -2.967 0.278 1
3.191 -2.9660001 0.19599999 1
3.108 -2.9660001 0.329 1
3.234 -2.967 0.29100001 1
3.2739999 -2.9679999 0.37200001 1
3.0680001 -2.9649999 0.29300001 1
3.2049999 -2.9660001 0.178 1
3.1930001 -2.9660001 0.214 1
3.096 -2.9649999 0.20100001 1
3.1730001 -2.967 0.296 1
3.043 -2.9649999 0.22 1
3.1489999 -2.9660001 0.33500001 1
3.253 -2.9679999 0.39399999 1
3.2539999 -2.9679999 0.359 1
3.211 -2.9660001 0.17299999 1
3.1949999 -2.967 0.38 1
3.171 -2.9660001 0.171 1
2.99 -2.964 0.26499999 1
3.0369999 -2.9649999 0.257 1
3.2179999 -2.967 0.271 1
3.1240001 -2.9649999 0.16599999 1
3.1819999 -2.9660001 0.16 1
3.188 -2.9660001 0.035 1
3.2420001 -2.967 0.222 1
2.983 -2.964 0.29100001 1
3.2049999 -2.9660001 0.16 1
3.132 -2.9660001 0.27900001 1
3.21 -2.9660001 0.097000003 1
3.2190001 -2.967 0.31099999 1
3.1099999 -2.9660001 0.28099999 1
3.201 -2.967 0.26899999 1
3.152 -2.9649999 0.119 1
3.181 -2.967 0.35600001 1
3.1359999 -2.9660001 0.28400001 1
3.0350001 -2.9649999 0.31299999 1
3.1689999 -2.967 0.33700001 1
3.2190001 -2.967 0.164 1
3.2409999 -2.967 0.308 1
3.053 -2.9649999 0.211 1
3.253 -2.9679999 0.354 1
2.9690001 -2.964 0.27900001 1
3.1329999 -2.9660001 0.29100001 1
3.197 -2.967 0.35100001 1
3.119 -2.9649999 0.131 1
3.0710001 -2.9649999 0.227 1
2.9909999 -2.964 0.25 1
3.075 -2.9660001 0.331 1
3.145 -2.9660001 0.30199999 1
3.085 -2.9649999 0.23100001 1
3.076 -2.9660001 0.33000001 1
3.122 -2.9660001 0.34299999 1
3.178 -2.967 0.34200001 1
3.1530001 -2.9660001 0.211 1
3.1229999 -2.9649999 0.14 1
3.0610001 -2.9649999 0.234 1
3.062 -2.9649999 0.199 1
3.2539999 -2.9679999 0.287 1
3.0999999 -2.9649999 0.18099999 1
3.105 -2.9660001 0.338 1
3.2409999 -2.967 0.31099999 1
3.0420001 -2.9649999 0.27900001 1
3.128 -2.9660001 0.31999999 1
3.0090001 -2.964 0.26699999 1
3.1140001 -2.9649999 0.167 1
3.0829999 -2.9649999 0.155 1
3.0320001 -2.9649999 0.29699999 1
3.0380001 -2.9649999 0.223 1
3.1960001 -2.9660001 0.13500001 1
3.161 -2.967 0.35499999 1
3.1900001 -2.9660001 0.169 1
3.2149999 -2.967 0.373 1
3.1370001 -2.9660001 0.208 1
3.1010001 -2.9649999 0.219 1
3.0910001 -2.9649999 0.259 1
3.128 -2.9649999 0.108 1
3.043 -2.9649999 0.23999999 1
3.243 -2.9679999 0.40599999 1
3.2049999 -2.9660001 0.063000001 1
3.2260001 -2.967 0.30700001 1
3.1099999 -2.9649999 0.161 1
3.0439999 -2.9649999 0.211 1
3.174 -2.967 0.373 1
3.017 -2.964 0.259 1
3.1270001 -2.9660001 0.28600001 1
3.082 -2.9649999 0.19400001 1
3.247 -2.967 0.273 1
3.1860001 -2.9660001 0.226 1
3.1860001 -2.9660001 0.242 1
3.1949999 -2.9660001 0.12 1
3.115 -2.9660001 0.32800001 1
3.2620001 -2.9679999 0.382 1
3.2379999 -2.967 0.237 1
3.1830001 -2.967 0.29300001 1
3.197 -2.967 0.32699999 1
2.997 -2.964 0.241 1
3.178 -2.9660001 0.175 1
3.118 -2.9660001 0.226 1
3.043 -2.9649999 0.317 1
3.115 -2.9660001 0.266 1
3.01 -2.964 0.235 1
3.152 -2.9660001 0.191 1
3.105 -2.9660001 0.29300001 1
3.1849999 -2.9660001 0.205 1
3.0610001 -2.9649999 0.25999999 1
2.97 -2.964 0.27900001 1
3.2030001 -2.967 0.28600001 1
3.102 -2.9649999 0.134 1
3.1800001 -2.967 0.28999999 1
3.122 -2.9649999 0.184 1
3.223 -2.967 0.36700001 1
3.1129999 -2.9649999 0.191 1
3.1229999 -2.9660001 0.25999999 1
3.1900001 -2.9660001 0.037999999 1
3.063 -2.9649999 0.193 1
3.2420001 -2.967 0.229 1
3.1429999 -2.9649999 0.092 1
3.211 -2.9660001 0.126 1
3.0409999 -2.9649999 0.20999999 1
3.2219999 -2.9660001 0.14399999 1
3.01 -2.9649999 0.28400001 1
3.1470001 -2.9660001 0.167 1
3.2130001 -2.967 0.19400001 1
3.1570001 -2.9660001 0.164 1
3.049 -2.9649999 0.29800001 1
3.243 -2.9679999 0.389 1
3.214 -2.967 0.18099999 1
3.0840001 -2.9660001 0.317 1
3.2149999 -2.967 0.185 1
3.2249999 -2.967 0.15700001 1
3.1300001 -2.9649999 0.141 1
3.096 -2.9649999 0.176 1
3.0469999 -2.9649999 0.29300001 1
3.24 -2.967 0.20999999 1
3.158 -2.9660001 0.15800001 1
3.165 -2.9660001 0.21799999 1
3.154 -2.9660001 0.329 1
3.2079999 -2.967 0.28200001 1
2.9660001 -2.964 0.27900001 1
3.1849999 -2.967 0.37400001 1
3.039 -2.9649999 0.222 1
3.1730001 -2.9660001 0.24699999 1
3.24 -2.9679999 0.333 1
3.138 -2.9660001 0.227 1
3.053 -2.9649999 0.183 1
3.164 -2.9660001 0.21600001 1
3.2609999 -2.9679999 0.35800001 1
3.0599999 -2.9649999 0.27599999 1
3.188 -2.9660001 0.115 1
3.25 -2.967 0.27700001 1
3.085 -2.9660001 0.33000001 1
3.2160001 -2.9660001 0.089000002 1
3.23 -2.967 0.212 1
3.0639999 -2.9649999 0.26199999 1
3.056 -2.9649999 0.292 1
3.2679999 -2.9679999 0.34900001 1
2.9979999 -2.964 0.24600001 1
3.102 -2.9660001 0.278 1
3.0239999 -2.964 0.22400001 1
3.0869999 -2.9649999 0.164 1
3.187 -2.967 0.329 1
3.217 -2.967 0.331 1
3.023 -2.9649999 0.30199999 1
3.1530001 -2.9660001 0.226 1
3.0780001 -2.9649999 0.183 1
2.971 -2.964 0.28799999 1
3.1989999 -2.967 0.29899999 1
3.096 -2.9649999 0.161 1
3.0090001 -2.964 0.23999999 1
3.191 -2.967 0.324 1
3.2609999 -2.9679999 0.37599999 1
3.1800001 -2.9660001 0.116 1
3.2 -2.9660001 0.090999998 1
3.1900001 -2.967 0.34099999 1
3.03 -2.964 0.226 1
3.158 -2.9660001 0.20900001 1
3.171 -2.967 0.308 1
3.2019999 -2.967 0.212 1
3.0420001 -2.9649999 0.31099999 1
3.1210001 -2.9660001 0.34299999 1
3.1140001 -2.9660001 0.23199999 1
3.2360001 -2.967 0.273 1
3.017 -2.9649999 0.301 1
3.017 -2.9649999 0.285 1
3.1930001 -2.967 0.30199999 1
3.2679999 -2.9679999 0.40400001 1
3.201 -2.9660001 0.133 1
3.131 -2.9660001 0.30700001 1
3.0899999 -2.9649999 0.27599999 1
3.2420001 -2.967 0.211 1
3.2179999 -2.967 0.27599999 1
3.1370001 -2.9649999 0.153 1
3.207 -2.9660001 0.17299999 1
3.033 -2.964 0.212 1
3.184 -2.9660001 0.147 1
3.089 -2.9649999 0.178 1
3.171 -2.9660001 0.222 1
3.2019999 -2.9660001 0.121 1
3.0810001 -2.9649999 0.26699999 1
3.1849999 -2.9660001 0.169 1
3.253 -2.9679999 0.324 1
3.073 -2.9649999 0.226 1
3.2409999 -2.9679999 0.361 1
3.0810001 -2.9660001 0.31 1
3.1630001 -2.967 0.36899999 1
3.098 -2.9649999 0.23199999 1
3.1140001 -2.9660001 0.27399999 1
3.0050001 -2.964 0.278 1
3.1719999 -2.967 0.35299999 1
3.2149999 -2.9660001 0.132 1
3.1989999 -2.9660001 0.037 1
3.1400001 -2.9660001 0.26800001 1
3.0150001 -2.964 0.248 1
3.237 -2.967 0.25299999 1
3.1800001 -2.967 0.35699999 1
3.049 -2.9649999 0.18799999 1
3.142 -2.9660001 0.16599999 1
3.1830001 -2.9660001 0.184 1
3.191 -2.967 0.248 1
3.1229999 -2.9649999 0.149 1
3.006 -2.964 0.28600001 1
3.1670001 -2.9660001 0.176 1
3.1010001 -2.9660001 0.333 1
3.1700001 -2.9660001 0.161 1
3.158 -2.9660001 0.207 1
3.204 -2.967 0.264 1
3.204 -2.967 0.29800001 1
3.072 -2.9649999 0.236 1
3.175 -2.9660001 0.186 1
3.214 -2.9660001 0.15899999 1
3.2449999 -2.967 0.30399999 1
3.2509999 -2.9679999 0.30700001 1
3.0020001 -2.9649999 0.29899999 1
3.227 -2.9679999 0.384 1
3.099 -2.9660001 0.32100001 1
3.197 -2.9660001 0.077 1
3.0869999 -2.9649999 0.18799999 1
3.043 -2.9649999 0.31900001 1
3.257 -2.9679999 0.32699999 1
3.2060001 -2.9660001 0.088 1
3.053 -2.9649999 0.199 1
3.21 -2.967 0.27200001 1
3.2709999 -2.9679999 0.375 1
3.1960001 -2.967 0.333 1
3.118 -2.9660001 0.278 1
3.277 -2.9679999 0.389 1
2.9949999 -2.964 0.266 1
3.233 -2.967 0.33500001 1
3.1860001 -2.967 0.32800001 1
3.0710001 -2.9649999 0.185 1
3.191 -2.9660001 0.211 1
3.1919999 -2.967 0.36700001 1
3.0869999 -2.9649999 0.28099999 1
3.141 -2.9660001 0.16500001 1
3.029 -2.9649999 0.25999999 1
3.151 -2.9660001 0.13600001 1
3.1229999 -2.9660001 0.34799999 1
3.223 -2.9660001 0.124 1
3.154 -2.967 0.36199999 1
3.046 -2.9649999 0.23999999 1
3.102 -2.9660001 0.30500001 1
3.2019999 -2.9660001 0.142 1
3.096 -2.9649999 0.20100001 1
3.122 -2.9649999 0.133 1
3.204 -2.967 0.23999999 1
3.04 -2.9649999 0.29100001 1
3.253 -2.9679999 0.324 1
3.1359999 -2.9660001 0.184 1
3.052 -2.9649999 0.27700001 1
3.1800001 -2.9660001 0.248 1
3.0420001 -2.9649999 0.31600001 1
3.132 -2.9660001 0.228 1
3.2119999 -2.9660001 0.082999997 1
3.1670001 -2.9660001 0.29499999 1
3.102 -2.9660001 0.34400001 1
3.2379999 -2.967 0.27399999 1
3.1949999 -2.9660001 0.12899999 1
3.0090001 -2.964 0.237 1
3.2320001 -2.967 0.20299999 1
3.0840001 -2.9660001 0.33199999 1
3.152 -2.9649999 0.11 1
3.168 -2.9660001 0.171 1
3.1800001 -2.967 0.34099999 1
3.1159999 -2.9649999 0.156 1
3.1719999 -2.9660001 0.252 1
3.072 -2.9649999 0.28 1
3.1630001 -2.9660001 0.25999999 1
3.0220001 -2.964 0.21600001 1
3.2379999 -2.9679999 0.34900001 1
3.217 -2.967 0.252 1
3.188 -2.967 0.308 1
3.2390001 -2.9679999 0.377 1
3.165 -2.9660001 0.090000004 1
3.1589999 -2.967 0.34099999 1
3.2690001 -2.9679999 0.38699999 1
3.2019999 -2.9660001 0.175 1
3.247 -2.967 0.29300001 1
3.086 -2.9649999 0.26300001 1
3.198 -2.9660001 0.12899999 1
3.2260001 -2.967 0.29499999 1
3.2030001 -2.967 0.25600001 1
3.221 -2.967 0.359 1
2.99 -2.964 0.29499999 1
2.993 -2.964 0.25 1
3.26 -2.9679999 0.36399999 1
3.023 -2.964 0.227 1
3.1530001 -2.9660001 0.155 1
3.194 -2.9660001 0.104 1
3.1429999 -2.9660001 0.35299999 1
3.184 -2.9660001 0.108 1
3.0840001 -2.9649999 0.16500001 1
3.2650001 -2.9679999 0.37400001 1
3.1459999 -2.9660001 0.289 1
3.1989999 -2.9660001 0.077 1
3.1830001 -2.9660001 0.211 1
2.994 -2.964 0.248 1
3.1919999 -2.9660001 0.19599999 1
3.158 -2.967 0.34999999 1
3.0239999 -2.9649999 0.25400001 1
3.164 -2.9660001 0.145 1
3.0109999 -2.9649999 0.30500001 1
2.983 -2.964 0.294 1
3.1600001 -2.9660001 0.147 1
3.1819999 -2.9660001 0.207 1
3.1570001 -2.9649999 0.109 1
3.2349999 -2.967 0.24600001 1
3.237 -2.9679999 0.352 1
3.0450001 -2.9649999 0.31900001 1
3.1589999 -2.9660001 0.26899999 1
3.1900001 -2.967 0.29899999 1
3.0380001 -2.9649999 0.22 1
3.181 -2.9660001 0.221 1
3.2090001 -2.967 0.31299999 1
3.1719999 -2.9660001 0.28400001 1
3.223 -2.9660001 0.142 1
3.1819999 -2.9660001 0.133 1
3.115 -2.9660001 0.296 1
3.135 -2.9660001 0.29800001 1
3.098 -2.9649999 0.204 1
3.0650001 -2.9649999 0.223 1
3.135 -2.9660001 0.36000001 1
3.0480001 -2.9649999 0.26499999 1
3.0929999 -2.9649999 0.24699999 1
3.204 -2.9660001 0.132 1
3.2520001 -2.9679999 0.34299999 1
3.0599999 -2.9649999 0.31099999 1
3.128 -2.9660001 0.29699999 1
3.125 -2.9660001 0.23899999 1
2.9779999 -2.964 0.25999999 1
3.1240001 -2.9660001 0.30399999 1
3.0250001 -2.9649999 0.28099999 1
3.2490001 -2.9679999 0.34999999 1
3.257 -2.9679999 0.405 1
3.1600001 -2.967 0.347 1
3.204 -2.9660001 0.153 1
3.1459999 -2.9649999 0.139 1
3.1559999 -2.9660001 0.186 1
3.168 -2.9660001 0.193 1
3.2539999 -2.9679999 0.36500001 1
3.1830001 -2.9660001 0.046 1
3.1270001 -2.9649999 0.15000001 1
3.0969999 -2.9649999 0.14399999 1
3.0899999 -2.9660001 0.33399999 1
3.2290001 -2.967 0.235 1
3.207 -2.967 0.28099999 1
3.1429999 -2.9660001 0.22400001 1
3.2360001 -2.9679999 0.396 1
3.165 -2.9660001 0.27000001 1
3.0120001 -2.964 0.259 1
3.1900001 -2.967 0.255 1
3.2119999 -2.967 0.235 1
3.1800001 -2.9660001 0.152 1
3.187 -2.967 0.31 1
3.1340001 -2.9660001 0.308 1
3.1559999 -2.9649999 0.093999997 1
3.1440001 -2.9660001 0.23199999 1
3.118 -2.9660001 0.31400001 1
3.2690001 -2.9679999 0.377 1
3.05 -2.9649999 0.28799999 1
3.0650001 -2.9649999 0.245 1
3.151 -2.9660001 0.214 1
3.089 -2.9649999 0.14 1
3.1659999 -2.967 0.33500001 1
3.0280001 -2.9649999 0.26899999 1
3.154 -2.9649999 0.114 1
3.0250001 -2.964 0.223 1
3.1900001 -2.9660001 0.19 1
3.1570001 -2.9660001 0.197 1
3.119 -2.9660001 0.329 1
3.1530001 -2.9660001 0.23800001 1
3.198 -2.9660001 0.085000001 1
3.154 -2.9660001 0.15899999 1
3.095 -2.9649999 0.16599999 1
3.1830001 -2.9660001 0.079999998 1
3.1300001 -2.9649999 0.17 1
3.1010001 -2.9660001 0.29800001 1
3.2060001 -2.967 0.308 1
3.2390001 -2.967 0.29800001 1
3.2090001 -2.9660001 0.182 1
3.1689999 -2.9660001 0.153 1
3.2090001 -2.967 0.19 1
3.221 -2.9660001 0.12899999 1
3.1600001 -2.9649999 0.078000002 1
3.119 -2.9660001 0.322 1
3.2449999 -2.967 0.273 1
3.23 -2.967 0.233 1
3.214 -2.967 0.23199999 1
3.112 -2.9649999 0.13600001 1
3.152 -2.9660001 0.186 1
3.165 -2.967 0.35800001 1
3.112 -2.9649999 0.15899999 1
3.0190001 -2.964 0.22 1
3.1059999 -2.9649999 0.184 1
3.086 -2.9649999 0.212 1
3.0150001 -2.964 0.22400001 1
3.0929999 -2.9649999 0.13699999 1
3.108 -2.9660001 0.31900001 1
3.217 -2.9679999 0.39500001 1
3.1400001 -2.9660001 0.22 1
3.158 -2.9649999 0.093000002 1
3.1719999 -2.967 0.33899999 1
3.145 -2.9660001 0.35499999 1
3.1819999 -2.9660001 0.21699999 1
3.1240001 -2.9660001 0.259 1
2.9849999 -2.964 0.26499999 1
3.204 -2.967 0.36700001 1
3.22 -2.967 0.359 1
3.1730001 -2.9649999 0.050999999 1
3.118 -2.9660001 0.317 1
3.1930001 -2.9660001 0.15899999 1
3.0669999 -2.9649999 0.20999999 1
2.997 -2.964 0.26699999 1
3.191 -2.9660001 0.15899999 1
3.1429999 -2.9660001 0.32699999 1
3.237 -2.967 0.235 1
3.2190001 -2.967 0.252 1
3.132 -2.9649999 0.149 1
3.168 -2.9660001 0.25999999 1
3.2019999 -2.967 0.35499999 1
3.2420001 -2.9679999 0.31900001 1
3.1340001 -2.9649999 0.11 1
3.108 -2.9649999 0.23199999 1
3.175 -2.9660001 0.18700001 1
3.122 -2.9660001 0.214 1
3.194 -2.9660001 0.072999999 1
3.2179999 -2.9660001 0.112 1
3.151 -2.9649999 0.102 1
3.059 -2.9649999 0.28999999 1
3.2420001 -2.9679999 0.32600001 1
3.1389999 -2.9660001 0.21699999 1
3.1900001 -2.9660001 0.13600001 1
3.095 -2.9649999 0.25099999 1
3.1459999 -2.9660001 0.17200001 1
3.102 -2.9660001 0.301 1
3.1860001 -2.9660001 0.19599999 1
3.2079999 -2.967 0.278 1
3.1919999 -2.9660001 0.164 1
3.1459999 -2.9660001 0.186 1
3.2279999 -2.967 0.182 1
3.1110001 -2.9660001 0.338 1
3.1210001 -2.9649999 0.117 1
3.0350001 -2.9649999 0.28299999 1
3.184 -2.9660001 0.097999997 1
3.204 -2.967 0.28799999 1
3.1270001 -2.9649999 0.153 1
3.207 -2.967 0.331 1
3.1889999 -2.9660001 0.121 1
3.174 -2.9660001 0.21600001 1
3.2360001 -2.9679999 0.389 1
3.089 -2.9649999 0.25099999 1
3.2090001 -2.967 0.30399999 1
3.2520001 -2.9679999 0.37200001 1
3.2079999 -2.967 0.36000001 1
3.1259999 -2.9649999 0.154 1
2.967 -2.964 0.27500001 1
3.201 -2.967 0.24600001 1
3.22 -2.967 0.169 1
3.211 -2.967 0.36700001 1
3.1700001 -2.9660001 0.266 1
3.1229999 -2.9649999 0.13600001 1
3.171 -2.9649999 0.059 1
3.1949999 -2.9660001 0.041999999 1
2.987 -2.964 0.25799999 1
3.1099999 -2.9649999 0.141 1
3.267 -2.9679999 0.40000001 1
3.2309999 -2.967 0.27399999 1
3.1440001 -2.9660001 0.35600001 1
3.1619999 -2.9660001 0.13 1
3.194 -2.9660001 0.037999999 1
3.0899999 -2.9649999 0.20100001 1
3.165 -2.9660001 0.119 1
3.007 -2.9649999 0.303 1
3.152 -2.9660001 0.301 1
3.1700001 -2.9660001 0.227 1
3.211 -2.967 0.322 1
3.1040001 -2.9649999 0.214 1
3.184 -2.9660001 0.081 1
3.1960001 -2.9660001 0.034000002 1
3.194 -2.9660001 0.215 1
3.092 -2.9660001 0.34200001 1
3.1960001 -2.9660001 0.19400001 1
3.075 -2.9649999 0.31900001 1
3.1670001 -2.9660001 0.156 1
3.198 -2.967 0.228 1
3.22 -2.9679999 0.38 1
3.23 -2.967 0.33000001 1
3.2179999 -2.967 0.317 1
3.2260001 -2.967 0.338 1
3.178 -2.967 0.33700001 1
3.108 -2.9660001 0.23999999 1
3.1819999 -2.967 0.31 1
2.9890001 -2.964 0.28999999 1
3.138 -2.9660001 0.32100001 1
3.165 -2.967 0.324 1
3.1159999 -2.9660001 0.226 1
2.9909999 -2.964 0.28 1
2.9679999 -2.964 0.28799999 1
3.0639999 -2.9649999 0.182 1
3.027 -2.9649999 0.289 1
3.2030001 -2.9660001 0.057999998 1
3.2219999 -2.967 0.264 1
3.2460001 -2.967 0.294 1
3.1029999 -2.9660001 0.296 1
3.207 -2.967 0.23199999 1
3.112 -2.9660001 0.375 1
3.1530001 -2.967 0.421 1
3.0610001 -2.9649999 0.46200001 1
3.2679999 -2.9679999 0.419 1
3.1949999 -2.967 0.40799999 1
3.194 -2.967 0.42300001 1
3.148 -2.967 0.40400001 1
3.1359999 -2.9660001 0.398 1
3.1949999 -2.967 0.42699999 1
3.108 -2.9660001 0.46700001 1
3.0699999 -2.9649999 0.45199999 1
3.0899999 -2.9660001 0.51700002 1
3.207 -2.967 0.43799999 1
3.086 -2.9660001 0.34999999 1
3.1489999 -2.967 0.39199999 1
3.0209999 -2.9649999 0.36199999 1
3.0580001 -2.9649999 0.46200001 1
3.1110001 -2.9660001 0.52700001 1
3.1470001 -2.9660001 0.46900001 1
3.039 -2.9649999 0.417 1
3.1400001 -2.9660001 0.38600001 1
3.0969999 -2.9660001 0.345 1
3.1110001 -2.9660001 0.46399999 1
3.1659999 -2.967 0.37599999 1
3.1300001 -2.9660001 0.46000001 1
3.043 -2.9649999 0.366 1
3.0710001 -2.9649999 0.39199999 1
3.1489999 -2.967 0.39899999 1
3.267 -2.9679999 0.43599999 1
3.0420001 -2.9649999 0.417 1
3.2 -2.967 0.44299999 1
3.0580001 -2.9649999 0.45199999 1
3.053 -2.9649999 0.39500001 1
3.188 -2.967 0.403 1
3.0569999 -2.9649999 0.449 1
3.0910001 -2.9660001 0.38100001 1
3.0380001 -2.9649999 0.359 1
3.007 -2.9649999 0.33500001 1
3.0120001 -2.9649999 0.36000001 1
3.187 -2.967 0.45500001 1
3.1289999 -2.9660001 0.50800002 1
3.175 -2.967 0.40799999 1
3.0580001 -2.9649999 0.37400001 1
3.152 -2.967 0.47999999 1
3.201 -2.967 0.41600001 1
3.0280001 -2.9649999 0.36300001 1
3.092 -2.9660001 0.391 1
3.2219999 -2.9679999 0.43099999 1
3.2019999 -2.967 0.40099999 1
3.0739999 -2.9649999 0.384 1
3.076 -2.9649999 0.44600001 1
3.158 -2.967 0.48899999 1
3.128 -2.9660001 0.375 1
3.04 -2.9649999 0.43000001 1
3.095 -2.9660001 0.37799999 1
3.2030001 -2.967 0.41299999 1
3.256 -2.9679999 0.42199999 1
3.223 -2.9679999 0.41299999 1
3.007 -2.9649999 0.345 1
3.1440001 -2.9660001 0.45899999 1
3.191 -2.967 0.40799999 1
3.1029999 -2.9660001 0.361 1
3.04 -2.9649999 0.331 1
3.1199999 -2.9660001 0.38999999 1
3.0209999 -2.9649999 0.331 1
3.0910001 -2.9660001 0.37900001 1
3.053 -2.9649999 0.45100001 1
3.0780001 -2.9649999 0.43700001 1
3.0409999 -2.9649999 0.35299999 1
3.1530001 -2.967 0.43900001 1
3.2460001 -2.9679999 0.41999999 1
3.112 -2.9660001 0.43200001 1
3.0840001 -2.9660001 0.44800001 1
3.171 -2.967 0.46900001 1
3.1389999 -2.9660001 0.389 1
3.128 -2.9660001 0.47600001 1
3.007 -2.9649999 0.30599999 1
3.072 -2.9649999 0.39899999 1
3.2219999 -2.9679999 0.412 1
3.0680001 -2.9649999 0.41299999 1
3.2130001 -2.967 0.43599999 1
3.109 -2.9660001 0.491 1
3.1459999 -2.9660001 0.43000001 1
3.0669999 -2.9649999 0.43599999 1
3.1229999 -2.9660001 0.41800001 1
3.1259999 -2.9660001 0.377 1
3.0610001 -2.9649999 0.435 1
3.0280001 -2.9649999 0.31600001 1
3.0350001 -2.9649999 0.41999999 1
3.013 -2.9649999 0.34299999 1
3.04 -2.9649999 0.32499999 1
3.0969999 -2.9660001 0.39899999 1
3.1440001 -2.967 0.382 1
3.161 -2.967 0.417 1
3.148 -2.9660001 0.477 1
3.0220001 -2.9649999 0.352 1
3.0350001 -2.9649999 0.391 1
3.125 -2.9660001 0.36000001 1
3.0580001 -2.9649999 0.44299999 1
3.244 -2.9679999 0.42699999 1
3.118 -2.9660001 0.414 1
3.178 -2.967 0.419 1
3.1570001 -2.967 0.37799999 1
3.023 -2.9649999 0.33500001 1
3.175 -2.967 0.461 1
3.138 -2.9660001 0.47099999 1
3.1070001 -2.9660001 0.42500001 1
3.1010001 -2.9660001 0.45500001 1
3.056 -2.9649999 0.43799999 1
3.082 -2.9660001 0.46900001 1
3.171 -2.967 0.49399999 1
3.1059999 -2.9660001 0.465 1
3.1240001 -2.9660001 0.412 1
3.0380001 -2.9649999 0.35499999 1
3.0810001 -2.9660001 0.38100001 1
3.062 -2.9649999 0.338 1
3.006 -2.9649999 0.347 1
3.197 -2.967 0.47499999 1
3.0899999 -2.9660001 0.40599999 1
3.2390001 -2.9679999 0.43799999 1
3.1059999 -2.9660001 0.486 1
3.062 -2.9649999 0.442 1
3.1070001 -2.9660001 0.36000001 1
3.096 -2.9660001 0.359 1
3.1559999 -2.967 0.442 1
3.1619999 -2.967 0.47 1
3.0220001 -2.9649999 0.37400001 1
3.096 -2.9660001 0.375 1
3.04 -2.9649999 0.42300001 1
3.175 -2.967 0.49200001 1
3.096 -2.9660001 0.5 1
3.234 -2.9679999 0.41100001 1
3.0739999 -2.9649999 0.41800001 1
3.141 -2.9660001 0.42199999 1
3.075 -2.9660001 0.37 1
3.1259999 -2.9660001 0.472 1
3.1029999 -2.9660001 0.44299999 1
3.112 -2.9660001 0.49700001 1
3.0699999 -2.9649999 0.33899999 1
3.109 -2.9660001 0.35800001 1
3.0369999 -2.9649999 0.34799999 1
3.174 -2.967 0.38699999 1
