# .PCD v0.7 - Point Cloud Data file format
VERSION 0.7
FIELDS x y z label
SIZE 4 4 4 4
TYPE F F F U
COUNT 1 1 1 1
WIDTH 1724
HEIGHT 1
VIEWPOINT 0 0 0 1 0 0 0
POINTS 1724
DATA ascii
5.263 -7.7989998 0.66799998 5
5.2410002 -7.8000002 0.66299999 5
5.2540002 -7.8099999 0.66600001 5
5.244 -7.7659998 0.66500002 5
5.2750001 -7.7600002 0.67400002 5
5.2420001 -7.77 0.66500002 5
5.2449999 -7.7680001 0.66500002 5
5.256 -7.8119998 0.66600001 5
5.2600002 -7.7820001 0.66900003 5
5.2449999 -7.7930002 0.66399997 5
5.2529998 -7.7930002 0.66600001 5
5.2319999 -7.7789998 0.66100001 5
5.2470002 -7.8049998 0.66399997 5
5.2659998 -7.796 0.66900003 5
5.2659998 -7.7589998 0.671 5
5.2360001 -7.7779999 0.66299999 5
5.2589998 -7.7859998 0.66799998 5
5.2480001 -7.8189998 0.66399997 5
5.2579999 -7.8210001 0.66600001 5
5.2670002 -7.7919998 0.67000002 5
5.2529998 -7.7449999 0.66900003 5
5.23 -7.744 0.66299999 5
5.2459998 -7.7729998 0.66500002 5
5.2399998 -7.7709999 0.66399997 5
5.2600002 -7.7589998 0.67000002 5
5.2199998 -7.7600002 0.65899998 5
5.223 -7.777 0.65899998 5
5.2659998 -7.7420001 0.67199999 5
5.2319999 -7.7459998 0.66299999 5
5.2529998 -7.757 0.66799998 5
5.23 -7.7680001 0.662 5
5.2350001 -7.7789998 0.662 5
5.256 -7.8000002 0.66600001 5
5.2480001 -7.7909999 0.66500002 5
5.2249999 -7.7519999 0.66100001 5
5.2399998 -7.8010001 0.662 5
5.2589998 -7.7950001 0.66799998 5
4.3940001 -7.7309999 0.597 5
4.4060001 -7.7290001 0.59399998 5
4.3829999 -7.7309999 0.59799999 5
4.3449998 -7.7350001 0.60500002 5
4.3660002 -7.7329998 0.597 5
4.4089999 -7.7290001 0.59100002 5
4.4159999 -7.7280002 0.59100002 5
4.3969998 -7.73 0.597 5
4.3870001 -7.7309999 0.59600002 5
4.3860002 -7.7309999 0.59600002 5
4.3140001 -7.7379999 0.60500002 5
4.4369998 -7.7290001 0.60399997 5
4.4070001 -7.7350001 0.62400001 5
4.382 -7.7319999 0.60100001 5
4.375 -7.7340002 0.60799998 5
4.4359999 -7.7280002 0.59600002 5
4.3660002 -7.7360001 0.61900002 5
4.3670001 -7.7360001 0.61699998 5
4.3670001 -7.737 0.62400001 5
4.4050002 -7.7319999 0.60699999 5
4.4039998 -7.7329998 0.61199999 5
4.395 -7.7360001 0.62599999 5
4.3649998 -7.7350001 0.611 5
4.3850002 -7.7329998 0.61000001 5
4.3920002 -7.7379999 0.63599998 5
4.4099998 -7.7319999 0.611 5
4.4229999 -7.7290001 0.597 5
4.401 -7.7319999 0.60600001 5
4.3400002 -7.737 0.61500001 5
4.402 -7.7350001 0.62599999 5
4.4050002 -7.73 0.60000002 5
4.3860002 -7.7350001 0.61699998 5
4.3460002 -7.737 0.61900002 5
4.4109998 -7.73 0.59899998 5
4.3460002 -7.737 0.616 5
4.4369998 -7.7280002 0.59799999 5
4.3769999 -7.7399998 0.64099997 5
4.3629999 -7.737 0.62300003 5
4.4089999 -7.73 0.602 5
4.3410001 -7.7360001 0.60699999 5
4.3720002 -7.737 0.62400001 5
4.3930001 -7.7329998 0.61000001 5
4.3319998 -7.7210002 0.63700002 5
4.3270001 -7.724 0.62900001 5
4.3369999 -7.7140002 0.65100002 5
4.3470001 -7.737 0.62599999 5
4.3579998 -7.737 0.634 5
4.3499999 -7.7220001 0.648 5
4.3260002 -7.7280002 0.62400001 5
4.3590002 -7.737 0.634 5
4.369 -7.7329998 0.64600003 5
4.3740001 -7.737 0.64399999 5
4.3439999 -7.7129998 0.65700001 5
4.3759999 -7.7379999 0.64399999 5
4.3379998 -7.723 0.639 5
4.3379998 -7.71 0.65700001 5
4.3390002 -7.7049999 0.66299999 5
4.3390002 -7.7080002 0.66000003 5
4.3449998 -7.7160001 0.65200001 5
4.3400002 -7.7360001 0.62300003 5
4.3460002 -7.7160001 0.65399998 5
4.3390002 -7.7069998 0.662 5
4.3260002 -7.7160001 0.639 5
4.355 -7.723 0.65100002 5
4.3579998 -7.7290001 0.64499998 5
4.3400002 -7.7210002 0.64200002 5
4.3299999 -7.698 0.66600001 5
4.3340001 -7.7010002 0.66500002 5
5.1880002 -8.2639999 1.528 5
5.1950002 -8.2919998 1.524 5
5.1890001 -8.2539997 1.528 5
5.1880002 -8.2729998 1.528 5
5.1820002 -8.2519999 1.533 5
5.1929998 -8.2510004 1.526 5
5.2010002 -8.29 1.52 5
5.191 -8.2729998 1.527 5
5.1900001 -8.2889996 1.527 5
5.1989999 -8.2860003 1.521 5
5.1890001 -8.2840004 1.528 5
5.1810002 -8.257 1.533 5
5.1900001 -8.2770004 1.527 5
5.1989999 -8.2650003 1.522 5
3.8199999 -7.6690001 1.147 5
3.8369999 -7.6690001 1.147 5
3.8770001 -7.684 1.142 5
3.9030001 -7.6700001 1.147 5
3.803 -7.7059999 1.132 5
3.8239999 -7.671 1.146 5
3.927 -7.6659999 1.149 5
3.904 -7.684 1.142 5
3.8740001 -7.6750002 1.145 5
3.8659999 -7.6680002 1.148 5
3.8369999 -7.7020001 1.1339999 5
3.717 -7.7010002 1.133 5
3.7639999 -7.6919999 1.137 5
3.8529999 -7.6919999 1.138 5
3.839 -7.6690001 1.147 5
3.8540001 -7.6859999 1.141 5
3.8629999 -7.6869998 1.14 5
3.8710001 -7.7030001 1.1339999 5
3.891 -7.6739998 1.146 5
3.6630001 -7.6989999 1.133 5
3.737 -7.6999998 1.1339999 5
3.8640001 -7.6680002 1.148 5
3.786 -7.677 1.143 5
3.7379999 -7.6939998 1.136 5
3.862 -7.678 1.1440001 5
3.9159999 -7.6700001 1.148 5
3.8670001 -7.6849999 1.141 5
3.753 -7.684 1.14 5
3.6570001 -7.71 1.1289999 5
3.8280001 -7.6859999 1.14 5
3.9130001 -7.6739998 1.146 5
3.8310001 -7.7069998 1.132 5
3.8570001 -7.7049999 1.133 5
3.6329999 -7.7030001 1.131 5
3.721 -7.7069998 1.131 5
3.8050001 -7.6729999 1.145 5
3.74 -7.6989999 1.1339999 5
3.809 -7.6830001 1.141 5
3.6860001 -7.6929998 1.135 5
3.9189999 -7.6560001 1.153 5
3.8710001 -7.6719999 1.146 5
3.6400001 -7.7049999 1.13 5
3.8340001 -7.7080002 1.132 5
3.7360001 -7.6900001 1.137 5
3.8210001 -7.7030001 1.1339999 5
3.927 -7.652 1.155 5
3.744 -7.697 1.135 5
3.948 -7.652 1.155 5
3.914 -7.6539998 1.154 5
3.8380001 -7.6929998 1.138 5
3.7780001 -7.7059999 1.132 5
3.878 -7.6919999 1.1390001 5
3.8640001 -7.6700001 1.147 5
3.842 -7.6960001 1.136 5
3.8770001 -7.6960001 1.137 5
3.612 -7.7049999 1.13 5
3.7130001 -7.7020001 1.132 5
3.642 -7.6999998 1.132 5
3.8759999 -7.6700001 1.147 5
3.825 -7.7090001 1.131 5
3.7049999 -7.6929998 1.136 5
3.6930001 -7.6999998 1.133 5
3.938 -7.6589999 1.152 5
3.711 -7.7010002 1.133 5
3.7909999 -7.6960001 1.136 5
3.631 -7.7080002 1.1289999 5
3.9000001 -7.6539998 1.154 5
3.7590001 -7.6890001 1.138 5
3.733 -7.6859999 1.1390001 5
3.6919999 -7.6900001 1.137 5
3.8039999 -7.7059999 1.132 5
3.8110001 -7.7069998 1.132 5
3.77 -7.7010002 1.1339999 5
3.8800001 -7.6729999 1.146 5
3.6630001 -7.7010002 1.132 5
3.77 -7.697 1.135 5
3.839 -7.6859999 1.14 5
3.714 -7.6950002 1.135 5
3.902 -7.6680002 1.148 5
3.849 -7.6659999 1.148 5
3.7409999 -7.6830001 1.14 5
3.7190001 -7.697 1.1339999 5
3.7969999 -7.6929998 1.137 5
3.6359999 -7.7080002 1.1289999 5
3.7079999 -7.6989999 1.1339999 5
3.687 -7.6950002 1.135 5
3.8039999 -7.6939998 1.137 5
3.822 -7.6919999 1.138 5
3.849 -7.6989999 1.135 5
3.9219999 -7.6570001 1.153 5
3.8570001 -7.6960001 1.137 5
3.8559999 -7.6880002 1.14 5
3.8239999 -7.698 1.135 5
3.6630001 -7.7049999 1.131 5
3.747 -7.6890001 1.138 5
3.8299999 -7.6859999 1.14 5
3.6949999 -7.6929998 1.136 5
3.766 -7.6810002 1.142 5
3.852 -7.6880002 1.14 5
3.599 -7.71 1.128 5
3.8640001 -7.6789999 1.1440001 5
3.8770001 -7.6960001 1.137 5
3.7739999 -7.6760001 1.143 5
3.908 -7.677 1.145 5
3.744 -7.6869998 1.1390001 5
3.724 -7.6999998 1.133 5
3.6600001 -7.6960001 1.1339999 5
3.648 -7.677 1.142 5
3.645 -7.6859999 1.138 5
3.723 -7.6609998 1.149 5
3.678 -7.6560001 1.15 5
3.8599999 -7.6609998 1.15 5
3.8659999 -7.6560001 1.153 5
3.921 -7.645 1.158 5
3.6259999 -7.665 1.146 5
3.675 -7.671 1.1440001 5
3.698 -7.6550002 1.151 5
3.8239999 -7.6620002 1.15 5
3.586 -7.6849999 1.138 5
3.911 -7.6500001 1.155 5
3.763 -7.677 1.143 5
3.7379999 -7.6469998 1.154 5
3.707 -7.6620002 1.148 5
3.796 -7.6630001 1.149 5
3.6730001 -7.6799998 1.14 5
3.563 -7.6570001 1.149 5
3.6040001 -7.6919999 1.135 5
3.707 -7.6700001 1.145 5
3.7249999 -7.6620002 1.148 5
3.6630001 -7.6890001 1.137 5
3.615 -7.6950002 1.1339999 5
3.6559999 -7.6849999 1.1390001 5
3.6889999 -7.6490002 1.153 5
3.552 -7.6539998 1.149 5
3.599 -7.677 1.141 5
3.5610001 -7.6700001 1.143 5
3.635 -7.6669998 1.145 5
3.846 -7.6570001 1.152 5
3.8699999 -7.6560001 1.152 5
3.694 -7.6739998 1.143 5
3.793 -7.6570001 1.151 5
3.7179999 -7.652 1.152 5
3.819 -7.6589999 1.151 5
3.5769999 -7.684 1.138 5
3.664 -7.6539998 1.151 5
3.678 -7.6890001 1.137 5
3.6259999 -7.6479998 1.153 5
3.6259999 -7.6890001 1.137 5
3.641 -7.6950002 1.1339999 5
3.585 -7.6680002 1.1440001 5
3.5780001 -7.7069998 1.1289999 5
3.5599999 -7.658 1.148 5
3.6110001 -7.6989999 1.132 5
3.575 -7.6859999 1.137 5
3.638 -7.6900001 1.136 5
3.5810001 -7.6620002 1.147 5
3.8740001 -7.6469998 1.156 5
3.585 -7.6750002 1.142 5
3.7249999 -7.6539998 1.152 5
3.7650001 -7.6729999 1.1440001 5
3.664 -7.6589999 1.149 5
3.8299999 -7.658 1.151 5
3.6489999 -7.6620002 1.148 5
3.652 -7.6500001 1.152 5
3.8740001 -7.6500001 1.155 5
3.605 -7.665 1.146 5
3.7780001 -7.6620002 1.149 5
3.7190001 -7.6479998 1.154 5
3.6159999 -7.6789999 1.14 5
3.6210001 -7.678 1.141 5
3.6470001 -7.664 1.147 5
3.5940001 -7.6560001 1.149 5
3.618 -7.6810002 1.1390001 5
3.7969999 -7.6529999 1.153 5
3.579 -7.6739998 1.142 5
3.825 -7.6539998 1.153 5
3.684 -7.6789999 1.141 5
3.7379999 -7.6599998 1.15 5
3.74 -7.652 1.153 5
3.6659999 -7.6900001 1.136 5
3.786 -7.6550002 1.152 5
3.9000001 -7.651 1.155 5
3.803 -7.6599998 1.15 5
3.6559999 -7.6760001 1.142 5
3.8139999 -7.6630001 1.149 5
3.5669999 -7.6750002 1.141 5
3.6659999 -7.6820002 1.14 5
3.7449999 -7.6599998 1.15 5
3.6459999 -7.664 1.147 5
3.744 -7.6560001 1.151 5
3.7390001 -7.6810002 1.141 5
3.8280001 -7.6539998 1.153 5
3.55 -7.6490002 1.151 5
3.7390001 -7.6669998 1.147 5
3.757 -7.6469998 1.155 5
3.743 -7.6750002 1.143 5
3.8540001 -7.6479998 1.156 5
3.872 -7.6479998 1.156 5
3.855 -7.6589999 1.151 5
3.6329999 -7.6939998 1.135 5
3.727 -7.678 1.142 5
3.674 -7.6469998 1.154 5
3.55 -7.6739998 1.142 5
3.8210001 -7.6620002 1.15 5
3.888 -7.6459999 1.1569999 5
3.609 -7.658 1.148 5
3.654 -7.684 1.1390001 5
3.5580001 -7.6700001 1.143 5
3.7620001 -7.6620002 1.149 5
3.8659999 -7.6539998 1.153 5
3.711 -7.6669998 1.146 5
3.6589999 -7.678 1.141 5
3.54 -7.6589999 1.148 5
3.608 -7.6680002 1.145 5
3.664 -7.6620002 1.147 5
3.652 -7.6810002 1.14 5
3.701 -7.6609998 1.148 5
3.7509999 -7.6500001 1.154 5
3.74 -7.6550002 1.151 5
3.5550001 -7.6760001 1.141 5
3.753 -7.6500001 1.154 5
3.576 -7.6700001 1.143 5
3.6300001 -7.678 1.141 5
3.5550001 -7.664 1.146 5
3.5669999 -7.6869998 1.136 5
3.714 -7.6719999 1.1440001 5
3.8659999 -7.658 1.152 5
3.6140001 -7.6799998 1.14 5
3.7520001 -7.6469998 1.155 5
3.648 -7.665 1.146 5
3.589 -7.6680002 1.1440001 5
3.642 -7.664 1.147 5
3.7349999 -7.6810002 1.141 5
3.661 -7.6570001 1.15 5
3.5799999 -7.6929998 1.1339999 5
3.585 -7.6880002 1.136 5
3.733 -7.6719999 1.145 5
3.6029999 -7.6919999 1.135 5
3.6789999 -7.6849999 1.1390001 5
3.684 -7.6560001 1.15 5
3.829 -7.651 1.154 5
3.6300001 -7.6560001 1.15 5
3.563 -7.6810002 1.1390001 5
3.6670001 -7.6690001 1.145 5
3.8659999 -7.6539998 1.153 5
3.744 -7.6659999 1.147 5
3.5639999 -7.7010002 1.131 5
3.5610001 -7.6719999 1.142 5
3.786 -7.6700001 1.146 5
3.8870001 -7.7350001 1.125 5
3.9100001 -7.7490001 1.122 5
3.888 -7.7659998 1.118 5
3.8699999 -7.7639999 1.118 5
3.881 -7.7340002 1.125 5
3.869 -7.7389998 1.124 5
3.882 -7.7470002 1.122 5
3.8729999 -7.7280002 1.127 5
3.885 -7.7350001 1.125 5
3.8859999 -7.7410002 1.124 5
3.9070001 -7.7550001 1.12 5
3.8859999 -7.7529998 1.1210001 5
3.895 -7.737 1.125 5
3.8699999 -7.7680001 1.117 5
3.9070001 -7.744 1.123 5
3.895 -7.7329998 1.126 5
3.9130001 -7.7480001 1.122 5
3.908 -7.743 1.123 5
3.8770001 -7.7420001 1.123 5
3.9130001 -7.7670002 1.117 5
3.8740001 -7.7280002 1.127 5
3.8840001 -7.7420001 1.123 5
3.9260001 -7.7659998 1.117 5
3.9170001 -7.7579999 1.119 5
3.9219999 -7.7690001 1.117 5
3.8959999 -7.7550001 1.12 5
3.8989999 -7.7529998 1.1210001 5
3.8770001 -7.7290001 1.127 5
3.891 -7.7210002 1.1289999 5
3.9760001 -7.7350001 1.127 5
3.944 -7.7389998 1.125 5
3.915 -7.7319999 1.126 5
3.9820001 -7.737 1.127 5
4 -7.7179999 1.132 5
3.961 -7.7329998 1.127 5
3.9690001 -7.7210002 1.131 5
3.9949999 -7.723 1.131 5
3.98 -7.7340002 1.127 5
3.9790001 -7.7189999 1.132 5
3.9579999 -7.77 1.117 5
3.948 -7.7280002 1.128 5
3.97 -7.7259998 1.1289999 5
3.905 -7.7329998 1.126 5
3.967 -7.7329998 1.127 5
3.97 -7.75 1.123 5
3.9319999 -7.723 1.1289999 5
3.973 -7.7210002 1.131 5
3.9130001 -7.723 1.1289999 5
3.9349999 -7.7410002 1.124 5
3.9389999 -7.7189999 1.131 5
3.9530001 -7.744 1.124 5
3.925 -7.7420001 1.124 5
3.973 -7.7189999 1.132 5
3.9590001 -7.7519999 1.122 5
3.9760001 -7.744 1.124 5
3.9579999 -7.7350001 1.127 5
3.951 -7.743 1.124 5
3.941 -7.7340002 1.126 5
3.918 -7.7350001 1.125 5
3.9389999 -7.7579999 1.12 5
3.957 -7.7340002 1.127 5
3.9219999 -7.7280002 1.127 5
3.95 -7.7179999 1.131 5
3.9419999 -7.7329998 1.127 5
3.971 -7.717 1.132 5
3.927 -7.7340002 1.126 5
3.9430001 -7.7600002 1.119 5
3.9579999 -7.7140002 1.133 5
4.0279999 -7.7140002 1.135 5
4.007 -7.7119999 1.135 5
4.0510001 -7.7140002 1.136 5
3.9489999 -7.7140002 1.132 5
4.0419998 -7.7129998 1.136 5
3.9449999 -7.7119999 1.133 5
3.987 -7.7150002 1.133 5
3.984 -7.6929998 1.141 5
4.027 -7.71 1.137 5
3.95 -7.6810002 1.145 5
3.947 -7.691 1.141 5
4.027 -7.7059999 1.138 5
3.9879999 -7.6690001 1.15 5
3.928 -7.6890001 1.141 5
3.977 -7.6560001 1.154 5
3.8770001 -7.7049999 1.1339999 5
4.072 -7.7080002 1.1390001 5
3.927 -7.71 1.133 5
3.95 -7.6729999 1.147 5
3.9920001 -7.7010002 1.1390001 5
3.8900001 -7.6950002 1.138 5
3.941 -7.6609998 1.151 5
3.9519999 -7.6739998 1.147 5
4.0149999 -7.711 1.136 5
3.9579999 -7.6490002 1.156 5
3.9760001 -7.6690001 1.15 5
3.934 -7.6810002 1.1440001 5
4.0310001 -7.6900001 1.1440001 5
3.971 -7.6750002 1.147 5
3.9790001 -7.6890001 1.143 5
4.0440001 -7.7030001 1.14 5
3.927 -7.6750002 1.146 5
4.0120001 -7.6810002 1.147 5
4.0489998 -7.6849999 1.147 5
3.9860001 -7.6739998 1.148 5
3.947 -7.71 1.1339999 5
3.9219999 -7.6869998 1.142 5
3.928 -7.6999998 1.137 5
4.006 -7.6830001 1.146 5
3.967 -7.7030001 1.137 5
3.9219999 -7.711 1.133 5
3.951 -7.6659999 1.15 5
3.9590001 -7.6589999 1.153 5
4.0570002 -7.7030001 1.14 5
4.0609999 -7.71 1.138 5
3.937 -7.691 1.141 5
4.0619998 -7.6989999 1.142 5
4.0760002 -7.697 1.143 5
4.0040002 -7.6680002 1.151 5
3.9590001 -7.6760001 1.147 5
3.9890001 -7.7059999 1.137 5
3.911 -7.6880002 1.141 5
3.918 -7.6950002 1.1390001 5
4.0170002 -7.6929998 1.143 5
3.947 -7.6950002 1.14 5
3.9879999 -7.6880002 1.143 5
4.079 -7.6989999 1.143 5
3.914 -7.7010002 1.136 5
3.983 -7.7020001 1.138 5
4.0149999 -7.677 1.148 5
3.948 -7.6890001 1.142 5
3.904 -7.7059999 1.1339999 5
4.072 -7.7020001 1.141 5
3.9909999 -7.6890001 1.143 5
3.9860001 -7.6659999 1.151 5
4.02 -7.7090001 1.137 5
3.9660001 -7.6739998 1.148 5
3.938 -7.6900001 1.141 5
4.0009999 -7.664 1.153 5
3.98 -7.6589999 1.154 5
3.885 -7.698 1.136 5
3.9790001 -7.684 1.145 5
3.967 -7.6960001 1.14 5
3.9960001 -7.697 1.141 5
3.925 -7.6989999 1.137 5
3.938 -7.6789999 1.145 5
4.0430002 -7.7090001 1.138 5
4.0120001 -7.7059999 1.138 5
4.0110002 -7.6799998 1.147 5
4.0219998 -7.6739998 1.15 5
4.006 -7.6929998 1.142 5
3.927 -7.684 1.143 5
3.977 -7.6820002 1.145 5
4.0209999 -7.691 1.1440001 5
3.875 -7.7049999 1.133 5
3.9119999 -7.6849999 1.142 5
3.951 -7.678 1.146 5
3.9790001 -7.6750002 1.148 5
3.938 -7.678 1.145 5
3.954 -7.6630001 1.151 5
3.9489999 -7.6550002 1.154 5
4.0510001 -7.7049999 1.1390001 5
4.02 -7.71 1.137 5
4.1329999 -7.73 1.135 5
4.1209998 -7.7329998 1.136 5
4.1290002 -7.7280002 1.135 5
4.158 -7.7290001 1.131 5
4.1550002 -7.7259998 1.132 5
4.119 -7.73 1.136 5
4.1500001 -7.7340002 1.132 5
4.1820002 -7.7379999 1.127 5
4.1960001 -7.7389998 1.125 5
4.1459999 -7.724 1.133 5
4.1170001 -7.7129998 1.138 5
4.171 -7.737 1.1289999 5
4.4450002 -7.77 1.115 5
4.2340002 -7.7600002 1.118 5
4.2420001 -7.7620001 1.117 5
4.335 -7.7579999 1.118 5
4.23 -7.7610002 1.118 5
4.323 -7.77 1.115 5
4.3379998 -7.763 1.117 5
4.323 -7.7680001 1.1160001 5
4.309 -7.7709999 1.115 5
4.2940001 -7.7550001 1.118 5
4.3249998 -7.7589998 1.117 5
4.29 -7.7659998 1.1160001 5
4.3070002 -7.77 1.115 5
4.2849998 -7.7639999 1.117 5
4.323 -7.7659998 1.1160001 5
4.2350001 -7.7579999 1.118 5
4.2529998 -7.7519999 1.119 5
4.2360001 -7.756 1.119 5
4.2719998 -7.7579999 1.118 5
4.2859998 -7.77 1.1160001 5
4.2690001 -7.7509999 1.119 5
4.4159999 -7.77 1.115 5
4.2529998 -7.7709999 1.1160001 5
4.2540002 -7.7519999 1.119 5
4.2319999 -7.7540002 1.119 5
4.2909999 -7.7690001 1.1160001 5
4.3660002 -7.77 1.115 5
4.3940001 -7.7709999 1.115 5
4.2509999 -7.757 1.118 5
4.3099999 -7.7589998 1.118 5
4.1739998 -7.6859999 1.146 5
4.2329998 -7.6440001 1.158 5
4.073 -7.6929998 1.1440001 5
4.0289998 -7.652 1.156 5
4.0970001 -7.651 1.156 5
4.1069999 -7.6459999 1.158 5
4.059 -7.677 1.149 5
4.2880001 -7.6859999 1.146 5
4.1149998 -7.6719999 1.15 5
4.2940001 -7.6440001 1.158 5
4.0040002 -7.6459999 1.158 5
4.2680001 -7.6609998 1.154 5
4.1700001 -7.7020001 1.142 5
4.2600002 -7.671 1.151 5
4.1040001 -7.6700001 1.151 5
4.1069999 -7.6929998 1.1440001 5
4.1810002 -7.6589999 1.154 5
4.0640001 -7.678 1.149 5
4.1719999 -7.6630001 1.153 5
3.9990001 -7.6469998 1.1569999 5
4.4310002 -7.645 1.158 5
4.3319998 -7.6570001 1.155 5
4.3080001 -7.652 1.156 5
4.1230001 -7.6760001 1.149 5
4.211 -7.6599998 1.154 5
4.1609998 -7.6919999 1.145 5
4.2820001 -7.6599998 1.154 5
4.3260002 -7.6750002 1.15 5
4.007 -7.6459999 1.158 5
4.1360002 -7.6929998 1.1440001 5
4.1719999 -7.6560001 1.155 5
4.3109999 -7.6789999 1.148 5
4.3130002 -7.6609998 1.153 5
4.3870001 -7.651 1.156 5
4.1090002 -7.6830001 1.147 5
4.3010001 -7.6599998 1.154 5
4.112 -7.645 1.158 5
4.4359999 -7.645 1.158 5
4.3330002 -7.6719999 1.15 5
4.5209999 -7.6529999 1.156 5
4.3979998 -7.6760001 1.149 5
4.0419998 -7.6609998 1.153 5
4.118 -7.6950002 1.1440001 5
4.4219999 -7.6469998 1.158 5
4.46 -7.665 1.152 5
4.6069999 -7.6459999 1.158 5
4.197 -7.6539998 1.155 5
4.0749998 -7.6729999 1.15 5
4.2740002 -7.645 1.158 5
4.2969999 -7.6700001 1.151 5
4.0910001 -7.691 1.145 5
4.0469999 -7.6810002 1.148 5
4.1199999 -7.6890001 1.145 5
3.977 -7.6459999 1.158 5
4.0510001 -7.645 1.158 5
4.3800001 -7.6570001 1.155 5
4.1129999 -7.711 1.1390001 5
4.224 -7.665 1.152 5
4.1139998 -7.664 1.153 5
4.5739999 -7.6490002 1.1569999 5
4.217 -7.664 1.153 5
4.4660001 -7.6560001 1.155 5
4.1750002 -7.6989999 1.143 5
4.5500002 -7.6490002 1.1569999 5
4.0910001 -7.6680002 1.151 5
4.4640002 -7.6609998 1.154 5
4.348 -7.6599998 1.154 5
4.5370002 -7.6560001 1.155 5
4.3150001 -7.6760001 1.149 5
4.3429999 -7.6620002 1.153 5
4.3130002 -7.6739998 1.15 5
4.2729998 -7.6609998 1.153 5
4.2280002 -7.6799998 1.148 5
4.1459999 -7.7030001 1.142 5
4.151 -7.651 1.156 5
4.1729999 -7.7020001 1.142 5
4.132 -7.7080002 1.14 5
4.2940001 -7.677 1.149 5
4.1059999 -7.6529999 1.156 5
4.1269999 -7.658 1.154 5
4.1960001 -7.6729999 1.15 5
4.0640001 -7.677 1.149 5
4.3119998 -7.6739998 1.15 5
4.0910001 -7.6950002 1.1440001 5
4.3579998 -7.6799998 1.148 5
4.2969999 -7.6849999 1.147 5
4.342 -7.677 1.149 5
4.244 -7.6750002 1.149 5
4.2090001 -7.6960001 1.1440001 5
4.1680002 -7.6929998 1.145 5
4.5339999 -7.6529999 1.156 5
3.987 -7.6479998 1.1569999 5
4.5180001 -7.6620002 1.153 5
4.1069999 -7.6459999 1.158 5
4.0650001 -7.6880002 1.146 5
4.204 -7.6459999 1.158 5
4.086 -7.6900001 1.145 5
4.256 -7.6659999 1.152 5
4.1040001 -7.645 1.158 5
4.395 -7.6739998 1.15 5
4.467 -7.6550002 1.155 5
4.1599998 -7.7020001 1.142 5
4.2410002 -7.6750002 1.15 5
4.4899998 -7.6479998 1.1569999 5
4.1139998 -7.6589999 1.154 5
4.3639998 -7.6690001 1.151 5
4.3119998 -7.652 1.156 5
4.5599999 -7.6539998 1.156 5
4.3379998 -7.6719999 1.151 5
3.984 -7.6469998 1.1569999 5
4.4460001 -7.6690001 1.151 5
4.382 -7.6490002 1.1569999 5
4.1869998 -7.6869998 1.146 5
4.02 -7.6550002 1.155 5
4.3239999 -7.6659999 1.152 5
4.507 -7.658 1.154 5
4.1690001 -7.6690001 1.151 5
4.3730001 -7.664 1.153 5
4.4569998 -7.658 1.154 5
4.164 -7.6630001 1.153 5
4.1810002 -7.664 1.153 5
4.211 -7.664 1.153 5
4.026 -7.652 1.156 5
4.112 -7.7020001 1.142 5
4.2540002 -7.6630001 1.153 5
4.1760001 -7.6529999 1.156 5
4.0300002 -7.658 1.154 5
4.0089998 -7.665 1.152 5
4.2610002 -7.6820002 1.147 5
4.4239998 -7.6459999 1.158 5
4.0599999 -7.6479998 1.1569999 5
4.1550002 -7.6989999 1.143 5
4.0479999 -7.6680002 1.151 5
4.2309999 -7.652 1.156 5
4.164 -7.698 1.143 5
4.3720002 -7.6690001 1.151 5
4.1490002 -7.6849999 1.147 5
4.0700002 -7.6869998 1.146 5
4.4130001 -7.6620002 1.153 5
4.1100001 -7.6810002 1.148 5
4.204 -7.678 1.149 5
4.0339999 -7.671 1.151 5
4.1360002 -7.6950002 1.1440001 5
4.1859999 -7.6620002 1.153 5
4.3379998 -7.6490002 1.1569999 5
4.0430002 -7.6729999 1.15 5
4.4879999 -7.6599998 1.154 5
4.3520002 -7.6719999 1.15 5
4.3969998 -7.6500001 1.1569999 5
4.4429998 -7.6430001 1.159 5
4.1240001 -7.6750002 1.15 5
4.2049999 -7.698 1.143 5
3.971 -7.6490002 1.1569999 5
4.5560002 -7.6459999 1.158 5
4.3049998 -7.6479998 1.1569999 5
4.5019999 -7.645 1.158 5
4.4759998 -7.6539998 1.155 5
4.1880002 -7.678 1.149 5
4.4920001 -7.6420002 1.159 5
4.1999998 -7.6680002 1.151 5
4.0890002 -7.6669998 1.152 5
4.053 -7.6539998 1.155 5
4.4089999 -7.671 1.151 5
4.5349998 -7.6500001 1.1569999 5
4.1989999 -7.6810002 1.148 5
4.4299998 -7.6570001 1.155 5
4.3600001 -7.6729999 1.15 5
4.0819998 -7.6700001 1.151 5
4.2950001 -7.6750002 1.15 5
4.4060001 -7.6719999 1.15 5
4.3439999 -7.6729999 1.15 5
4.0780001 -7.677 1.149 5
4.184 -7.664 1.153 5
4.6539998 -7.6440001 1.158 5
4.2160001 -7.6609998 1.153 5
4.368 -7.6550002 1.155 5
4.204 -7.6479998 1.1569999 5
4.4759998 -7.6630001 1.153 5
4.0279999 -7.664 1.153 5
4.1760001 -7.698 1.143 5
4.2579999 -7.665 1.152 5
4.5170002 -7.6560001 1.155 5
4.1880002 -7.6659999 1.152 5
4.2309999 -7.6690001 1.151 5
4.2340002 -7.6560001 1.155 5
4.316 -7.6570001 1.155 5
4.3340001 -7.6440001 1.158 5
4.2189999 -7.6729999 1.15 5
4.1170001 -7.678 1.149 5
4.6040001 -7.6479998 1.1569999 5
4.1199999 -7.6719999 1.15 5
4.283 -7.6589999 1.154 5
4.4970002 -7.6500001 1.1569999 5
4.3709998 -7.6700001 1.151 5
4.2729998 -7.6620002 1.153 5
4.0669999 -7.6820002 1.147 5
4.4400001 -7.651 1.156 5
4.1919999 -7.645 1.158 5
4.3189998 -7.6849999 1.147 5
4.3330002 -7.6440001 1.158 5
4.6360002 -7.6490002 1.1569999 5
4.2059999 -7.6500001 1.1569999 5
4.3119998 -7.664 1.153 5
4.224 -7.6599998 1.154 5
4.223 -7.6570001 1.155 5
4.0929999 -7.6620002 1.153 5
4.3930001 -7.6440001 1.158 5
4.2059999 -7.6810002 1.148 5
4.2389998 -7.6820002 1.148 5
4.2319999 -7.645 1.158 5
4.1620002 -7.697 1.143 5
4.1209998 -7.6560001 1.155 5
4.6560001 -7.6430001 1.159 5
4.2579999 -7.664 1.153 5
4.131 -7.6810002 1.148 5
4.2179999 -7.684 1.147 5
4.0869999 -7.6789999 1.148 5
4.25 -7.6890001 1.145 5
4.4569998 -7.6690001 1.151 5
4.559 -7.651 1.1569999 5
4.1149998 -7.6459999 1.158 5
4.0279999 -7.6459999 1.158 5
4.2080002 -7.664 1.153 5
4.2020001 -7.6560001 1.155 5
4.0760002 -7.6739998 1.15 5
4.152 -7.7059999 1.141 5
4.3390002 -7.645 1.158 5
4.5669999 -7.6469998 1.158 5
4.086 -7.6609998 1.154 5
4.388 -7.6589999 1.154 5
4.2969999 -7.6849999 1.147 5
4.1690001 -7.6760001 1.149 5
4.0939999 -7.645 1.158 5
4.362 -7.6500001 1.1569999 5
4.4990001 -7.6459999 1.158 5
4.1500001 -7.6659999 1.152 5
4.118 -7.6529999 1.156 5
4.086 -7.658 1.154 5
4.539 -7.658 1.154 5
4.2639999 -7.658 1.154 5
4.0469999 -7.6609998 1.154 5
4.0240002 -7.6500001 1.1569999 5
4.0679998 -7.677 1.149 5
4.3839998 -7.6719999 1.15 5
4.2480001 -7.6550002 1.155 5
4.2389998 -7.6570001 1.155 5
4.086 -7.6999998 1.142 5
4.5929999 -7.6420002 1.159 5
4.013 -7.6539998 1.155 5
4.5840001 -7.6500001 1.1569999 5
4.2919998 -7.6589999 1.154 5
4.2259998 -7.6830001 1.147 5
4.1550002 -7.691 1.145 5
4.5040002 -7.658 1.154 5
4.3629999 -7.651 1.156 5
4.1919999 -7.6690001 1.151 5
4.2810001 -7.6900001 1.145 5
4.131 -7.6919999 1.145 5
4.3990002 -7.6440001 1.158 5
4.244 -7.7389998 1.126 5
4.2459998 -7.7290001 1.131 5
4.3540001 -7.7459998 1.123 5
4.1849999 -7.7189999 1.136 5
4.2470002 -7.7280002 1.132 5
4.1939998 -7.7259998 1.132 5
4.2690001 -7.7270002 1.133 5
4.4640002 -7.7459998 1.125 5
4.2519999 -7.7470002 1.1210001 5
4.2080002 -7.7249999 1.133 5
4.2280002 -7.7399998 1.124 5
4.3439999 -7.7360001 1.1289999 5
4.2199998 -7.7379999 1.125 5
4.131 -7.717 1.136 5
4.2690001 -7.7449999 1.122 5
4.3210001 -7.743 1.125 5
4.184 -7.724 1.133 5
4.2470002 -7.7329998 1.1289999 5
4.2340002 -7.7420001 1.123 5
4.2610002 -7.73 1.131 5
4.4499998 -7.744 1.126 5
4.3610001 -7.7410002 1.126 5
4.408 -7.7399998 1.127 5
4.158 -7.7210002 1.1339999 5
4.1259999 -7.7150002 1.137 5
4.2020001 -7.7249999 1.133 5
4.4060001 -7.7459998 1.124 5
4.4130001 -7.7420001 1.127 5
4.3119998 -7.7399998 1.126 5
4.3439999 -7.7399998 1.127 5
4.2129998 -7.7290001 1.131 5
4.2010002 -7.724 1.133 5
4.1609998 -7.7210002 1.1339999 5
4.296 -7.7459998 1.122 5
4.2280002 -7.7459998 1.1210001 5
4.2740002 -7.744 1.123 5
4.4520001 -7.7470002 1.125 5
4.4380002 -7.744 1.126 5
4.1350002 -7.7150002 1.138 5
4.243 -7.744 1.122 5
4.3600001 -7.7360001 1.1289999 5
4.2859998 -7.7449999 1.123 5
4.3060002 -7.7329998 1.13 5
4.2350001 -7.7259998 1.133 5
4.2449999 -7.7350001 1.128 5
4.4159999 -7.744 1.126 5
4.1960001 -7.7340002 1.127 5
4.1729999 -7.7189999 1.136 5
4.1570001 -7.723 1.133 5
4.2540002 -7.744 1.123 5
4.2129998 -7.7259998 1.133 5
4.211 -7.7319999 1.1289999 5
4.2579999 -7.744 1.122 5
4.1849999 -7.7179999 1.136 5
4.3039999 -7.737 1.128 5
4.4559999 -7.7649999 1.117 5
4.3930001 -7.7509999 1.1210001 5
4.388 -7.7509999 1.1210001 5
4.329 -7.7509999 1.1210001 5
4.3800001 -7.7490001 1.122 5
4.428 -7.7540002 1.1210001 5
4.4310002 -7.7649999 1.1160001 5
4.3730001 -7.7579999 1.118 5
4.395 -7.7470002 1.123 5
4.467 -7.7680001 1.115 5
4.3629999 -7.7529998 1.12 5
4.4229999 -7.75 1.123 5
4.2729998 -7.7509999 1.119 5
4.3779998 -7.7480001 1.123 5
4.4590001 -7.7490001 1.123 5
4.3330002 -7.7490001 1.122 5
4.395 -7.7600002 1.118 5
4.4559999 -7.75 1.123 5
4.4180002 -7.7509999 1.122 5
4.3759999 -7.7529998 1.12 5
4.3639998 -7.7540002 1.12 5
4.3839998 -7.7490001 1.122 5
4.375 -7.7589998 1.118 5
4.29 -7.7519999 1.119 5
4.3730001 -7.7480001 1.123 5
4.2740002 -7.7480001 1.1210001 5
4.4689999 -7.7579999 1.12 5
4.4180002 -7.7639999 1.1160001 5
4.3800001 -7.7470002 1.123 5
4.368 -7.757 1.119 5
4.4499998 -7.7649999 1.117 5
4.3200002 -7.7519999 1.12 5
4.4429998 -7.7589998 1.119 5
4.3470001 -7.7540002 1.119 5
4.4359999 -7.7589998 1.119 5
4.3979998 -7.7589998 1.118 5
4.5 -7.691 1.1440001 5
4.355 -7.7129998 1.137 5
4.5619998 -7.698 1.141 5
4.4749999 -7.7199998 1.1339999 5
4.3239999 -7.7049999 1.14 5
4.349 -7.7189999 1.135 5
4.4369998 -7.6950002 1.143 5
4.4109998 -7.7129998 1.137 5
4.5320001 -7.724 1.133 5
4.4159999 -7.724 1.133 5
4.506 -7.6939998 1.143 5
4.3400002 -7.7119999 1.138 5
4.3720002 -7.73 1.132 5
4.5159998 -7.6890001 1.1440001 5
4.5910001 -7.6560001 1.155 5
4.5679998 -7.6719999 1.15 5
4.6240001 -7.6750002 1.148 5
4.3969998 -7.7329998 1.131 5
4.4510002 -7.6999998 1.141 5
4.316 -7.691 1.145 5
4.5149999 -7.6989999 1.141 5
4.4239998 -7.7189999 1.135 5
4.4400001 -7.7129998 1.137 5
4.4060001 -7.6989999 1.142 5
4.4790001 -7.7030001 1.14 5
4.3889999 -7.7210002 1.135 5
4.434 -7.7160001 1.136 5
4.3260002 -7.7280002 1.133 5
4.3610001 -7.7129998 1.137 5
4.5689998 -7.6750002 1.149 5
4.6220002 -7.678 1.147 5
4.3670001 -7.723 1.1339999 5
4.1459999 -7.7080002 1.14 5
4.5819998 -7.697 1.141 5
4.4860001 -7.677 1.149 5
4.3099999 -7.691 1.145 5
4.1199999 -7.71 1.14 5
4.6339998 -7.6529999 1.156 5
4.5510001 -7.665 1.152 5
4.2670002 -7.6950002 1.1440001 5
4.6869998 -7.6440001 1.159 5
4.2690001 -7.7020001 1.141 5
4.197 -7.7119999 1.1390001 5
4.5640001 -7.6599998 1.154 5
4.5799999 -7.664 1.152 5
4.3400002 -7.723 1.1339999 5
4.2059999 -7.7129998 1.138 5
4.5949998 -7.6589999 1.154 5
4.3730001 -7.6919999 1.1440001 5
4.4299998 -7.6999998 1.141 5
4.4130001 -7.7379999 1.1289999 5
4.5359998 -7.697 1.142 5
4.4419999 -7.7319999 1.131 5
4.3080001 -7.7020001 1.141 5
4.3730001 -7.7030001 1.141 5
4.1950002 -7.717 1.137 5
4.3850002 -7.6939998 1.143 5
4.5609999 -7.7020001 1.14 5
4.4689999 -7.6989999 1.141 5
4.6059999 -7.678 1.147 5
4.5279999 -7.7129998 1.136 5
4.4219999 -7.7160001 1.136 5
4.1820002 -7.717 1.137 5
4.3709998 -7.6999998 1.142 5
4.2600002 -7.7179999 1.136 5
4.1989999 -7.7010002 1.142 5
4.3150001 -7.7249999 1.1339999 5
4.2600002 -7.7090001 1.1390001 5
4.527 -7.6700001 1.151 5
4.5960002 -7.6659999 1.152 5
4.6399999 -7.6599998 1.153 5
4.336 -7.717 1.136 5
4.3940001 -7.7119999 1.137 5
4.4060001 -7.6939998 1.143 5
4.572 -7.6729999 1.15 5
4.3839998 -7.717 1.136 5
4.4819999 -7.737 1.1289999 5
4.277 -7.6960001 1.143 5
4.316 -7.71 1.1390001 5
4.5419998 -7.7020001 1.14 5
4.3730001 -7.7020001 1.141 5
4.4720001 -7.6690001 1.151 5
4.4770002 -7.6869998 1.145 5
4.211 -7.71 1.1390001 5
4.3800001 -7.7140002 1.137 5
4.4959998 -7.677 1.148 5
4.401 -7.6820002 1.147 5
4.2529998 -7.7140002 1.137 5
4.3870001 -7.6789999 1.148 5
4.1739998 -7.7140002 1.138 5
4.428 -7.6750002 1.15 5
4.2659998 -7.6989999 1.142 5
4.3779998 -7.6900001 1.145 5
4.5489998 -7.6900001 1.1440001 5
4.3889999 -7.7220001 1.1339999 5
4.4959998 -7.7049999 1.1390001 5
4.467 -7.7309999 1.131 5
4.3000002 -7.698 1.142 5
4.3509998 -7.723 1.1339999 5
4.4759998 -7.7129998 1.137 5
4.3169999 -7.7080002 1.1390001 5
4.348 -7.6999998 1.141 5
4.3889999 -7.6830001 1.147 5
4.6389999 -7.6669998 1.151 5
4.4159999 -7.7210002 1.1339999 5
4.3800001 -7.684 1.147 5
4.2740002 -7.7030001 1.141 5
4.2729998 -7.7059999 1.14 5
4.625 -7.678 1.148 5
4.5029998 -7.7270002 1.132 5
4.533 -7.6989999 1.141 5
4.5050001 -7.7410002 1.127 5
4.3309999 -7.6859999 1.146 5
4.3699999 -7.7160001 1.136 5
4.4039998 -7.6799998 1.148 5
4.421 -7.6960001 1.142 5
4.2740002 -7.7140002 1.137 5
4.5289998 -7.7150002 1.136 5
4.448 -7.6789999 1.148 5
4.4289999 -7.7379999 1.1289999 5
4.2820001 -7.6989999 1.142 5
4.5170002 -7.665 1.152 5
4.3210001 -7.7080002 1.1390001 5
4.5380001 -7.664 1.153 5
4.4510002 -7.7389998 1.128 5
4.5139999 -7.7059999 1.1390001 5
4.4289999 -7.697 1.142 5
4.3790002 -7.6830001 1.147 5
4.3649998 -7.73 1.132 5
4.552 -7.6760001 1.148 5
4.454 -7.691 1.1440001 5
4.3829999 -7.6820002 1.147 5
4.4679999 -7.7389998 1.128 5
4.559 -7.671 1.15 5
4.4219999 -7.677 1.149 5
4.3200002 -7.7270002 1.133 5
4.5229998 -7.6939998 1.143 5
4.5929999 -7.6550002 1.155 5
4.5349998 -7.665 1.152 5
4.131 -7.71 1.1390001 5
4.6399999 -7.665 1.152 5
4.336 -7.7270002 1.133 5
4.2519999 -7.7090001 1.1390001 5
4.1830001 -7.717 1.137 5
4.585 -7.658 1.154 5
4.598 -7.6539998 1.156 5
4.3410001 -7.6869998 1.146 5
4.4590001 -7.6919999 1.1440001 5
4.4559999 -7.6950002 1.143 5
4.5489998 -7.7199998 1.1339999 5
4.4650002 -7.6690001 1.151 5
4.5250001 -7.7270002 1.132 5
4.3940001 -7.724 1.133 5
4.4380002 -7.7340002 1.13 5
4.5370002 -7.71 1.137 5
4.368 -7.6929998 1.1440001 5
4.402 -7.7150002 1.136 5
4.5489998 -7.7129998 1.136 5
4.4629998 -7.677 1.149 5
4.4899998 -7.697 1.142 5
4.5949998 -7.6659999 1.152 5
4.6479998 -7.664 1.152 5
4.5089998 -7.6919999 1.143 5
4.2610002 -7.7199998 1.135 5
4.5689998 -7.7090001 1.138 5
4.4710002 -7.7140002 1.136 5
4.6599998 -7.6589999 1.154 5
4.4559999 -7.7140002 1.136 5
4.3930001 -7.7340002 1.13 5
4.4679999 -7.6820002 1.147 5
4.5209999 -7.6960001 1.142 5
4.3670001 -7.7329998 1.131 5
4.4910002 -7.723 1.133 5
4.4549999 -7.717 1.135 5
4.263 -7.7160001 1.137 5
4.6820002 -7.6459999 1.158 5
4.4549999 -7.6810002 1.147 5
4.5190001 -7.7280002 1.131 5
4.5939999 -7.678 1.147 5
4.4990001 -7.7020001 1.14 5
4.1459999 -7.7090001 1.14 5
4.4130001 -7.7210002 1.1339999 5
4.2919998 -7.717 1.136 5
4.5 -7.6799998 1.147 5
4.454 -7.7329998 1.13 5
4.4530001 -7.6890001 1.145 5
4.401 -7.7010002 1.141 5
4.638 -7.6700001 1.15 5
4.5339999 -7.704 1.1390001 5
4.4899998 -7.743 1.127 5
4.178 -7.711 1.1390001 5
4.5700002 -7.6859999 1.145 5
4.4749999 -7.743 1.127 5
4.4310002 -7.6950002 1.143 5
4.5349998 -7.7189999 1.1339999 5
4.4289999 -7.6789999 1.148 5
4.302 -7.7210002 1.135 5
4.4850001 -7.7280002 1.132 5
4.2189999 -7.7160001 1.137 5
4.4320002 -7.7270002 1.132 5
4.4549999 -7.6729999 1.15 5
4.4889998 -7.698 1.142 5
4.2329998 -7.7179999 1.136 5
4.527 -7.711 1.137 5
4.6199999 -7.677 1.148 5
4.5029998 -7.6849999 1.146 5
4.3080001 -7.7129998 1.138 5
4.289 -7.7090001 1.1390001 5
4.329 -7.7129998 1.137 5
4.3340001 -7.6950002 1.143 5
4.5 -7.6700001 1.151 5
4.6869998 -7.6440001 1.158 5
4.5479999 -7.7049999 1.1390001 5
4.4840002 -7.6700001 1.151 5
4.3590002 -7.704 1.14 5
4.5679998 -7.6700001 1.15 5
4.329 -7.6999998 1.142 5
4.3639998 -7.7210002 1.135 5
4.4359999 -7.7329998 1.13 5
4.4289999 -7.6869998 1.145 5
4.4660001 -7.7259998 1.133 5
4.4510002 -7.7140002 1.136 5
4.2789998 -7.717 1.136 5
4.605 -7.6729999 1.149 5
4.4920001 -7.7420001 1.127 5
4.3979998 -7.7129998 1.137 5
4.4419999 -7.6830001 1.147 5
4.2459998 -7.6999998 1.142 5
4.401 -7.6950002 1.143 5
4.5209999 -7.7059999 1.1390001 5
4.5219998 -7.6830001 1.146 5
4.3249998 -7.691 1.145 5
4.546 -7.671 1.15 5
4.3239999 -7.711 1.138 5
4.5029998 -7.7179999 1.135 5
4.2020001 -7.7090001 1.1390001 5
4.3270001 -7.723 1.1339999 5
4.2410002 -7.6999998 1.142 5
4.4920001 -7.6960001 1.142 5
4.3309999 -7.7090001 1.1390001 5
4.5929999 -7.6750002 1.148 5
4.5409999 -7.6620002 1.153 5
4.4320002 -7.6960001 1.142 5
4.257 -7.723 1.1339999 5
4.4000001 -7.697 1.142 5
4.5359998 -7.6880002 1.145 5
4.4759998 -7.6939998 1.143 5
4.5669999 -7.684 1.146 5
4.6669998 -7.6469998 1.1569999 5
4.4549999 -7.7270002 1.132 5
4.4619999 -7.7340002 1.13 5
4.4650002 -7.7080002 1.138 5
4.4689999 -7.7030001 1.14 5
4.4219999 -7.7259998 1.133 5
4.757 -7.7309999 1.133 5
4.8709998 -7.723 1.137 5
4.7399998 -7.7329998 1.132 5
4.9320002 -7.7179999 1.141 5
4.9660001 -7.7160001 1.142 5
4.79 -7.7350001 1.123 5
4.9559999 -7.7179999 1.1390001 5
4.632 -7.743 1.122 5
4.803 -7.7280002 1.1339999 5
4.7969999 -7.7360001 1.122 5
4.5970001 -7.7410002 1.128 5
4.7649999 -7.737 1.122 5
4.5229998 -7.7470002 1.124 5
4.862 -7.724 1.137 5
4.902 -7.7189999 1.142 5
4.8559999 -7.7290001 1.1289999 5
4.7930002 -7.7329998 1.126 5
4.7509999 -7.7350001 1.126 5
4.7789998 -7.7360001 1.122 5
4.52 -7.7459998 1.125 5
4.7579999 -7.7340002 1.127 5
4.8470001 -7.7249999 1.136 5
4.8520002 -7.7290001 1.128 5
4.8509998 -7.7270002 1.132 5
4.9829998 -7.7140002 1.1440001 5
4.8130002 -7.73 1.131 5
4.8119998 -7.7340002 1.123 5
4.5229998 -7.7459998 1.125 5
4.7789998 -7.7319999 1.13 5
4.7589998 -7.7389998 1.12 5
4.796 -7.737 1.12 5
4.9710002 -7.7150002 1.1440001 5
4.8369999 -7.7280002 1.133 5
4.6820002 -7.7379999 1.127 5
4.8649998 -7.723 1.1390001 5
4.8119998 -7.7329998 1.125 5
4.6500001 -7.737 1.131 5
4.8390002 -7.73 1.1289999 5
4.7800002 -7.7350001 1.124 5
4.8559999 -7.723 1.138 5
4.598 -7.743 1.125 5
4.8429999 -7.7249999 1.136 5
4.8629999 -7.7220001 1.1390001 5
4.6079998 -7.7420001 1.125 5
4.7140002 -7.7360001 1.127 5
4.8940001 -7.7220001 1.138 5
4.9000001 -7.7249999 1.131 5
4.9650002 -7.7150002 1.1440001 5
4.573 -7.744 1.125 5
4.6739998 -7.7379999 1.127 5
4.8319998 -7.7319999 1.126 5
4.7309999 -7.7329998 1.131 5
4.9070001 -7.7199998 1.14 5
4.9629998 -7.7160001 1.1440001 5
4.756 -7.7389998 1.12 5
4.7360001 -7.7340002 1.1289999 5
4.6849999 -7.7360001 1.13 5
4.9289999 -7.7199998 1.1390001 5
4.6680002 -7.7379999 1.128 5
4.664 -7.7379999 1.1289999 5
4.6820002 -7.7360001 1.1289999 5
4.744 -7.7340002 1.1289999 5
4.6149998 -7.744 1.122 5
5.0040002 -7.7119999 1.146 5
4.6820002 -7.7360001 1.131 5
4.9109998 -7.724 1.1339999 5
4.6040001 -7.7309999 1.131 5
4.7909999 -7.7049999 1.14 5
4.777 -7.6999998 1.141 5
4.98 -7.6890001 1.149 5
4.9429998 -7.6830001 1.148 5
5.118 -7.645 1.16 5
4.8940001 -7.6880002 1.146 5
4.9390001 -7.7140002 1.1440001 5
4.7880001 -7.7010002 1.141 5
4.9780002 -7.7090001 1.146 5
5.066 -7.6560001 1.156 5
4.9190001 -7.6950002 1.146 5
4.9809999 -7.7049999 1.146 5
4.6999998 -7.7220001 1.135 5
4.7189999 -7.724 1.135 5
4.8740001 -7.6950002 1.1440001 5
4.6830001 -7.7249999 1.1339999 5
4.9429998 -7.691 1.147 5
4.8660002 -7.7140002 1.142 5
4.823 -7.7010002 1.142 5
4.7069998 -7.723 1.135 5
5.0570002 -7.6539998 1.156 5
5.0139999 -7.6630001 1.154 5
4.6719999 -7.7210002 1.1339999 5
4.9780002 -7.6890001 1.149 5
5.0489998 -7.6690001 1.154 5
4.9000001 -7.7010002 1.1440001 5
4.8429999 -7.7069998 1.142 5
4.9429998 -7.698 1.146 5
4.6469998 -7.724 1.133 5
4.9419999 -7.7160001 1.1440001 5
4.9780002 -7.678 1.15 5
4.9460001 -7.677 1.149 5
5.0089998 -7.6880002 1.15 5
4.7909999 -7.6999998 1.141 5
4.941 -7.6869998 1.148 5
4.9650002 -7.6680002 1.151 5
4.7379999 -7.7189999 1.137 5
4.8699999 -7.7069998 1.143 5
4.9569998 -7.7150002 1.1440001 5
4.7119999 -7.7160001 1.136 5
4.823 -7.704 1.142 5
5.0419998 -7.6820002 1.152 5
4.9439998 -7.6760001 1.149 5
5.1079998 -7.6589999 1.1569999 5
4.901 -7.6939998 1.145 5
4.7839999 -7.7189999 1.138 5
4.8579998 -7.6989999 1.143 5
4.7030001 -7.7210002 1.135 5
5.006 -7.6869998 1.15 5
4.5900002 -7.737 1.13 5
4.9959998 -7.6859999 1.15 5
5.0640001 -7.6830001 1.152 5
5.0139999 -7.6859999 1.15 5
4.763 -7.7210002 1.137 5
4.9980001 -7.6630001 1.153 5
4.9499998 -7.711 1.145 5
5.0079999 -7.6890001 1.15 5
4.9510002 -7.691 1.148 5
4.579 -7.7389998 1.1289999 5
5.1389999 -7.6389999 1.161 5
4.9320002 -7.6929998 1.147 5
4.9990001 -7.6830001 1.15 5
4.848 -7.6900001 1.1440001 5
5.0770001 -7.6539998 1.1569999 5
5 -7.6729999 1.152 5
4.9899998 -7.671 1.152 5
4.6420002 -7.737 1.131 5
4.9349999 -7.6999998 1.146 5
4.9310002 -7.6820002 1.148 5
4.9349999 -7.6950002 1.146 5
4.789 -7.711 1.14 5
4.7709999 -7.7059999 1.14 5
4.9109998 -7.6869998 1.147 5
5.0479999 -7.6880002 1.151 5
4.6859999 -7.717 1.135 5
4.9060001 -7.6820002 1.147 5
4.9920001 -7.6960001 1.148 5
4.7639999 -7.711 1.1390001 5
4.631 -7.7249999 1.132 5
4.8670001 -7.7160001 1.141 5
4.9109998 -7.698 1.145 5
5.0500002 -7.6799998 1.152 5
4.8460002 -7.7129998 1.141 5
4.9710002 -7.6989999 1.147 5
4.9439998 -7.6900001 1.147 5
4.882 -7.7059999 1.143 5
4.8239999 -7.7090001 1.141 5
4.8649998 -7.711 1.142 5
4.6259999 -7.7270002 1.132 5
4.961 -7.7150002 1.1440001 5
4.6830001 -7.7270002 1.1339999 5
4.7459998 -7.7080002 1.1390001 5
4.9889998 -7.6919999 1.149 5
4.9190001 -7.6950002 1.146 5
4.8730001 -7.6900001 1.145 5
4.9029999 -7.7020001 1.1440001 5
5.0510001 -7.6830001 1.152 5
4.8429999 -7.7150002 1.141 5
4.7680001 -7.7199998 1.138 5
4.7789998 -7.7199998 1.138 5
5.0819998 -7.658 1.1569999 5
4.8319998 -7.7160001 1.14 5
4.9400001 -7.6950002 1.147 5
4.9099998 -7.6900001 1.146 5
4.5939999 -7.7389998 1.1289999 5
4.599 -7.73 1.131 5
5.0489998 -7.6890001 1.151 5
4.9229999 -7.7020001 1.145 5
4.8909998 -7.7129998 1.142 5
5.059 -7.6750002 1.153 5
5.02 -7.6599998 1.154 5
4.6129999 -7.7340002 1.131 5
4.9000001 -7.6830001 1.147 5
4.6350002 -7.73 1.132 5
4.8210001 -7.7220001 1.1390001 5
5.1339998 -7.6430001 1.16 5
4.829 -7.7080002 1.141 5
5.0139999 -7.6900001 1.15 5
4.8010001 -7.698 1.142 5
5.0510001 -7.658 1.156 5
4.7319999 -7.7259998 1.136 5
4.934 -7.6919999 1.147 5
4.954 -7.6939998 1.147 5
4.6630001 -7.7319999 1.133 5
4.7779999 -7.7249999 1.137 5
4.625 -7.7319999 1.131 5
4.7659998 -7.7030001 1.14 5
4.8330002 -7.697 1.143 5
5.0250001 -7.6869998 1.151 5
4.941 -7.6849999 1.148 5
4.7030001 -7.7329998 1.1339999 5
4.848 -7.6929998 1.1440001 5
4.855 -7.6950002 1.1440001 5
4.6399999 -7.7329998 1.132 5
5.0040002 -7.665 1.153 5
4.7639999 -7.7069998 1.1390001 5
4.8889999 -7.7199998 1.141 5
4.7519999 -7.7069998 1.1390001 5
4.7179999 -7.711 1.137 5
4.947 -7.678 1.149 5
4.9229999 -7.6919999 1.147 5
4.941 -7.6869998 1.148 5
4.9180002 -7.6789999 1.148 5
5.0539999 -7.6659999 1.155 5
5.0310001 -7.7030001 1.148 5
5.0229998 -7.6859999 1.151 5
4.8709998 -7.7049999 1.143 5
4.8969998 -7.6890001 1.146 5
4.7989998 -7.6960001 1.142 5
4.9310002 -7.6880002 1.147 5
4.96 -7.6960001 1.147 5
4.9749999 -7.7059999 1.146 5
4.908 -7.6880002 1.147 5
5.0149999 -7.6960001 1.149 5
4.6350002 -7.737 1.131 5
5.0560002 -7.6739998 1.153 5
4.881 -7.6960001 1.145 5
4.79 -7.6989999 1.141 5
4.7989998 -7.7049999 1.141 5
4.7839999 -7.7220001 1.138 5
5.0700002 -7.651 1.1569999 5
5.007 -7.6810002 1.151 5
4.823 -7.7160001 1.14 5
4.6729999 -7.724 1.1339999 5
5.0240002 -7.6750002 1.152 5
5.0599999 -7.677 1.153 5
4.7589998 -7.7080002 1.1390001 5
4.7930002 -7.717 1.1390001 5
4.71 -7.724 1.135 5
5.0050001 -7.7059999 1.147 5
5.0650001 -7.6570001 1.156 5
5.039 -7.6680002 1.154 5
5.099 -7.6459999 1.159 5
4.9559999 -7.638 1.161 5
4.7290001 -7.6459999 1.158 5
4.8340001 -7.6729999 1.149 5
4.954 -7.6529999 1.156 5
4.6929998 -7.6729999 1.149 5
4.5489998 -7.724 1.133 5
4.9749999 -7.6409998 1.16 5
4.73 -7.6529999 1.155 5
4.7179999 -7.7080002 1.138 5
4.8889999 -7.6589999 1.154 5
4.651 -7.704 1.1390001 5
4.7049999 -7.697 1.142 5
4.6960001 -7.6739998 1.149 5
4.6939998 -7.6890001 1.1440001 5
4.6929998 -7.6490002 1.1569999 5
4.6059999 -7.691 1.143 5
4.9439998 -7.6669998 1.152 5
4.6399999 -7.6859999 1.145 5
4.5640001 -7.7199998 1.1339999 5
4.691 -7.6890001 1.1440001 5
4.6409998 -7.7129998 1.136 5
5.0960002 -7.6399999 1.161 5
4.5679998 -7.7290001 1.131 5
4.7670002 -7.6589999 1.154 5
4.8800001 -7.6399999 1.16 5
4.8210001 -7.6550002 1.155 5
4.8540001 -7.6789999 1.148 5
4.6880002 -7.678 1.147 5
4.9219999 -7.6440001 1.159 5
5.053 -7.638 1.161 5
4.8579998 -7.6420002 1.159 5
4.632 -7.7069998 1.138 5
4.5599999 -7.7270002 1.132 5
4.6420002 -7.7069998 1.138 5
4.7309999 -7.6869998 1.145 5
4.8179998 -7.6859999 1.145 5
5.0500002 -7.6420002 1.16 5
4.5229998 -7.7389998 1.128 5
4.9559999 -7.652 1.156 5
4.6139998 -7.7220001 1.1339999 5
4.8899999 -7.6570001 1.154 5
4.8979998 -7.6459999 1.158 5
4.7459998 -7.6820002 1.146 5
4.6240001 -7.7259998 1.132 5
4.7319999 -7.704 1.1390001 5
4.8639998 -7.6560001 1.155 5
4.8990002 -7.652 1.156 5
4.7529998 -7.6799998 1.147 5
4.7119999 -7.7090001 1.138 5
4.5510001 -7.7319999 1.13 5
4.6760001 -7.6919999 1.143 5
5.1009998 -7.638 1.161 5
4.9569998 -7.6469998 1.158 5
4.677 -7.6950002 1.142 5
4.8189998 -7.651 1.156 5
4.8390002 -7.6570001 1.154 5
4.9879999 -7.6589999 1.154 5
4.717 -7.7059999 1.1390001 5
4.638 -7.6929998 1.143 5
4.8449998 -7.6810002 1.147 5
4.8249998 -7.6440001 1.158 5
4.678 -7.6799998 1.147 5
4.9169998 -7.6750002 1.149 5
4.7579999 -7.6929998 1.143 5
4.7329998 -7.6830001 1.146 5
4.803 -7.6760001 1.148 5
4.9759998 -7.6389999 1.16 5
4.5209999 -7.7399998 1.127 5
4.803 -7.684 1.146 5
4.6750002 -7.6729999 1.149 5
4.5539999 -7.7259998 1.132 5
4.8140001 -7.691 1.1440001 5
4.8889999 -7.678 1.148 5
4.7519999 -7.684 1.146 5
4.7059999 -7.6919999 1.143 5
4.6220002 -7.6880002 1.1440001 5
4.954 -7.6399999 1.16 5
4.8189998 -7.677 1.148 5
5.0339999 -7.6550002 1.156 5
4.803 -7.6869998 1.145 5
4.8540001 -7.6799998 1.147 5
4.829 -7.6750002 1.149 5
4.8369999 -7.6869998 1.145 5
4.8639998 -7.6479998 1.1569999 5
4.7620001 -7.6589999 1.154 5
4.6259999 -7.7119999 1.136 5
4.6539998 -7.7140002 1.136 5
4.7399998 -7.6799998 1.147 5
4.8449998 -7.6680002 1.151 5
4.849 -7.6599998 1.154 5
4.7049999 -7.671 1.15 5
4.7020001 -7.6869998 1.145 5
4.908 -7.677 1.148 5
4.7639999 -7.6849999 1.146 5
4.9039998 -7.671 1.15 5
4.9330001 -7.6389999 1.16 5
4.6820002 -7.6700001 1.15 5
4.8119998 -7.6810002 1.147 5
4.6950002 -7.678 1.148 5
4.7379999 -7.645 1.158 5
4.7290001 -7.6680002 1.151 5
4.6960001 -7.6680002 1.151 5
4.8010001 -7.651 1.156 5
4.7740002 -7.645 1.158 5
4.6059999 -7.7010002 1.14 5
5.0110002 -7.6560001 1.155 5
4.7969999 -7.6599998 1.153 5
4.6490002 -7.6799998 1.147 5
4.7870002 -7.6539998 1.155 5
4.8790002 -7.671 1.15 5
4.6459999 -7.697 1.141 5
4.8460002 -7.651 1.156 5
4.8779998 -7.6609998 1.153 5
4.8920002 -7.6430001 1.159 5
4.691 -7.7030001 1.14 5
4.7550001 -7.6620002 1.153 5
4.8909998 -7.6459999 1.158 5
4.6069999 -7.7059999 1.1390001 5
4.8119998 -7.6440001 1.159 5
4.8470001 -7.6409998 1.159 5
4.9109998 -7.6620002 1.153 5
4.7420001 -7.6680002 1.151 5
4.8099999 -7.6830001 1.146 5
4.6880002 -7.6490002 1.1569999 5
4.7740002 -7.6479998 1.1569999 5
4.6789999 -7.652 1.156 5
4.842 -7.6430001 1.159 5
4.868 -7.6430001 1.159 5
4.7319999 -7.6890001 1.1440001 5
4.7670002 -7.6750002 1.149 5
4.7160001 -7.6479998 1.1569999 5
4.6160002 -7.7210002 1.1339999 5
4.868 -7.6570001 1.154 5
5.0869999 -7.638 1.161 5
4.7179999 -7.6560001 1.154 5
4.967 -7.665 1.152 5
4.7690001 -7.6440001 1.158 5
4.7319999 -7.6669998 1.151 5
4.7659998 -7.6409998 1.159 5
4.71 -7.6799998 1.147 5
4.6030002 -7.7160001 1.135 5
4.8060002 -7.678 1.148 5
4.9089999 -7.6500001 1.1569999 5
4.6880002 -7.6859999 1.145 5
4.7589998 -7.684 1.146 5
4.5929999 -7.7059999 1.138 5
4.5510001 -7.7249999 1.132 5
5.0830002 -7.6469998 1.158 5
4.7470002 -7.678 1.148 5
4.7410002 -7.6950002 1.142 5
4.849 -7.6799998 1.147 5
4.5669999 -7.7290001 1.131 5
4.6760001 -7.671 1.15 5
4.6849999 -7.6760001 1.148 5
4.533 -7.7340002 1.1289999 5
4.6810002 -7.7010002 1.14 5
4.8200002 -7.6609998 1.153 5
4.6939998 -7.6810002 1.146 5
4.9559999 -7.6399999 1.16 5
4.9130001 -7.651 1.1569999 5
4.8449998 -7.6469998 1.158 5
4.8429999 -7.6409998 1.16 5
4.6890001 -7.7069998 1.138 5
4.9970002 -7.638 1.161 5
4.6570001 -7.697 1.141 5
4.7420001 -7.6430001 1.159 5
4.7420001 -7.6830001 1.146 5
4.8060002 -7.6789999 1.147 5
4.704 -7.645 1.158 5
4.7989998 -7.6690001 1.151 5
4.8889999 -7.664 1.152 5
4.6999998 -7.6719999 1.149 5
4.8270001 -7.6440001 1.159 5
4.7189999 -7.7010002 1.14 5
4.8449998 -7.6609998 1.153 5
4.5970001 -7.704 1.1390001 5
4.8260002 -7.6760001 1.148 5
4.98 -7.6440001 1.159 5
4.7930002 -7.6479998 1.1569999 5
4.8540001 -7.6529999 1.156 5
4.7179999 -7.6570001 1.154 5
4.5630002 -7.7340002 1.13 5
4.875 -7.6479998 1.1569999 5
4.8850002 -7.652 1.156 5
4.7199998 -7.6620002 1.153 5
4.9809999 -7.658 1.154 5
4.6290002 -7.7020001 1.14 5
4.6220002 -7.6960001 1.142 5
4.8959999 -7.6430001 1.159 5
4.7880001 -7.6459999 1.158 5
4.7459998 -7.691 1.143 5
4.5809999 -7.7319999 1.13 5
5.006 -7.6409998 1.16 5
4.77 -7.6529999 1.156 5
4.7090001 -7.6830001 1.146 5
4.756 -7.6420002 1.159 5
4.9970002 -7.6430001 1.159 5
4.7459998 -7.6750002 1.149 5
4.605 -7.7080002 1.138 5
4.744 -7.6409998 1.159 5
4.849 -7.6690001 1.151 5
4.7909999 -7.6789999 1.147 5
4.6739998 -7.6589999 1.154 5
4.914 -7.651 1.156 5
4.6810002 -7.7069998 1.138 5
4.8870001 -7.677 1.148 5
4.7680001 -7.6820002 1.146 5
4.9349999 -7.671 1.15 5
4.7690001 -7.652 1.156 5
4.6469998 -7.71 1.137 5
4.5640001 -7.7220001 1.133 5
4.7379999 -7.6539998 1.155 5
4.756 -7.691 1.1440001 5
4.947 -7.6409998 1.16 5
5.006 -7.6459999 1.159 5
4.8049998 -7.664 1.152 5
4.612 -7.704 1.1390001 5
4.7750001 -7.697 1.142 5
4.6420002 -7.6859999 1.145 5
4.5580001 -7.724 1.133 5
4.7140002 -7.7010002 1.14 5
4.954 -7.6550002 1.155 5
4.632 -7.6820002 1.146 5
4.902 -7.6490002 1.1569999 5
4.9899998 -7.6539998 1.156 5
4.5819998 -7.717 1.135 5
4.9580002 -7.6599998 1.154 5
4.7030001 -7.7119999 1.137 5
4.8169999 -7.6490002 1.1569999 5
4.7940001 -7.6490002 1.1569999 5
4.862 -7.6810002 1.147 5
4.7950001 -7.6620002 1.153 5
4.6939998 -7.6880002 1.1440001 5
4.7210002 -7.6729999 1.149 5
4.5419998 -7.7259998 1.132 5
5.0250001 -7.6479998 1.158 5
4.618 -7.6999998 1.14 5
4.6129999 -7.6929998 1.143 5
4.573 -7.7129998 1.136 5
4.7579999 -7.6680002 1.151 5
4.652 -7.6810002 1.146 5
4.717 -7.671 1.15 5
4.7259998 -7.6810002 1.147 5
4.8629999 -7.6659999 1.152 5
4.9559999 -7.73 1.132 5
4.9569998 -7.7220001 1.137 5
4.908 -7.7379999 1.125 5
4.9390001 -7.7270002 1.133 5
4.9790001 -7.724 1.137 5
4.974 -7.7280002 1.135 5
4.9070001 -7.7259998 1.131 5
4.9159999 -7.7340002 1.127 5
4.8569999 -7.7389998 1.1210001 5
4.9169998 -7.7280002 1.131 5
4.8889999 -7.7319999 1.127 5
4.9899998 -7.7150002 1.143 5
4.9159999 -7.7329998 1.128 5
4.9569998 -7.724 1.136 5
4.9460001 -7.7399998 1.127 5
4.8340001 -7.7350001 1.122 5
4.8979998 -7.7329998 1.127 5
4.9039998 -7.7290001 1.13 5
4.862 -7.737 1.122 5
4.9710002 -7.7319999 1.132 5
4.8899999 -7.7309999 1.127 5
4.9530001 -7.7379999 1.128 5
4.96 -7.7189999 1.1390001 5
4.9229999 -7.7319999 1.1289999 5
4.9000001 -7.7410002 1.123 5
4.9359999 -7.7379999 1.127 5
4.869 -7.7360001 1.123 5
4.9460001 -7.7350001 1.1289999 5
5.0079999 -7.7140002 1.145 5
4.9239998 -7.7290001 1.131 5
4.9380002 -7.7259998 1.1339999 5
4.8889999 -7.7319999 1.127 5
5.0359998 -7.7020001 1.148 5
5.0780001 -7.6820002 1.149 5
5.1329999 -7.6459999 1.159 5
5.0799999 -7.6820002 1.149 5
5.0630002 -7.6939998 1.145 5
5.0430002 -7.6989999 1.149 5
5.0489998 -7.704 1.142 5
5.0380001 -7.7069998 1.143 5
5.105 -7.664 1.155 5
5.039 -7.7069998 1.143 5
5.0669999 -7.684 1.152 5
5.066 -7.6950002 1.143 5
5.1149998 -7.6570001 1.1569999 5
5.0609999 -7.6989999 1.141 5
5.1110001 -7.7399998 1.123 5
5.1240001 -7.7379999 1.12 5
5.1900001 -7.7389998 1.105 5
5.0900002 -7.7220001 1.127 5
5.1370001 -7.737 1.117 5
5.079 -7.7220001 1.13 5
5.0669999 -7.7249999 1.133 5
5.1680002 -7.7360001 1.11 5
5.059 -7.7379999 1.135 5
5.1560001 -7.7360001 1.112 5
5.164 -7.737 1.1109999 5
5.0970001 -7.73 1.126 5
5.085 -7.7210002 1.128 5
5.158 -7.7410002 1.112 5
5.0510001 -7.7220001 1.136 5
5.066 -7.737 1.1339999 5
5.1760001 -7.7399998 1.108 5
5.1350002 -7.7389998 1.117 5
5.165 -7.7350001 1.11 5
