# .PCD v0.7 - Point Cloud Data file format
VERSION 0.7
FIELDS x y z label
SIZE 4 4 4 4
TYPE F F F U
COUNT 1 1 1 1
WIDTH 1672
HEIGHT 1
VIEWPOINT 0 0 0 1 0 0 0
POINTS 1672
DATA ascii
3.3659999 -6.9190001 1.91 1
3.4219999 -6.9180002 1.819 1
3.4059999 -6.928 1.768 1
3.4319999 -6.9109998 1.857 1
3.392 -6.9260001 1.808 1
3.3829999 -6.928 1.804 1
3.388 -6.9299998 1.7869999 1
3.424 -6.9169998 1.827 1
3.4330001 -6.914 1.835 1
3.3800001 -6.9239998 1.842 1
3.391 -6.927 1.799 1
3.3829999 -6.9219999 1.85 1
3.325 -6.9190001 1.972 1
3.3340001 -6.921 1.948 1
3.392 -6.934 1.748 1
3.425 -6.9190001 1.8049999 1
3.4000001 -6.9310002 1.752 1
3.401 -6.9310002 1.75 1
3.3380001 -6.9229999 1.925 1
3.4289999 -6.9120002 1.8609999 1
3.402 -6.914 1.887 1
3.359 -6.927 1.855 1
3.3840001 -6.9260001 1.823 1
3.434 -6.9109998 1.859 1
3.3670001 -6.914 1.946 1
3.362 -6.927 1.85 1
3.388 -6.934 1.75 1
3.3570001 -6.9239998 1.8839999 1
3.4419999 -6.9099998 1.852 1
3.4030001 -6.9169998 1.8660001 1
3.3670001 -6.9239998 1.863 1
3.3870001 -6.9250002 1.825 1
3.3599999 -6.9229999 1.886 1
3.4419999 -6.9060001 1.8789999 1
3.3759999 -6.921 1.8789999 1
3.3699999 -6.9200001 1.895 1
3.385 -6.9260001 1.819 1
3.3900001 -6.9349999 1.738 1
3.3789999 -6.9130001 1.936 1
3.3829999 -6.9330001 1.768 1
3.4119999 -6.9260001 1.772 1
3.3570001 -6.9159999 1.947 1
3.398 -6.927 1.793 1
3.404 -6.9219999 1.823 1
3.404 -6.9200001 1.832 1
3.3940001 -6.9200001 1.852 1
3.405 -6.9120002 1.897 1
3.437 -6.9070001 1.882 1
3.4000001 -6.915 1.88 1
3.3959999 -6.927 1.7970001 1
3.3729999 -6.9250002 1.851 1
3.375 -6.927 1.831 1
3.398 -6.9320002 1.747 1
3.388 -6.9320002 1.767 1
3.365 -6.928 1.837 1
3.4119999 -6.9169998 1.844 1
3.388 -6.9260001 1.818 1
3.398 -6.9310002 1.758 1
3.3529999 -6.927 1.867 1
3.3800001 -6.915 1.919 1
3.3570001 -6.9159999 1.946 1
3.405 -6.9289999 1.7589999 1
3.392 -6.9250002 1.819 1
3.4230001 -6.9229999 1.999 1
3.4219999 -6.9250002 2.017 1
3.3559999 -6.9190001 1.985 1
3.4200001 -6.9169998 1.962 1
3.4030001 -6.915 1.954 1
3.372 -6.915 1.956 1
3.402 -6.9200001 1.987 1
3.4030001 -6.9109998 1.924 1
3.4170001 -6.9190001 1.977 1
3.441 -6.9089999 1.903 1
3.4289999 -6.9219999 1.995 1
3.421 -6.9159999 1.952 1
3.365 -6.9229999 2.007 1
3.444 -6.9089999 1.904 1
3.401 -6.9159999 1.961 1
3.438 -6.914 1.939 1
3.4089999 -6.915 1.948 1
3.4170001 -6.9260001 2.026 1
3.3859999 -6.9169998 1.964 1
3.414 -6.9229999 2 1
3.4530001 -6.908 1.896 1
3.408 -6.921 1.987 1
3.438 -6.9070001 1.891 1
3.408 -6.9239998 2.0079999 1
3.4400001 -6.9130001 1.931 1
3.391 -6.9159999 1.956 1
3.3280001 -6.9200001 1.9960001 1
3.3789999 -6.914 1.946 1
3.4319999 -6.9089999 1.904 1
3.45 -6.9099998 1.911 1
3.4419999 -6.9109998 1.916 1
3.434 -6.9089999 1.908 1
3.424 -6.9169998 1.964 1
3.3770001 -6.9229999 2.006 1
3.425 -6.928 2.0380001 1
3.3729999 -6.9180002 1.974 1
3.3829999 -6.9219999 2.0020001 1
3.3759999 -6.9219999 2 1
3.3900001 -6.9120002 1.932 1
3.3440001 -6.9159999 1.967 1
3.427 -6.9130001 1.934 1
3.4319999 -6.9109998 1.923 1
3.4100001 -6.9120002 1.928 1
3.421 -6.9250002 2.0139999 1
3.348 -6.9169998 1.973 1
3.434 -6.9180002 1.967 1
3.336 -6.921 2 1
3.3529999 -6.9190001 1.985 1
3.3859999 -6.9229999 2.0090001 1
3.411 -6.9200001 1.98 1
3.447 -6.9120002 1.928 1
3.3729999 -6.914 1.951 1
3.4449999 -6.9130001 1.933 1
3.414 -6.914 1.9400001 1
3.4430001 -6.9060001 1.887 1
3.427 -6.9099998 1.9170001 1
3.3889999 -6.9250002 2.023 1
3.401 -6.915 1.95 1
3.3429999 -6.921 1.997 1
3.415 -6.9120002 1.927 1
3.4219999 -6.9130001 1.934 1
3.427 -6.9219999 1.993 1
3.4200001 -6.9219999 1.999 1
3.408 -6.9239998 2.013 1
3.402 -6.9169998 1.967 1
3.3710001 -6.9239998 2.016 1
3.404 -6.9169998 1.964 1
3.4360001 -6.9070001 1.891 1
3.441 -6.914 1.9400001 1
3.3959999 -6.9180002 1.971 1
3.4530001 -6.9050002 1.876 1
3.3789999 -6.9180002 1.972 1
3.404 -6.9190001 1.978 1
3.352 -6.9219999 2.007 1
3.4530001 -6.908 1.896 1
3.3670001 -6.914 1.951 1
3.3380001 -6.921 2 1
3.4070001 -6.9190001 1.978 1
3.408 -6.9169998 1.964 1
3.411 -6.9219999 1.994 1
3.4260001 -6.9229999 2.0050001 1
3.4030001 -6.9109998 1.921 1
3.401 -6.9260001 2.0239999 1
3.4159999 -6.9159999 1.954 1
3.4189999 -6.915 1.946 1
3.408 -6.9120002 1.9299999 1
3.402 -6.9200001 1.9859999 1
3.3269999 -6.9200001 1.9910001 1
3.391 -6.9120002 1.934 1
3.4300001 -6.9219999 1.994 1
3.3629999 -6.9229999 2.0079999 1
3.3829999 -6.9190001 1.982 1
3.4430001 -6.915 1.944 1
3.411 -6.927 2.029 1
3.4119999 -6.9180002 1.97 1
3.3900001 -6.9229999 2.003 1
3.428 -6.9109998 1.9220001 1
3.395 -6.9239998 2.016 1
3.402 -6.9190001 1.979 1
3.415 -6.9229999 2.0050001 1
3.404 -6.9130001 1.936 1
3.437 -6.9099998 1.916 1
3.4319999 -6.9219999 1.997 1
3.3570001 -6.9219999 2.0020001 1
3.3889999 -6.927 2.1070001 1
3.3499999 -6.9260001 2.1229999 1
3.434 -6.9260001 2.1500001 1
3.3740001 -6.9260001 2.138 1
3.3629999 -6.9260001 2.1459999 1
3.418 -6.927 2.1110001 1
3.302 -6.9260001 2.1429999 1
3.306 -6.9250002 2.174 1
3.3369999 -6.9260001 2.1489999 1
3.3110001 -6.9250002 2.1670001 1
3.342 -6.9250002 2.1659999 1
3.414 -6.928 2.053 1
3.4189999 -6.928 2.066 1
3.359 -6.9260001 2.1210001 1
3.3729999 -6.927 2.1170001 1
3.3870001 -6.9250002 2.164 1
3.401 -6.927 2.102 1
3.4089999 -6.9250002 2.1689999 1
3.3640001 -6.9250002 2.165 1
3.401 -6.927 2.1099999 1
3.3659999 -6.9260001 2.128 1
3.385 -6.9250002 2.1619999 1
3.427 -6.928 2.079 1
3.3729999 -6.9250002 2.1659999 1
3.4189999 -6.9250002 2.184 1
3.4230001 -6.9250002 2.1860001 1
3.3870001 -6.927 2.115 1
3.434 -6.9260001 2.151 1
3.415 -6.9260001 2.1370001 1
3.4319999 -6.9260001 2.138 1
3.365 -6.9250002 2.178 1
3.336 -6.9250002 2.1600001 1
3.335 -6.9260001 2.1459999 1
3.3859999 -6.928 2.0739999 1
3.3599999 -6.9260001 2.1329999 1
3.3440001 -6.9260001 2.1240001 1
3.418 -6.9260001 2.1619999 1
3.3499999 -6.9260001 2.1389999 1
3.4119999 -6.9250002 2.1700001 1
3.418 -6.9250002 2.1930001 1
3.362 -6.927 2.108 1
3.3429999 -6.9260001 2.1289999 1
3.375 -6.9250002 2.1949999 1
3.345 -6.9250002 2.1730001 1
3.3440001 -6.9250002 2.1630001 1
3.3599999 -6.9250002 2.161 1
3.2939999 -6.9250002 2.148 1
3.3110001 -6.9260001 2.141 1
3.388 -6.9250002 2.1889999 1
3.3859999 -6.9250002 2.184 1
3.425 -6.9260001 2.132 1
3.4030001 -6.9260001 2.1570001 1
3.3169999 -6.9250002 2.165 1
3.2820001 -6.9250002 2.1589999 1
3.4300001 -6.9250002 2.1949999 1
3.3729999 -6.927 2.1059999 1
3.3710001 -6.9250002 2.1800001 1
3.365 -6.9260001 2.155 1
3.312 -6.9260001 2.138 1
3.4130001 -6.927 2.109 1
3.309 -6.9250002 2.1500001 1
3.4089999 -6.9260001 2.145 1
3.355 -6.9260001 2.1400001 1
3.3900001 -6.928 2.0710001 1
3.279 -6.9250002 2.1559999 1
3.381 -6.9250002 2.1700001 1
3.378 -6.9260001 2.1470001 1
3.342 -6.9250002 2.1559999 1
3.2939999 -6.9250002 2.165 1
3.3940001 -6.9250002 2.178 1
3.3629999 -6.9250002 2.1589999 1
3.3429999 -6.927 2.1099999 1
3.3829999 -6.927 2.1099999 1
3.3080001 -6.9260001 2.141 1
3.3959999 -6.9239998 2.2 1
3.431 -6.9250002 2.1760001 1
3.3469999 -6.9250002 2.158 1
3.302 -6.9260001 2.1459999 1
3.329 -6.9250002 2.1530001 1
3.408 -6.927 2.1070001 1
3.302 -6.9260001 2.1370001 1
3.375 -6.927 2.1040001 1
3.4289999 -6.927 2.112 1
3.4200001 -6.9260001 2.142 1
3.4100001 -6.928 2.0810001 1
3.4200001 -6.927 2.0969999 1
3.362 -6.9260001 2.1470001 1
3.4189999 -6.9260001 2.161 1
3.362 -6.9250002 2.158 1
3.4059999 -6.928 2.089 1
3.424 -6.9260001 2.151 1
3.4200001 -6.9260001 2.1559999 1
3.3239999 -6.9250002 2.1619999 1
3.418 -6.927 2.1210001 1
3.302 -6.9250002 2.155 1
3.3729999 -6.9239998 2.2019999 1
3.378 -6.9250002 2.1619999 1
3.3940001 -6.9250002 2.181 1
3.4119999 -6.928 2.082 1
3.382 -6.9260001 2.1270001 1
3.4330001 -6.9250002 2.1700001 1
3.392 -6.928 2.072 1
3.424 -6.9239998 2.2160001 1
3.4100001 -6.9250002 2.1730001 1
3.3399999 -6.927 2.1129999 1
3.405 -6.9260001 2.1270001 1
3.4389999 -6.9250002 2.2060001 1
3.299 -6.9250002 2.151 1
3.4300001 -6.9260001 2.155 1
3.4089999 -6.9250002 2.191 1
3.404 -6.928 2.0680001 1
3.3929999 -6.927 2.1199999 1
3.313 -6.9260001 2.1340001 1
3.3299999 -6.9260001 2.142 1
3.3429999 -6.9250002 2.1659999 1
3.3970001 -6.9260001 2.1340001 1
3.395 -6.9260001 2.1600001 1
3.4289999 -6.9250002 2.2 1
3.3369999 -6.9260001 2.141 1
3.368 -6.9250002 2.1589999 1
3.3900001 -6.928 2.0780001 1
3.375 -6.9260001 2.1400001 1
3.355 -6.9250002 2.177 1
3.332 -6.9250002 2.161 1
3.3599999 -6.9250002 2.1919999 1
3.3529999 -6.9250002 2.1689999 1
3.3670001 -6.9250002 2.184 1
3.375 -6.9260001 2.141 1
3.398 -6.928 2.072 1
3.359 -6.927 2.0940001 1
3.418 -6.9260001 2.1429999 1
3.4219999 -6.927 2.1240001 1
3.3380001 -6.9260001 2.1259999 1
3.4170001 -6.9260001 2.128 1
3.4000001 -6.9260001 2.128 1
3.4059999 -6.927 2.105 1
3.4389999 -6.9260001 2.1589999 1
3.3150001 -6.9260001 2.1340001 1
3.3369999 -6.9260001 2.131 1
3.4119999 -6.928 2.0669999 1
3.3640001 -6.927 2.1159999 1
3.29 -6.9250002 2.1619999 1
3.3670001 -6.9260001 2.1500001 1
3.4419999 -6.9239998 2.2160001 1
3.418 -6.9260001 2.1470001 1
3.3099999 -6.9250002 2.1659999 1
3.336 -6.9260001 2.142 1
3.392 -6.927 2.0910001 1
3.3699999 -6.927 2.0929999 1
3.368 -6.9260001 2.1270001 1
3.4189999 -6.928 2.0669999 1
3.434 -6.9260001 2.138 1
3.4330001 -6.9260001 2.141 1
3.3529999 -6.927 2.115 1
3.4400001 -6.9239998 2.217 1
3.415 -6.9250002 2.1719999 1
3.352 -6.9250002 2.184 1
3.3559999 -6.9260001 2.132 1
3.365 -6.9239998 2.198 1
3.4000001 -6.9260001 2.1570001 1
3.4119999 -6.9260001 2.1440001 1
3.4100001 -6.927 2.118 1
3.3559999 -6.9260001 2.1530001 1
3.3529999 -6.9260001 2.138 1
3.3800001 -6.927 2.1070001 1
3.4230001 -6.9250002 2.198 1
3.3 -6.9250002 2.1530001 1
3.421 -6.9190001 0.213 1
3.339 -6.9169998 0.23899999 1
3.411 -6.9200001 0.193 1
3.2909999 -6.915 0.27200001 1
3.428 -6.9190001 0.26199999 1
3.391 -6.9200001 0.162 1
3.4089999 -6.9190001 0.20999999 1
3.3989999 -6.9180002 0.243 1
3.346 -6.9180002 0.204 1
3.3670001 -6.9169998 0.26300001 1
3.404 -6.9200001 0.168 1
3.3729999 -6.9180002 0.23899999 1
3.29 -6.915 0.26899999 1
3.421 -6.9190001 0.21600001 1
3.348 -6.9180002 0.213 1
3.3110001 -6.9159999 0.237 1
3.3199999 -6.9169998 0.23899999 1
3.342 -6.9169998 0.234 1
3.3829999 -6.9180002 0.264 1
3.339 -6.9169998 0.23999999 1
3.391 -6.9190001 0.20900001 1
3.411 -6.9180002 0.25600001 1
3.3540001 -6.9169998 0.26899999 1
3.4070001 -6.9200001 0.183 1
3.3900001 -6.9200001 0.16599999 1
3.3299999 -6.9169998 0.222 1
3.411 -6.9200001 0.178 1
3.3610001 -6.9180002 0.213 1
3.3629999 -6.9169998 0.264 1
3.293 -6.9159999 0.25999999 1
3.438 -6.9190001 0.26699999 1
3.405 -6.9190001 0.228 1
3.431 -6.9190001 0.23899999 1
3.415 -6.9190001 0.206 1
3.3959999 -6.9190001 0.227 1
3.3670001 -6.9180002 0.227 1
3.3380001 -6.9180002 0.208 1
3.349 -6.9180002 0.208 1
3.4349999 -6.9190001 0.271 1
3.3570001 -6.9180002 0.206 1
3.411 -6.9200001 0.189 1
3.3929999 -6.9190001 0.184 1
3.3139999 -6.9159999 0.26300001 1
3.3759999 -6.9190001 0.193 1
3.3139999 -6.9169998 0.236 1
3.3970001 -6.9190001 0.226 1
3.342 -6.9180002 0.22 1
3.375 -6.9169998 0.26699999 1
3.3900001 -6.9190001 0.20299999 1
3.3329999 -6.9169998 0.235 1
3.421 -6.9180002 0.278 1
3.3740001 -6.9180002 0.228 1
3.368 -6.9169998 0.25799999 1
3.336 -6.9159999 0.26499999 1
3.3710001 -6.9190001 0.19 1
3.3900001 -6.9180002 0.227 1
3.3429999 -6.9169998 0.252 1
3.348 -6.9180002 0.206 1
3.414 -6.9180002 0.252 1
3.3840001 -6.9180002 0.23100001 1
3.3989999 -6.9200001 0.18700001 1
3.349 -6.9169998 0.264 1
3.4389999 -6.9180002 0.278 1
3.398 -6.9200001 0.15700001 1
3.3269999 -6.9159999 0.27000001 1
3.4100001 -6.9190001 0.20900001 1
3.3599999 -6.9180002 0.223 1
3.3659999 -6.9190001 0.189 1
3.3110001 -6.9159999 0.23899999 1
3.388 -6.9190001 0.219 1
3.358 -6.9169998 0.242 1
3.424 -6.9180002 0.26899999 1
3.3659999 -6.9180002 0.23999999 1
3.3989999 -6.9190001 0.21699999 1
3.4389999 -6.9190001 0.266 1
3.375 -6.9180002 0.249 1
3.3499999 -6.9169998 0.25999999 1
3.3629999 -6.9169998 0.25999999 1
3.3789999 -6.9190001 0.20900001 1
3.3859999 -6.9190001 0.197 1
3.4170001 -6.9190001 0.208 1
3.3710001 -6.9190001 0.16500001 1
3.3940001 -6.9200001 0.175 1
3.358 -6.9180002 0.227 1
3.3499999 -6.9169998 0.236 1
3.3710001 -6.9190001 0.182 1
3.392 -6.9180002 0.23899999 1
3.402 -6.9180002 0.241 1
3.345 -6.9169998 0.26199999 1
3.382 -6.9190001 0.20100001 1
3.4089999 -6.9190001 0.23899999 1
3.322 -6.9169998 0.21799999 1
3.3329999 -6.9159999 0.271 1
3.3499999 -6.9180002 0.211 1
3.4330001 -6.9190001 0.22499999 1
3.401 -6.9200001 0.177 1
3.4089999 -6.9200001 0.186 1
3.3970001 -6.9180002 0.236 1
3.3139999 -6.9169998 0.236 1
3.378 -6.9180002 0.228 1
3.3770001 -6.9169998 0.266 1
3.401 -6.9180002 0.25 1
3.369 -6.9180002 0.205 1
3.3870001 -6.9190001 0.193 1
3.421 -6.9190001 0.249 1
3.4330001 -6.9180002 0.27000001 1
3.4000001 -6.9200001 0.15099999 1
3.3199999 -6.9169998 0.229 1
3.4119999 -6.9200001 0.193 1
3.398 -6.9190001 0.234 1
3.3239999 -6.9169998 0.214 1
3.4260001 -6.9190001 0.26199999 1
3.323 -6.9159999 0.27200001 1
3.3789999 -6.9180002 0.222 1
3.391 -6.9190001 0.22 1
3.398 -6.9200001 0.17 1
3.385 -6.9200001 0.15899999 1
3.3239999 -6.9169998 0.214 1
3.3889999 -6.9190001 0.213 1
3.385 -6.9190001 0.18000001 1
3.382 -6.9180002 0.241 1
3.3859999 -6.9200001 0.15899999 1
3.4200001 -6.9200001 0.191 1
3.4130001 -6.9200001 0.186 1
3.428 -6.9190001 0.25400001 1
3.404 -6.9180002 0.25999999 1
3.401 -6.9190001 0.204 1
3.369 -6.9180002 0.229 1
3.3540001 -6.9180002 0.204 1
3.424 -6.9190001 0.25 1
3.401 -6.9190001 0.226 1
3.3599999 -6.9180002 0.221 1
3.322 -6.9169998 0.221 1
3.405 -6.9190001 0.20200001 1
3.4000001 -6.9190001 0.191 1
3.382 -6.9169998 0.271 1
3.385 -6.9180002 0.255 1
3.323 -6.9169998 0.21600001 1
3.3310001 -6.9169998 0.229 1
3.3989999 -6.9200001 0.182 1
3.3510001 -6.9180002 0.19 1
3.4260001 -6.9180002 0.29499999 1
3.3740001 -6.9169998 0.28400001 1
3.427 -6.9190001 0.37 1
3.441 -6.9190001 0.35299999 1
3.4089999 -6.9180002 0.34200001 1
3.424 -6.9190001 0.347 1
3.3959999 -6.9180002 0.285 1
3.401 -6.9180002 0.368 1
3.3039999 -6.915 0.28200001 1
3.3770001 -6.9169998 0.30199999 1
3.414 -6.9180002 0.352 1
3.3840001 -6.9169998 0.32100001 1
3.415 -6.9180002 0.30599999 1
3.359 -6.9169998 0.28999999 1
3.4560001 -6.9190001 0.30199999 1
3.3310001 -6.9159999 0.30599999 1
3.3959999 -6.9180002 0.31799999 1
3.392 -6.9180002 0.301 1
3.3269999 -6.9159999 0.30599999 1
3.3310001 -6.9159999 0.285 1
3.3770001 -6.9180002 0.352 1
3.342 -6.9159999 0.29699999 1
3.4419999 -6.9190001 0.31799999 1
3.4449999 -6.9190001 0.31 1
3.454 -6.9190001 0.30399999 1
3.418 -6.9180002 0.29800001 1
3.4159999 -6.9180002 0.338 1
3.3510001 -6.9169998 0.315 1
3.4219999 -6.9180002 0.28600001 1
3.441 -6.9190001 0.38800001 1
3.4230001 -6.9190001 0.37099999 1
3.358 -6.9169998 0.29100001 1
3.421 -6.9180002 0.29300001 1
3.434 -6.9190001 0.32300001 1
3.4130001 -6.9180002 0.27900001 1
3.385 -6.9169998 0.30199999 1
3.4389999 -6.9190001 0.31400001 1
3.447 -6.9190001 0.377 1
3.4030001 -6.9180002 0.361 1
3.4330001 -6.9190001 0.36199999 1
3.4360001 -6.9190001 0.34799999 1
3.4089999 -6.9180002 0.324 1
3.4389999 -6.9190001 0.324 1
3.3959999 -6.9180002 0.315 1
3.329 -6.9159999 0.31200001 1
3.2920001 -6.915 0.292 1
3.3710001 -6.9169998 0.34299999 1
3.402 -6.9180002 0.35100001 1
3.411 -6.9180002 0.28 1
3.431 -6.9190001 0.384 1
3.4170001 -6.9190001 0.37400001 1
3.427 -6.9190001 0.34799999 1
3.3989999 -6.9180002 0.31799999 1
3.375 -6.9169998 0.31099999 1
3.28 -6.915 0.28799999 1
3.418 -6.9180002 0.29100001 1
3.4030001 -6.9180002 0.33500001 1
3.395 -6.9180002 0.29499999 1
3.4489999 -6.9190001 0.373 1
3.3139999 -6.9159999 0.28200001 1
3.3659999 -6.9169998 0.32800001 1
3.3870001 -6.9169998 0.31 1
3.3239999 -6.9159999 0.301 1
3.316 -6.9159999 0.28200001 1
3.4260001 -6.9180002 0.287 1
3.392 -6.9169998 0.29100001 1
3.4389999 -6.9190001 0.33899999 1
3.4170001 -6.9190001 0.37099999 1
3.3529999 -6.9169998 0.32699999 1
3.299 -6.915 0.28299999 1
3.332 -6.9159999 0.30700001 1
3.4030001 -6.9180002 0.333 1
3.4330001 -6.9190001 0.32800001 1
3.3659999 -6.9169998 0.30500001 1
3.392 -6.9180002 0.324 1
3.3139999 -6.9159999 0.30500001 1
3.4419999 -6.9190001 0.294 1
3.359 -6.9169998 0.285 1
3.3099999 -6.9159999 0.28099999 1
3.3310001 -6.9159999 0.31099999 1
3.398 -6.9180002 0.35299999 1
3.385 -6.9169998 0.303 1
3.3789999 -6.9169998 0.33199999 1
3.4389999 -6.9190001 0.38800001 1
3.441 -6.9190001 0.38499999 1
3.375 -6.9169998 0.30399999 1
3.3770001 -6.9169998 0.30000001 1
3.4430001 -6.9190001 0.38800001 1
3.4230001 -6.9190001 0.37099999 1
3.3499999 -6.9159999 0.27700001 1
3.3800001 -6.9169998 0.29100001 1
3.427 -6.9190001 0.37900001 1
3.4419999 -6.9190001 0.34900001 1
3.437 -6.9190001 0.389 1
3.3829999 -6.9169998 0.32100001 1
3.362 -6.9169998 0.31400001 1
3.398 -6.9180002 0.36300001 1
3.4319999 -6.9190001 0.36300001 1
3.3959999 -6.9180002 0.347 1
3.2820001 -6.915 0.285 1
3.4189999 -6.9180002 0.324 1
3.4189999 -6.9190001 0.37400001 1
3.3800001 -6.9169998 0.28 1
3.451 -6.9190001 0.31799999 1
3.3540001 -6.9169998 0.28200001 1
3.306 -6.9159999 0.278 1
3.3929999 -6.9180002 0.32100001 1
3.448 -6.9190001 0.38 1
3.4260001 -6.9180002 0.30700001 1
3.4189999 -6.9190001 0.377 1
3.438 -6.9190001 0.33399999 1
3.431 -6.9190001 0.34 1
3.381 -6.9169998 0.315 1
3.4449999 -6.9190001 0.38699999 1
3.4389999 -6.9190001 0.29300001 1
3.3770001 -6.9169998 0.29800001 1
3.427 -6.9190001 0.34299999 1
3.441 -6.9190001 0.30000001 1
3.4489999 -6.9190001 0.35499999 1
3.4660001 -6.9130001 0.030999999 1
3.404 -6.9180002 0.056000002 1
3.348 -6.921 0.052999999 1
3.382 -6.921 0.112 1
3.434 -6.9159999 0.061999999 1
3.3699999 -6.9200001 0.068000004 1
3.3499999 -6.921 0.057 1
3.438 -6.9169998 0.090000004 1
3.408 -6.9180002 0.074000001 1
3.392 -6.9200001 0.094999999 1
3.4690001 -6.9130001 0.032000002 1
3.408 -6.9169998 0.028000001 1
3.3940001 -6.9200001 0.101 1
3.346 -6.921 0.034000002 1
3.4030001 -6.9169998 0.026000001 1
3.3770001 -6.921 0.096000001 1
3.3959999 -6.9190001 0.081 1
3.3789999 -6.9190001 0.054000001 1
3.3340001 -6.9219999 0.035 1
3.346 -6.921 0.039000001 1
3.3340001 -6.9219999 0.030999999 1
3.4330001 -6.9169998 0.079000004 1
3.375 -6.9200001 0.048999999 1
3.4219999 -6.9159999 0.037 1
3.4549999 -6.915 0.07 1
3.362 -6.9200001 0.039999999 1
3.372 -6.921 0.093000002 1
3.3789999 -6.9190001 0.046999998 1
3.3789999 -6.921 0.11 1
3.342 -6.9219999 0.048999999 1
3.4070001 -6.9180002 0.078000002 1
3.391 -6.9180002 0.029999999 1
3.359 -6.9200001 0.035999998 1
3.3800001 -6.9190001 0.041999999 1
3.346 -6.921 0.043000001 1
3.47 -6.9130001 0.039000001 1
3.4690001 -6.914 0.054000001 1
3.362 -6.921 0.075000003 1
3.4300001 -6.9159999 0.057999998 1
3.3859999 -6.9180002 0.033 1
3.428 -6.9159999 0.035999998 1
3.4070001 -6.9169998 0.035 1
3.3659999 -6.921 0.086999997 1
3.3940001 -6.9180002 0.034000002 1
3.408 -6.9180002 0.072999999 1
3.3829999 -6.9190001 0.043000001 1
3.3840001 -6.9200001 0.097999997 1
3.418 -6.9190001 0.11 1
3.398 -6.9200001 0.115 1
3.3699999 -6.9200001 0.064999998 1
3.3840001 -6.9200001 0.074000001 1
3.414 -6.9180002 0.086000003 1
3.415 -6.9169998 0.035999998 1
3.441 -6.9159999 0.07 1
3.4690001 -6.914 0.048999999 1
3.4349999 -6.9169998 0.088 1
3.4349999 -6.915 0.033 1
3.4549999 -6.914 0.043000001 1
3.4300001 -6.9169998 0.078000002 1
3.3829999 -6.9190001 0.048 1
3.4579999 -6.914 0.029999999 1
3.3640001 -6.9200001 0.044 1
3.4389999 -6.9159999 0.057999998 1
3.4430001 -6.915 0.046 1
3.4389999 -6.915 0.032000002 1
3.464 -6.9130001 0.025 1
3.391 -6.921 0.122 1
3.3710001 -6.9200001 0.063000001 1
3.3929999 -6.9180002 0.026000001 1
3.3940001 -6.9200001 0.118 1
3.3410001 -6.921 0.034000002 1
3.3440001 -6.9219999 0.052000001 1
3.3789999 -6.9190001 0.052000001 1
3.3859999 -6.9190001 0.068000004 1
3.336 -6.9219999 0.033 1
3.3840001 -6.9190001 0.059999999 1
3.4159999 -6.9169998 0.054000001 1
3.3659999 -6.9200001 0.039000001 1
3.402 -6.9180002 0.068999998 1
3.349 -6.9219999 0.059999999 1
3.425 -6.9169998 0.064000003 1
3.358 -6.9200001 0.041000001 1
3.408 -6.9190001 0.093999997 1
3.3759999 -6.9200001 0.075000003 1
3.372 -6.921 0.081 1
3.434 -6.9159999 0.071000002 1
3.335 -6.9219999 0.041000001 1
3.45 -6.915 0.046999998 1
3.405 -6.9169998 0.039999999 1
3.3699999 -6.9200001 0.045000002 1
3.346 -6.921 0.034000002 1
3.3840001 -6.921 0.103 1
3.3870001 -6.9239998 0.852 1
3.4189999 -6.915 0.82599998 1
3.415 -6.9200001 0.71799999 1
3.4100001 -6.9190001 0.78200001 1
3.3889999 -6.9250002 0.78899997 1
3.421 -6.9159999 0.79900002 1
3.402 -6.9219999 0.77399999 1
3.4460001 -6.908 0.82700002 1
3.404 -6.9180002 0.86500001 1
3.4219999 -6.9169998 0.73699999 1
3.4189999 -6.9169998 0.78299999 1
3.392 -6.9219999 0.85000002 1
3.4000001 -6.921 0.82599998 1
3.4619999 -6.9029999 0.81800002 1
3.392 -6.9239998 0.81 1
3.3959999 -6.921 0.83999997 1
3.4349999 -6.9120002 0.79699999 1
3.457 -6.9050002 0.80800003 1
3.434 -6.9130001 0.77600002 1
3.3929999 -6.9219999 0.852 1
3.4100001 -6.9180002 0.815 1
3.405 -6.9190001 0.82599998 1
3.425 -6.9159999 0.76899999 1
3.434 -6.9109998 0.83099997 1
3.4100001 -6.9219999 0.71600002 1
3.447 -6.908 0.79299998 1
3.4059999 -6.9190001 0.82300001 1
3.4330001 -6.9130001 0.78799999 1
3.425 -6.9130001 0.84200001 1
3.3989999 -6.9229999 0.77200001 1
3.4349999 -6.9109998 0.81099999 1
3.431 -6.914 0.764 1
3.428 -6.9130001 0.80699998 1
3.421 -6.9159999 0.792 1
3.4170001 -6.9190001 0.71799999 1
3.461 -6.9039998 0.79500002 1
3.401 -6.9229999 0.74400002 1
3.434 -6.914 0.741 1
3.4289999 -6.915 0.75 1
3.401 -6.9200001 0.84399998 1
3.4089999 -6.9200001 0.76599997 1
3.3989999 -6.921 0.83700001 1
3.4389999 -6.9109998 0.792 1
3.411 -6.9169998 0.84600002 1
3.428 -6.9120002 0.83399999 1
3.431 -6.914 0.759 1
3.4630001 -6.9039998 0.79000002 1
3.3959999 -6.9239998 0.76099998 1
3.421 -6.9180002 0.72899997 1
3.427 -6.9159999 0.73900002 1
3.3959999 -6.9239998 0.75700003 1
3.3989999 -6.921 0.82700002 1
3.4189999 -6.9169998 0.77200001 1
3.438 -6.9099998 0.82499999 1
3.4649999 -6.902 0.81900001 1
3.4400001 -6.9120002 0.75199997 1
3.4200001 -6.9180002 0.73699999 1
3.4619999 -6.9029999 0.815 1
3.4590001 -6.9039998 0.81300002 1
3.3829999 -6.9250002 0.84600002 1
3.4159999 -6.915 0.85399997 1
3.4000001 -6.9219999 0.79400003 1
3.4000001 -6.9200001 0.84899998 1
3.4070001 -6.9180002 0.84399998 1
3.4059999 -6.9200001 0.80699998 1
3.401 -6.9219999 0.77999997 1
3.388 -6.9229999 0.85100001 1
3.434 -6.914 0.74000001 1
3.4100001 -6.9190001 0.78399998 1
3.4219999 -6.914 0.84799999 1
3.4230001 -6.9169998 0.727 1
3.428 -6.9130001 0.80599999 1
3.411 -6.9180002 0.83099997 1
3.3989999 -6.9200001 0.87 1
3.4219999 -6.9169998 0.75300002 1
3.4119999 -6.9169998 0.83700001 1
3.411 -6.921 0.72299999 1
3.3959999 -6.9250002 0.736 1
3.457 -6.9050002 0.80800003 1
3.45 -6.9070001 0.81900001 1
3.448 -6.9089999 0.77700001 1
3.461 -6.9050002 0.78799999 1
3.4330001 -6.9130001 0.77600002 1
3.427 -6.9159999 0.741 1
3.424 -6.9169998 0.72100002 1
3.45 -6.908 0.792 1
3.3829999 -6.9239998 0.86299998 1
3.4519999 -6.9070001 0.80800003 1
3.4200001 -6.915 0.82300001 1
3.402 -6.921 0.80400002 1
3.3900001 -6.9250002 0.79799998 1
3.405 -6.9229999 0.71100003 1
3.395 -6.921 0.87400001 1
3.4089999 -6.9190001 0.81099999 1
3.3989999 -6.9219999 0.79900002 1
3.414 -6.9169998 0.81300002 1
3.424 -6.914 0.81 1
3.4030001 -6.921 0.79400003 1
3.398 -6.927 1.341 1
3.4130001 -6.9219999 1.4450001 1
3.4319999 -6.9190001 1.293 1
3.4300001 -6.9190001 1.359 1
3.4230001 -6.9200001 1.4680001 1
3.4170001 -6.9229999 1.229 1
3.4119999 -6.9239998 1.311 1
3.3989999 -6.927 1.3150001 1
3.418 -6.9219999 1.392 1
3.434 -6.9180002 1.383 1
3.431 -6.9190001 1.418 1
3.434 -6.9169998 1.5039999 1
3.438 -6.9169998 1.471 1
3.4260001 -6.9200001 1.395 1
3.4260001 -6.921 1.2869999 1
3.415 -6.9229999 1.348 1
3.4119999 -6.9219999 1.4529999 1
3.395 -6.9260001 1.4299999 1
3.4130001 -6.9219999 1.4450001 1
3.441 -6.9159999 1.507 1
3.434 -6.9180002 1.381 1
3.428 -6.9200001 1.3049999 1
3.425 -6.9200001 1.39 1
3.427 -6.9190001 1.467 1
3.4219999 -6.9219999 1.22 1
3.4319999 -6.9180002 1.427 1
3.427 -6.9190001 1.4349999 1
3.4070001 -6.9250002 1.291 1
3.4319999 -6.9180002 1.459 1
3.418 -6.921 1.477 1
3.4189999 -6.9219999 1.299 1
3.4089999 -6.9239998 1.393 1
3.421 -6.9219999 1.245 1
3.3889999 -6.928 1.392 1
3.4230001 -6.9219999 1.192 1
3.4219999 -6.921 1.4 1
3.4189999 -6.921 1.404 1
3.424 -6.921 1.341 1
3.414 -6.9219999 1.408 1
3.4200001 -6.9219999 1.276 1
3.4289999 -6.9190001 1.4579999 1
3.4119999 -6.9239998 1.285 1
3.4130001 -6.9239998 1.234 1
3.434 -6.9169998 1.4680001 1
3.402 -6.9260001 1.337 1
3.395 -6.927 1.382 1
3.404 -6.9260001 1.302 1
3.427 -6.9200001 1.345 1
3.4130001 -6.9229999 1.363 1
3.4230001 -6.921 1.385 1
3.4330001 -6.9180002 1.431 1
3.4119999 -6.9229999 1.3430001 1
3.402 -6.9260001 1.347 1
3.4059999 -6.9239998 1.415 1
3.431 -6.9200001 1.302 1
3.4219999 -6.9200001 1.439 1
3.4200001 -6.921 1.449 1
3.427 -6.9200001 1.359 1
3.434 -6.9169998 1.4630001 1
3.4119999 -6.9219999 1.45 1
3.411 -6.9239998 1.296 1
3.385 -6.9289999 1.418 1
3.4170001 -6.9219999 1.3789999 1
3.4260001 -6.9200001 1.385 1
3.4419999 -6.9159999 1.4680001 1
3.428 -6.9200001 1.3 1
3.398 -6.9260001 1.377 1
3.3970001 -6.927 1.363 1
3.428 -6.921 1.228 1
3.427 -6.9219999 1.145 1
3.4230001 -6.9200001 1.42 1
3.4089999 -6.9250002 1.273 1
3.408 -6.9229999 1.4400001 1
3.4230001 -6.9219999 1.295 1
3.434 -6.9180002 1.3380001 1
3.4260001 -6.921 1.329 1
3.4389999 -6.9169998 1.404 1
3.4130001 -6.9239998 1.228 1
3.408 -6.9239998 1.395 1
3.3929999 -6.928 1.363 1
3.444 -6.915 1.511 1
3.414 -6.9219999 1.4 1
3.434 -6.9180002 1.413 1
3.4159999 -6.9219999 1.383 1
3.4419999 -6.915 1.503 1
3.4070001 -6.9250002 1.258 1
3.4330001 -6.9180002 1.402 1
3.415 -6.9219999 1.471 1
3.4189999 -6.921 1.387 1
3.408 -6.9229999 1.437 1
3.421 -6.921 1.363 1
3.411 -6.9239998 1.2589999 1
3.4319999 -6.9190001 1.332 1
3.437 -6.9180002 1.367 1
3.3929999 -6.928 1.3609999 1
3.428 -6.9219999 1.122 1
3.401 -6.9260001 1.38 1
3.4330001 -6.9190001 1.311 1
3.4430001 -6.915 1.5 1
3.431 -6.9180002 1.441 1
3.395 -6.927 1.362 1
3.401 -6.9260001 1.327 1
3.4319999 -6.9200001 1.251 1
3.4289999 -6.9180002 1.469 1
3.4219999 -6.9200001 1.466 1
3.4119999 -6.9229999 1.4299999 1
3.4130001 -6.9239998 1.3 1
3.398 -6.9260001 1.374 1
3.427 -6.9219999 1.168 1
3.427 -6.9190001 1.414 1
3.402 -6.9260001 1.303 1
3.4100001 -6.9239998 1.322 1
3.3929999 -6.927 1.393 1
3.4170001 -6.921 1.474 1
3.4349999 -6.9190001 1.329 1
3.427 -6.9219999 1.177 1
3.4159999 -6.9229999 1.244 1
3.4159999 -6.9219999 1.373 1
3.415 -6.9239998 1.251 1
3.4289999 -6.9200001 1.673 1
3.4449999 -6.914 1.5700001 1
3.411 -6.9289999 1.671 1
3.444 -6.9120002 1.806 1
3.4189999 -6.9250002 1.631 1
3.4130001 -6.927 1.758 1
3.4330001 -6.9180002 1.728 1
3.434 -6.9169998 1.743 1
3.402 -6.9320002 1.721 1
3.431 -6.9190001 1.732 1
3.4170001 -6.9260001 1.701 1
3.421 -6.9239998 1.691 1
3.4349999 -6.9169998 1.655 1
3.441 -6.915 1.65 1
3.411 -6.9289999 1.658 1
3.4419999 -6.9159999 1.544 1
3.4419999 -6.9130001 1.794 1
3.4349999 -6.9169998 1.693 1
3.444 -6.914 1.642 1
3.434 -6.9180002 1.658 1
3.4030001 -6.9320002 1.732 1
3.418 -6.9260001 1.671 1
3.4449999 -6.9130001 1.632 1
3.4170001 -6.9250002 1.7539999 1
3.4460001 -6.9120002 1.65 1
3.438 -6.9169998 1.584 1
3.434 -6.9169998 1.771 1
3.4089999 -6.9289999 1.707 1
3.45 -6.9099998 1.73 1
3.4219999 -6.9229999 1.745 1
3.4119999 -6.928 1.6799999 1
3.444 -6.9130001 1.675 1
3.4260001 -6.9219999 1.686 1
3.438 -6.9159999 1.693 1
3.421 -6.9239998 1.678 1
3.4159999 -6.927 1.6619999 1
3.4519999 -6.908 1.789 1
3.4289999 -6.9190001 1.786 1
3.4419999 -6.914 1.65 1
3.4319999 -6.9190001 1.637 1
3.4419999 -6.915 1.602 1
3.437 -6.9159999 1.697 1
3.434 -6.9190001 1.604 1
3.405 -6.9320002 1.687 1
3.4449999 -6.914 1.567 1
3.4219999 -6.9239998 1.684 1
3.451 -6.9089999 1.795 1
3.448 -6.9109998 1.696 1
3.4419999 -6.9130001 1.795 1
3.4430001 -6.915 1.5420001 1
3.4489999 -6.9099998 1.753 1
3.4460001 -6.9109998 1.83 1
3.414 -6.9260001 1.76 1
3.427 -6.921 1.683 1
3.4159999 -6.9260001 1.728 1
3.434 -6.9180002 1.619 1
3.437 -6.9159999 1.72 1
3.4400001 -6.9159999 1.61 1
3.4319999 -6.9190001 1.701 1
3.447 -6.9120002 1.681 1
3.4400001 -6.9159999 1.567 1
3.4419999 -6.914 1.661 1
3.4389999 -6.915 1.7079999 1
3.4330001 -6.9169998 1.774 1
3.418 -6.9250002 1.732 1
3.415 -6.927 1.6720001 1
3.4119999 -6.928 1.686 1
3.428 -6.9200001 1.742 1
3.448 -6.9120002 1.636 1
3.3989999 -6.934 1.722 1
3.437 -6.9159999 1.699 1
3.4460001 -6.9109998 1.84 1
3.4430001 -6.9130001 1.742 1
3.45 -6.9109998 1.652 1
3.438 -6.9169998 1.598 1
3.4489999 -6.9109998 1.7029999 1
3.441 -6.914 1.734 1
3.4460001 -6.9130001 1.603 1
3.451 -6.908 1.8099999 1
3.4489999 -6.9099998 1.707 1
3.4260001 -6.9219999 1.6059999 1
3.4070001 -6.9310002 1.684 1
3.4330001 -6.9180002 1.725 1
3.4460001 -6.9109998 1.783 1
3.45 -6.9099998 1.717 1
3.4330001 -6.9169998 1.807 1
3.424 -6.9229999 1.642 1
3.437 -6.915 1.771 1
3.448 -6.9099998 1.8430001 1
3.4100001 -6.9289999 1.693 1
3.427 -6.9200001 1.77 1
3.4300001 -6.9200001 1.684 1
3.454 -6.9070001 1.857 1
3.4260001 -6.921 1.723 1
3.4330001 -6.9190001 1.678 1
3.4349999 -6.9159999 1.816 1
3.4430001 -6.915 1.5420001 1
3.4489999 -6.9099998 1.772 1
3.447 -6.9109998 1.7970001 1
3.418 -6.9239998 1.774 1
3.447 -6.9120002 1.694 1
3.425 -6.921 1.78 1
3.401 -6.9330001 1.7 1
3.434 -6.9159999 1.799 1
3.431 -6.9200001 1.636 1
3.4200001 -6.9250002 1.6289999 1
3.425 -6.9219999 1.652 1
3.4460001 -6.9109998 1.7690001 1
3.4100001 -6.9289999 1.729 1
3.421 -6.9239998 1.688 1
3.45 -6.9089999 1.779 1
3.4530001 -6.9070001 1.821 1
3.4159999 -6.9260001 1.679 1
3.461 -6.921 0.134 1
3.427 -6.921 0.13699999 1
3.448 -6.9200001 0.131 1
3.457 -6.921 0.132 1
3.4530001 -6.921 0.132 1
3.411 -6.9200001 0.13 1
3.428 -6.9200001 0.132 1
3.428 -6.9190001 0.116 1
3.4289999 -6.921 0.138 1
3.4449999 -6.9190001 0.113 1
3.464 -6.9159999 0.086000003 1
3.4649999 -6.9159999 0.086999997 1
3.4660001 -6.9200001 0.12 1
3.4219999 -6.9190001 0.122 1
3.4260001 -6.9200001 0.123 1
3.4619999 -6.9190001 0.119 1
3.4630001 -6.921 0.133 1
3.438 -6.9200001 0.12899999 1
3.4389999 -6.921 0.13699999 1
3.437 -6.9200001 0.126 1
3.4660001 -6.9180002 0.107 1
3.4619999 -6.9159999 0.079999998 1
3.4119999 -6.9200001 0.127 1
3.4130001 -6.9190001 0.122 1
3.467 -6.9200001 0.121 1
3.4679999 -6.9200001 0.127 1
3.464 -6.9159999 0.078000002 1
3.4519999 -6.9200001 0.204 1
3.4389999 -6.9200001 0.199 1
3.4449999 -6.921 0.167 1
3.431 -6.9200001 0.167 1
3.4590001 -6.9200001 0.189 1
3.4400001 -6.921 0.153 1
3.464 -6.921 0.139 1
3.4419999 -6.9200001 0.17299999 1
3.4590001 -6.921 0.156 1
3.4579999 -6.9190001 0.273 1
3.4579999 -6.921 0.14 1
3.467 -6.921 0.16500001 1
3.467 -6.9190001 0.25400001 1
3.448 -6.9200001 0.227 1
3.4619999 -6.9190001 0.27000001 1
3.4189999 -6.9200001 0.18099999 1
3.428 -6.921 0.148 1
3.4400001 -6.9200001 0.18700001 1
3.431 -6.921 0.147 1
3.4590001 -6.9190001 0.259 1
3.4679999 -6.9190001 0.25600001 1
3.4230001 -6.9200001 0.18700001 1
3.438 -6.921 0.161 1
3.4219999 -6.9200001 0.17399999 1
3.434 -6.921 0.145 1
3.441 -6.9200001 0.214 1
3.4679999 -6.921 0.177 1
3.437 -6.921 0.164 1
3.444 -6.9190001 0.242 1
3.464 -6.921 0.17399999 1
3.4089999 -6.9200001 0.163 1
3.4619999 -6.9200001 0.189 1
3.461 -6.9190001 0.27399999 1
3.448 -6.921 0.15700001 1
3.4489999 -6.9190001 0.25099999 1
3.421 -6.921 0.141 1
3.4449999 -6.9200001 0.228 1
3.427 -6.921 0.147 1
3.4389999 -6.9200001 0.21699999 1
3.4690001 -6.9200001 0.222 1
3.4449999 -6.9200001 0.21699999 1
3.4200001 -6.9200001 0.17200001 1
3.4300001 -6.921 0.154 1
3.4630001 -6.9200001 0.23800001 1
3.4549999 -6.9190001 0.259 1
3.424 -6.9200001 0.189 1
3.434 -6.9200001 0.199 1
3.46 -6.9200001 0.21699999 1
3.444 -6.9200001 0.20999999 1
3.4679999 -6.9190001 0.26199999 1
3.47 -6.9200001 0.213 1
3.4590001 -6.9200001 0.18799999 1
3.4460001 -6.921 0.14399999 1
3.437 -6.9200001 0.228 1
3.415 -6.921 0.14 1
3.4649999 -6.9200001 0.199 1
3.4530001 -6.9200001 0.23100001 1
3.45 -6.9200001 0.19599999 1
3.4519999 -6.9200001 0.211 1
3.4349999 -6.9200001 0.21799999 1
3.4549999 -6.921 0.164 1
3.457 -6.9200001 0.185 1
3.4530001 -6.9200001 0.199 1
3.4300001 -6.9219999 0.65899998 1
3.4519999 -6.921 0.59899998 1
3.4590001 -6.9190001 0.66900003 1
3.414 -6.9239998 0.67299998 1
3.4530001 -6.9200001 0.62800002 1
3.4189999 -6.9229999 0.65899998 1
3.4449999 -6.921 0.65100002 1
3.448 -6.921 0.63300002 1
3.4389999 -6.921 0.667 1
3.4089999 -6.9239998 0.67299998 1
3.4530001 -6.9200001 0.66900003 1
3.4159999 -6.9239998 0.65799999 1
3.4200001 -6.9229999 0.67799997 1
3.4449999 -6.921 0.64700001 1
3.4549999 -6.9200001 0.61699998 1
3.4230001 -6.9219999 0.68199998 1
3.424 -6.9229999 0.67299998 1
3.4560001 -6.9200001 0.63700002 1
3.411 -6.9239998 0.66500002 1
3.424 -6.9229999 0.64200002 1
3.4530001 -6.9200001 0.65399998 1
3.4460001 -6.921 0.63200003 1
3.4679999 -6.9190001 0.63999999 1
3.46 -6.9190001 0.63499999 1
3.4449999 -6.921 0.65700001 1
3.427 -6.9229999 0.63599998 1
3.4389999 -6.9219999 0.63800001 1
3.4360001 -6.9219999 0.61500001 1
3.4630001 -6.9190001 0.662 1
3.4660001 -6.9180002 0.653 1
3.4649999 -6.9180002 0.671 1
3.4260001 -6.9229999 0.64499998 1
3.4400001 -6.921 0.64899999 1
3.454 -6.9200001 0.63700002 1
3.454 -6.9190001 0.67699999 1
3.428 -6.9219999 0.68300003 1
3.4400001 -6.9219999 0.597 1
3.4330001 -6.921 0.685 1
3.4360001 -6.921 0.67000002 1
3.4560001 -6.9190001 0.67799997 1
3.454 -6.915 0.71799999 1
3.4630001 -6.9130001 0.72500002 1
3.431 -6.921 0.69099998 1
3.461 -6.9060001 0.77700001 1
3.47 -6.908 0.75599998 1
3.4389999 -6.915 0.72399998 1
3.457 -6.9099998 0.75 1
3.46 -6.9070001 0.76599997 1
3.4300001 -6.9159999 0.72500002 1
3.425 -6.9169998 0.71799999 1
3.451 -6.914 0.727 1
3.4619999 -6.9169998 0.69700003 1
3.4230001 -6.9180002 0.71399999 1
3.4549999 -6.914 0.72299999 1
3.415 -6.921 0.70300001 1
3.4560001 -6.9159999 0.70599997 1
3.4549999 -6.9099998 0.75199997 1
3.451 -6.908 0.76499999 1
3.4349999 -6.9180002 0.70700002 1
3.467 -6.9050002 0.78200001 1
3.4360001 -6.914 0.73400003 1
3.4630001 -6.9180002 0.69199997 1
3.4530001 -6.9180002 0.69700003 1
3.4289999 -6.9159999 0.72600001 1
3.447 -6.9190001 0.69499999 1
3.4289999 -6.9200001 0.69400001 1
3.4649999 -6.9130001 0.72000003 1
3.454 -6.9099998 0.75 1
3.444 -6.915 0.72500002 1
3.4590001 -6.9169998 0.69499999 1
3.457 -6.9070001 0.77200001 1
3.428 -6.9190001 0.70700002 1
3.451 -6.9130001 0.73400003 1
3.4489999 -6.9109998 0.74599999 1
3.427 -6.9219999 0.685 1
3.4059999 -6.9229999 0.68699998 1
3.4549999 -6.915 0.71799999 1
3.4660001 -6.9029999 0.79400003 1
3.46 -6.9060001 0.77600002 1
3.4519999 -6.9169998 0.70499998 1
3.4419999 -6.9109998 0.75199997 1
3.45 -6.9089999 0.75999999 1
3.4430001 -6.9120002 0.74800003 1
3.4130001 -6.9219999 1.017 1
3.431 -6.9120002 0.87699997 1
3.46 -6.9039998 0.83399999 1
3.398 -6.9200001 0.87199998 1
3.4630001 -6.9050002 0.87900001 1
3.4070001 -6.9190001 0.91100001 1
3.4579999 -6.9050002 0.85399997 1
3.411 -6.9180002 0.89200002 1
3.447 -6.908 0.866 1
3.431 -6.915 0.95599997 1
3.4230001 -6.9219999 1.092 1
3.3959999 -6.9229999 0.95200002 1
3.4549999 -6.908 0.90700001 1
3.411 -6.9180002 0.90899998 1
3.4260001 -6.914 0.889 1
3.444 -6.9089999 0.87900001 1
3.437 -6.9120002 0.90799999 1
3.425 -6.9190001 1.0319999 1
3.454 -6.9070001 0.88099998 1
3.408 -6.9180002 0.88599998 1
3.4260001 -6.9169998 0.972 1
3.4159999 -6.9219999 1.0369999 1
3.401 -6.9200001 0.90700001 1
3.424 -6.9169998 0.94400001 1
3.4300001 -6.9190001 1.063 1
3.4170001 -6.921 1.013 1
3.4300001 -6.9159999 0.958 1
3.3829999 -6.9239998 0.89399999 1
3.4489999 -6.9089999 0.89499998 1
3.4360001 -6.9180002 1.0650001 1
3.437 -6.9130001 0.92699999 1
3.4289999 -6.9180002 1.026 1
3.4189999 -6.9219999 1.051 1
3.411 -6.921 0.97500002 1
3.438 -6.9130001 0.94199997 1
3.4330001 -6.915 0.94700003 1
3.4630001 -6.9029999 0.82200003 1
3.4230001 -6.921 1.067 1
3.431 -6.9190001 1.072 1
3.4530001 -6.9060001 0.85000002 1
3.4449999 -6.9120002 0.95099998 1
3.4430001 -6.9089999 0.86000001 1
3.3840001 -6.9239998 0.89499998 1
3.447 -6.9099998 0.91299999 1
3.4300001 -6.9120002 0.86400002 1
3.4590001 -6.9050002 0.84899998 1
3.46 -6.9060001 0.88099998 1
3.4649999 -6.9029999 0.83899999 1
3.4219999 -6.9200001 1.028 1
3.4189999 -6.9180002 0.96600002 1
3.4319999 -6.914 0.92500001 1
3.448 -6.9120002 0.977 1
3.4560001 -6.908 0.917 1
3.4530001 -6.9060001 0.829 1
3.4460001 -6.908 0.84899998 1
3.4000001 -6.9239998 1.005 1
3.4360001 -6.9169998 1.033 1
3.4349999 -6.9130001 0.91000003 1
3.4089999 -6.9200001 0.94499999 1
3.4619999 -6.9050002 0.85600001 1
3.4590001 -6.9039998 0.83499998 1
3.4170001 -6.921 1.013 1
3.424 -6.9130001 0.85799998 1
3.4219999 -6.921 1.067 1
3.414 -6.9190001 0.95099998 1
3.4330001 -6.9120002 0.86799997 1
3.4159999 -6.9169998 0.912 1
3.4130001 -6.9169998 0.88 1
3.4130001 -6.9169998 0.87400001 1
3.431 -6.914 0.92799997 1
3.4389999 -6.914 0.98100001 1
3.464 -6.9039998 0.86299998 1
3.395 -6.9229999 0.93900001 1
3.444 -6.9109998 0.93099999 1
3.437 -6.9109998 0.88499999 1
3.421 -6.9219999 1.073 1
3.4119999 -6.9180002 0.92299998 1
3.4189999 -6.915 0.87199998 1
3.441 -6.9120002 0.92500001 1
3.4230001 -6.915 0.903 1
3.425 -6.9130001 0.85799998 1
3.444 -6.9120002 0.958 1
3.425 -6.9130001 0.85500002 1
3.418 -6.921 1.0369999 1
3.405 -6.921 0.958 1
3.4419999 -6.9099998 0.89300001 1
3.3970001 -6.9219999 0.92699999 1
3.411 -6.921 0.97000003 1
3.428 -6.921 1.077 1
3.3940001 -6.9229999 0.93099999 1
3.4360001 -6.9120002 0.90399998 1
3.398 -6.9229999 0.95899999 1
3.4619999 -6.9029999 0.82700002 1
3.418 -6.9159999 0.903 1
3.441 -6.915 0.99699998 1
3.4489999 -6.9070001 0.847 1
3.4460001 -6.908 0.85900003 1
3.45 -6.9099998 0.94199997 1
3.4170001 -6.9219999 1.048 1
3.421 -6.921 1.048 1
3.4330001 -6.914 0.935 1
3.4100001 -6.9219999 1.012 1
3.421 -6.921 1.0470001 1
3.4130001 -6.9180002 0.91000003 1
3.427 -6.915 0.91100001 1
3.441 -6.9120002 0.92500001 1
3.414 -6.9159999 0.87300003 1
3.4400001 -6.9120002 0.92900002 1
3.408 -6.9229999 1.0319999 1
3.4130001 -6.9180002 0.926 1
3.4230001 -6.9180002 0.99000001 1
3.428 -6.9120002 0.85100001 1
3.4400001 -6.9109998 0.88099998 1
3.4089999 -6.921 0.96600002 1
3.444 -6.9089999 0.87699997 1
3.4170001 -6.9229999 1.0650001 1
3.4159999 -6.9169998 0.92000002 1
3.447 -6.9099998 0.917 1
3.3859999 -6.9229999 0.88200003 1
3.4300001 -6.915 0.94300002 1
3.4449999 -6.9130001 0.995 1
3.4519999 -6.9070001 0.86699998 1
3.451 -6.908 0.87199998 1
3.4330001 -6.914 0.92500001 1
3.411 -6.9200001 0.94999999 1
3.4000001 -6.9200001 0.89399999 1
3.4649999 -6.9039998 0.85399997 1
3.4330001 -6.9169998 1.024 1
3.4419999 -6.9099998 0.88800001 1
3.4560001 -6.9070001 0.87800002 1
3.431 -6.914 0.92000002 1
3.385 -6.9250002 0.917 1
3.438 -6.9099998 0.861 1
3.4300001 -6.914 0.921 1
3.3940001 -6.9239998 0.97299999 1
3.4330001 -6.9159999 0.98799998 1
3.4319999 -6.9120002 0.88499999 1
3.405 -6.921 0.93599999 1
3.4519999 -6.9070001 0.87400001 1
3.451 -6.9070001 0.85699999 1
3.4560001 -6.9070001 0.87300003 1
3.4330001 -6.9239998 2.0090001 1
3.444 -6.9229999 1.985 1
3.4579999 -6.9050002 1.878 1
3.454 -6.915 1.933 1
3.467 -6.9099998 1.892 1
3.4679999 -6.9299998 1.99 1
3.4619999 -6.9130001 1.911 1
3.457 -6.9250002 1.9809999 1
3.4449999 -6.9200001 1.97 1
3.461 -6.9200001 1.949 1
3.447 -6.9130001 1.931 1
3.4460001 -6.9169998 1.954 1
3.4619999 -6.9260001 1.978 1
3.4579999 -6.9289999 1.998 1
3.4430001 -6.9219999 1.984 1
3.4630001 -6.915 1.923 1
3.431 -6.9289999 2.0339999 1
3.4560001 -6.914 1.9220001 1
3.46 -6.9289999 1.998 1
3.4690001 -6.9229999 1.955 1
3.4360001 -6.9289999 2.026 1
3.4630001 -6.9219999 1.956 1
3.431 -6.928 2.029 1
3.467 -6.9289999 1.985 1
3.4319999 -6.9260001 2.02 1
3.4289999 -6.928 2.0309999 1
3.454 -6.9299998 2.0090001 1
3.438 -6.9250002 2.0039999 1
3.4530001 -6.921 1.962 1
3.4690001 -6.927 1.974 1
3.4649999 -6.9239998 1.962 1
3.4489999 -6.927 1.999 1
3.461 -6.9169998 1.934 1
3.454 -6.927 1.994 1
3.467 -6.9239998 1.96 1
3.4460001 -6.9169998 1.954 1
3.467 -6.927 1.976 1
3.46 -6.9250002 2.1919999 1
3.4560001 -6.9250002 2.211 1
3.4630001 -6.9260001 2.1789999 1
3.47 -6.927 2.1470001 1
3.4660001 -6.9299998 2.2320001 1
3.4679999 -6.928 2.1789999 1
3.4579999 -6.9260001 2.2320001 1
3.461 -6.9250002 2.1900001 1
3.4660001 -6.9190001 0.27000001 1
3.4630001 -6.9190001 0.27599999 1
3.4630001 -6.921 0.373 1
3.4619999 -6.9200001 0.34 1
3.4579999 -6.9190001 0.32600001 1
3.461 -6.9190001 0.28200001 1
3.4690001 -6.9200001 0.29499999 1
3.464 -6.9200001 0.292 1
3.47 -6.9219999 0.37400001 1
3.4679999 -6.921 0.368 1
3.467 -6.921 0.34200001 1
3.464 -6.921 0.38499999 1
3.4560001 -6.9200001 0.382 1
3.4519999 -6.9190001 0.35299999 1
3.457 -6.9200001 0.38 1
3.467 -6.921 0.35699999 1
3.467 -6.9200001 0.28999999 1
3.454 -6.9200001 0.37599999 1
3.461 -6.921 0.382 1
3.4619999 -6.9200001 0.30500001 1
3.457 -6.9190001 0.42899999 1
3.46 -6.9200001 0.398 1
3.457 -6.9200001 0.41100001 1
3.4549999 -6.9200001 0.405 1
3.4549999 -6.9190001 0.42300001 1
3.461 -6.9200001 0.40200001 1
3.4590001 -6.9200001 0.41499999 1
3.4660001 -6.9190001 0.44100001 1
3.467 -6.9200001 0.428 1
3.4679999 -6.9200001 0.44100001 1
3.467 -6.921 0.39899999 1
3.4649999 -6.921 0.40700001 1
3.4560001 -6.9190001 0.435 1
3.4579999 -6.9200001 0.412 1
3.4590001 -6.9180002 0.456 1
3.447 -6.921 0.495 1
3.4679999 -6.9180002 0.58499998 1
3.4579999 -6.9200001 0.60000002 1
3.4630001 -6.9180002 0.51300001 1
3.4530001 -6.9200001 0.51099998 1
3.45 -6.921 0.537 1
3.4530001 -6.9200001 0.50999999 1
3.461 -6.9180002 0.479 1
3.4679999 -6.9180002 0.597 1
3.45 -6.921 0.53799999 1
3.4519999 -6.9190001 0.44800001 1
3.4690001 -6.9180002 0.56699997 1
3.4579999 -6.9190001 0.53899997 1
3.467 -6.9180002 0.55400002 1
3.448 -6.921 0.53600001 1
3.4489999 -6.9200001 0.45300001 1
3.4619999 -6.9190001 0.58700001 1
3.45 -6.9190001 0.44800001 1
3.47 -6.9180002 0.60100001 1
3.447 -6.9200001 0.43099999 1
3.4460001 -6.921 0.55400002 1
3.45 -6.921 0.54000002 1
3.4460001 -6.921 0.51599997 1
3.464 -6.9180002 0.50300002 1
3.461 -6.9190001 0.54000002 1
3.4579999 -6.9190001 0.528 1
3.4660001 -6.9180002 0.565 1
3.447 -6.9200001 0.48300001 1
3.45 -6.921 0.56800002 1
3.448 -6.921 0.56300002 1
3.46 -6.9190001 0.54000002 1
3.447 -6.9200001 0.414 1
3.4460001 -6.921 0.52899998 1
3.4519999 -6.9190001 0.45699999 1
3.4590001 -6.9190001 0.55199999 1
3.457 -6.9200001 0.54400003 1
3.46 -6.9200001 0.60500002 1
3.4619999 -6.9180002 0.495 1
3.448 -6.9190001 0.41 1
3.4649999 -6.9180002 0.523 1
3.46 -6.9190001 0.57700002 1
3.4549999 -6.9099998 0.94499999 1
3.4679999 -6.9190001 0.96100003 1
3.4660001 -6.914 0.93800002 1
3.4649999 -6.9070001 0.89399999 1
3.4430001 -6.9159999 1.031 1
3.447 -6.9229999 1.0599999 1
3.4590001 -6.9109998 0.93900001 1
3.4519999 -6.9200001 1.022 1
3.447 -6.921 1.052 1
3.444 -6.921 1.0599999 1
3.4430001 -6.9229999 1.075 1
3.464 -6.9109998 0.92199999 1
3.4549999 -6.9159999 0.98699999 1
3.451 -6.9200001 1.03 1
3.4630001 -6.921 0.99599999 1
3.454 -6.914 0.97899997 1
3.4349999 -6.9219999 1.096 1
3.4449999 -6.921 1.052 1
3.467 -6.9060001 0.88099998 1
3.4530001 -6.914 0.98100001 1
3.4579999 -6.915 0.97500002 1
3.441 -6.9180002 1.049 1
3.461 -6.908 0.91100001 1
3.4519999 -6.915 0.99000001 1
3.467 -6.9200001 0.972 1
3.4549999 -6.9159999 0.986 1
3.464 -6.915 0.94700003 1
3.454 -6.9120002 0.963 1
3.464 -6.9229999 1.006 1
3.4460001 -6.9219999 1.056 1
3.4630001 -6.9099998 0.921 1
3.457 -6.9190001 1.002 1
3.4560001 -6.9200001 1.0089999 1
3.457 -6.9089999 0.935 1
3.464 -6.9050002 0.88599998 1
3.4630001 -6.9089999 0.91500002 1
3.4519999 -6.9130001 0.97500002 1
3.4690001 -6.9190001 0.963 1
3.457 -6.9239998 1.091 1
3.467 -6.9250002 1.258 1
3.4449999 -6.9229999 1.08 1
3.457 -6.9239998 1.163 1
3.4389999 -6.9229999 1.149 1
3.4619999 -6.9250002 1.184 1
3.4460001 -6.9229999 1.099 1
3.4489999 -6.9229999 1.0650001 1
3.4660001 -6.9250002 1.016 1
3.4460001 -6.9229999 1.14 1
3.4649999 -6.9250002 1.182 1
3.437 -6.9229999 1.122 1
3.4690001 -6.9250002 1.215 1
3.438 -6.9229999 1.119 1
3.4519999 -6.9239998 1.081 1
3.454 -6.9239998 1.136 1
3.4590001 -6.9239998 1.165 1
3.47 -6.9250002 1.022 1
3.448 -6.9239998 1.137 1
3.4519999 -6.9239998 1.059 1
3.4630001 -6.9250002 1.212 1
3.4460001 -6.9229999 1.105 1
3.4679999 -6.9250002 1.043 1
3.461 -6.9239998 1.151 1
3.4519999 -6.9239998 1.191 1
3.454 -6.9239998 1.164 1
3.4419999 -6.9229999 1.105 1
3.4579999 -6.9239998 1.1059999 1
3.4660001 -6.9250002 1.0650001 1
3.4679999 -6.9250002 1.261 1
3.464 -6.9250002 1.137 1
3.4460001 -6.9229999 1.145 1
3.45 -6.9239998 1.0549999 1
3.4519999 -6.9239998 1.075 1
3.457 -6.9239998 1.081 1
3.437 -6.9229999 1.146 1
3.47 -6.9250002 1.189 1
3.457 -6.9239998 1.201 1
3.47 -6.9250002 1.182 1
3.464 -6.9250002 1.0700001 1
3.4690001 -6.9250002 1.028 1
3.46 -6.9239998 1.1440001 1
3.451 -6.9239998 1.145 1
3.4619999 -6.9239998 1.0930001 1
3.4690001 -6.9250002 1.214 1
3.4549999 -6.9239998 1.165 1
3.464 -6.9250002 1.086 1
3.4630001 -6.9250002 1.235 1
3.4590001 -6.9239998 1.113 1
3.4489999 -6.9229999 1.082 1
3.4460001 -6.9219999 1.247 1
3.4360001 -6.9190001 1.294 1
3.4590001 -6.9190001 1.457 1
3.4400001 -6.9200001 1.27 1
3.4530001 -6.921 1.313 1
3.4330001 -6.921 1.204 1
3.4519999 -6.9169998 1.46 1
3.434 -6.9200001 1.248 1
3.4460001 -6.9180002 1.3890001 1
3.4660001 -6.921 1.404 1
3.47 -6.9229999 1.351 1
3.447 -6.9200001 1.3099999 1
3.4489999 -6.9169998 1.467 1
3.47 -6.921 1.443 1
3.444 -6.9159999 1.459 1
3.448 -6.9229999 1.217 1
3.4530001 -6.9229999 1.248 1
3.45 -6.9169998 1.4450001 1
3.4590001 -6.9190001 1.424 1
3.4449999 -6.921 1.2819999 1
3.4690001 -6.9250002 1.2690001 1
3.4489999 -6.9219999 1.242 1
3.4430001 -6.9159999 1.457 1
3.4419999 -6.9200001 1.271 1
3.437 -6.9190001 1.29 1
3.437 -6.921 1.21 1
3.4489999 -6.9159999 1.507 1
3.4330001 -6.921 1.196 1
3.454 -6.9229999 1.263 1
3.4619999 -6.9180002 1.488 1
3.4330001 -6.9219999 1.136 1
3.447 -6.9159999 1.483 1
3.4690001 -6.9239998 1.318 1
3.451 -6.9169998 1.467 1
3.4360001 -6.9200001 1.2640001 1
3.437 -6.9180002 1.329 1
3.4630001 -6.9239998 1.291 1
3.4330001 -6.9219999 1.142 1
3.461 -6.9190001 1.431 1
3.4389999 -6.9180002 1.339 1
3.4400001 -6.9219999 1.198 1
3.4389999 -6.9200001 1.251 1
3.431 -6.921 1.179 1
3.4590001 -6.9239998 1.243 1
3.431 -6.9219999 1.142 1
3.45 -6.9169998 1.446 1
3.454 -6.9180002 1.454 1
3.46 -6.9200001 1.396 1
3.441 -6.9180002 1.3559999 1
3.4430001 -6.9190001 1.344 1
3.461 -6.9229999 1.285 1
3.451 -6.9239998 1.201 1
3.45 -6.9169998 1.47 1
3.4400001 -6.9180002 1.362 1
3.4360001 -6.9219999 1.181 1
3.467 -6.9190001 1.479 1
3.437 -6.9180002 1.312 1
3.4449999 -6.9159999 1.465 1
3.4579999 -6.9180002 1.47 1
3.448 -6.921 1.2819999 1
3.4619999 -6.9190001 1.454 1
3.4389999 -6.9200001 1.28 1
3.438 -6.9180002 1.337 1
3.4649999 -6.9239998 1.2920001 1
3.4519999 -6.921 1.307 1
3.46 -6.921 1.383 1
3.4679999 -6.9219999 1.388 1
3.448 -6.9169998 1.454 1
3.437 -6.921 1.205 1
3.4460001 -6.9190001 1.368 1
3.4590001 -6.9229999 1.275 1
3.457 -6.9239998 1.245 1
3.4530001 -6.9169998 1.483 1
3.4619999 -6.9239998 1.252 1
3.434 -6.921 1.215 1
3.447 -6.9200001 1.324 1
3.4449999 -6.9229999 1.206 1
3.4360001 -6.921 1.223 1
3.4460001 -6.9180002 1.395 1
3.4530001 -6.921 1.335 1
3.454 -6.9219999 1.28 1
3.4400001 -6.9169998 1.396 1
3.4360001 -6.9180002 1.307 1
3.441 -6.9190001 1.313 1
3.4549999 -6.9219999 1.296 1
3.4590001 -6.9190001 1.439 1
3.4679999 -6.921 1.41 1
3.444 -6.9219999 1.221 1
3.457 -6.9169998 1.49 1
3.4530001 -6.9229999 1.227 1
3.454 -6.9169998 1.466 1
3.461 -6.9219999 1.349 1
3.47 -6.9200001 1.4859999 1
3.444 -6.9180002 1.3789999 1
3.457 -6.9180002 1.455 1
3.467 -6.9239998 1.319 1
3.441 -6.9200001 1.3 1
3.448 -6.921 1.303 1
3.4519999 -6.921 1.3200001 1
3.4590001 -6.9229999 1.289 1
3.4449999 -6.915 1.5089999 1
3.4549999 -6.9180002 1.4529999 1
3.45 -6.9190001 1.375 1
3.457 -6.9180002 1.573 1
3.4560001 -6.9180002 1.595 1
3.4489999 -6.915 1.5369999 1
3.4679999 -6.921 1.638 1
3.4660001 -6.9200001 1.613 1
3.47 -6.9200001 1.5650001 1
3.464 -6.9190001 1.527 1
3.4649999 -6.9200001 1.62 1
3.4679999 -6.9190001 1.522 1
3.4489999 -6.915 1.529 1
3.461 -6.9180002 1.5880001 1
3.4679999 -6.9200001 1.596 1
3.467 -6.9200001 1.596 1
3.464 -6.9190001 1.614 1
3.47 -6.9200001 1.4910001 1
3.467 -6.9200001 1.552 1
3.464 -6.9190001 1.607 1
3.4660001 -6.9200001 1.598 1
3.4649999 -6.9200001 1.632 1
3.4590001 -6.9180002 1.523 1
3.4590001 -6.9180002 1.549 1
3.4519999 -6.9159999 1.526 1
3.4590001 -6.9120002 1.742 1
3.45 -6.9120002 1.6160001 1
3.4660001 -6.9130001 1.796 1
3.464 -6.9089999 1.853 1
3.46 -6.914 1.71 1
3.461 -6.9190001 1.64 1
3.4619999 -6.915 1.709 1
3.4549999 -6.9120002 1.681 1
