# .PCD v0.7 - Point Cloud Data file format
VERSION 0.7
FIELDS x y z label
SIZE 4 4 4 4
TYPE F F F U
COUNT 1 1 1 1
WIDTH 1786
HEIGHT 1
VIEWPOINT 0 0 0 1 0 0 0
POINTS 1786
DATA ascii
7.8979998 -1.401 0.98400003 1
7.8979998 -1.3890001 0.96200001 1
7.8979998 -1.3710001 0.96899998 1
7.8979998 -1.374 1.082 1
7.8959999 -1.271 1.0319999 1
7.8979998 -1.404 0.94999999 1
7.8959999 -1.263 1.016 1
7.8959999 -1.2869999 0.89200002 1
7.8969998 -1.331 1.109 1
7.8979998 -1.392 0.73299998 1
7.8979998 -1.403 1.007 1
7.8959999 -1.296 1.028 1
7.8979998 -1.402 0.85399997 1
7.8969998 -1.321 0.88700002 1
7.8969998 -1.348 1.068 1
7.8979998 -1.401 1.141 1
7.8969998 -1.3710001 0.87900001 1
7.8959999 -1.29 0.977 1
7.8969998 -1.355 0.89099997 1
7.8979998 -1.381 1.056 1
7.8959999 -1.294 0.86299998 1
7.8959999 -1.268 0.90899998 1
7.8969998 -1.326 1 1
7.8969998 -1.377 0.77600002 1
7.8979998 -1.378 0.884 1
7.8969998 -1.349 1.177 1
7.8979998 -1.395 1.168 1
7.895 -1.248 0.97500002 1
7.8969998 -1.347 1.073 1
7.8969998 -1.346 1.1720001 1
7.8969998 -1.357 0.78600001 1
7.8979998 -1.406 1.2359999 1
7.8979998 -1.385 1.051 1
7.8979998 -1.372 1.1900001 1
7.8979998 -1.388 1.159 1
7.8959999 -1.27 0.93699998 1
7.8979998 -1.367 1.096 1
7.8969998 -1.317 0.84899998 1
7.8969998 -1.367 0.991 1
7.8969998 -1.339 0.829 1
7.8979998 -1.376 0.87199998 1
7.8959999 -1.2819999 0.94099998 1
7.8979998 -1.388 0.86400002 1
7.8979998 -1.409 0.80199999 1
7.8979998 -1.375 1.215 1
7.8969998 -1.349 1.177 1
7.8979998 -1.381 1.127 1
7.8969998 -1.329 0.86400002 1
7.8959999 -1.271 0.93699998 1
7.8979998 -1.397 0.79799998 1
7.8969998 -1.3559999 0.88099998 1
7.8979998 -1.411 0.85100001 1
7.8969998 -1.353 0.99000001 1
7.8969998 -1.364 0.84799999 1
7.8969998 -1.347 1.005 1
7.8969998 -1.334 0.86299998 1
7.8969998 -1.33 0.99299997 1
7.8979998 -1.3940001 0.85299999 1
7.8979998 -1.393 0.89999998 1
7.8969998 -1.369 0.81800002 1
7.8979998 -1.378 1.165 1
7.8969998 -1.325 0.81999999 1
7.8979998 -1.375 0.98299998 1
7.8969998 -1.369 0.755 1
7.8959999 -1.25 0.977 1
7.8979998 -1.4069999 1.192 1
7.8959999 -1.256 1.021 1
7.8979998 -1.39 0.98900002 1
7.8969998 -1.324 1.101 1
7.8959999 -1.283 0.87599999 1
7.8969998 -1.336 0.84600002 1
7.8969998 -1.3099999 0.99299997 1
7.8979998 -1.4 0.89700001 1
7.8979998 -1.3839999 1.112 1
7.8979998 -1.382 1.0190001 1
7.8969998 -1.352 0.83700001 1
7.8979998 -1.3710001 1.177 1
7.8979998 -1.364 1.092 1
7.8969998 -1.34 1.002 1
7.8969998 -1.337 1.035 1
7.8959999 -1.2640001 0.90899998 1
7.8979998 -1.399 1.191 1
7.8969998 -1.337 1.102 1
7.8969998 -1.318 1.017 1
7.8969998 -1.3430001 0.81900001 1
7.8969998 -1.316 0.875 1
7.8959999 -1.285 0.889 1
7.8979998 -1.403 0.866 1
7.8959999 -1.302 1.081 1
7.8969998 -1.347 1.012 1
7.8969998 -1.344 0.83499998 1
7.8959999 -1.301 0.89700001 1
7.895 -1.245 0.98100001 1
7.8969998 -1.351 0.98900002 1
7.8969998 -1.36 0.85399997 1
7.8979998 -1.386 1.097 1
7.8979998 -1.385 1.198 1
7.8969998 -1.306 1.052 1
7.8979998 -1.38 1.0599999 1
7.8969998 -1.337 0.80400002 1
7.8969998 -1.319 1.113 1
7.8959999 -1.301 0.84399998 1
7.8969998 -1.3559999 1.186 1
7.8979998 -1.38 0.85600001 1
7.8969998 -1.3329999 1.03 1
7.8979998 -1.402 1.248 1
7.8969998 -1.362 0.84600002 1
7.8969998 -1.324 1.1109999 1
7.8969998 -1.364 0.77499998 1
7.895 -1.242 0.98799998 1
7.8979998 -1.4069999 0.73100001 1
7.8959999 -1.2819999 0.97399998 1
7.895 -1.248 0.95200002 1
7.8959999 -1.278 0.98100001 1
7.8959999 -1.309 0.85399997 1
7.8959999 -1.275 1.013 1
7.8969998 -1.3150001 1.077 1
7.8979998 -1.38 0.91000003 1
7.8959999 -1.285 1.049 1
7.8979998 -1.411 0.796 1
7.8969998 -1.303 1.108 1
7.8959999 -1.271 0.88200003 1
7.8979998 -1.397 1.082 1
7.8979998 -1.383 1.09 1
7.8969998 -1.33 0.85500002 1
7.8979998 -1.3839999 0.773 1
7.8969998 -1.322 0.81300002 1
7.8969998 -1.353 0.972 1
7.8959999 -1.284 1.0319999 1
7.8979998 -1.401 1.137 1
7.8979998 -1.382 0.96899998 1
7.8969998 -1.3430001 1.0319999 1
7.8969998 -1.337 1.082 1
7.8959999 -1.29 0.98299998 1
7.895 -1.2460001 0.94099998 1
7.8969998 -1.339 1.1289999 1
7.8979998 -1.38 0.829 1
7.8959999 -1.275 0.95599997 1
7.8959999 -1.306 0.87300003 1
7.8979998 -1.383 1.044 1
7.8969998 -1.323 1.0549999 1
7.8979998 -1.395 0.89700001 1
7.8969998 -1.304 1.068 1
7.8979998 -1.381 0.85000002 1
7.8979998 -1.409 0.98299998 1
7.8979998 -1.388 1.189 1
7.8979998 -1.4069999 0.90600002 1
7.8959999 -1.2970001 1.066 1
7.8979998 -1.378 0.93099999 1
7.8969998 -1.346 0.972 1
7.8969998 -1.35 0.84799999 1
7.8979998 -1.393 1.163 1
7.8959999 -1.257 0.94 1
7.8959999 -1.295 1.0190001 1
7.8979998 -1.387 1.0089999 1
7.8979998 -1.399 1.209 1
7.8969998 -1.324 1.072 1
7.8959999 -1.2920001 0.88499999 1
7.8979998 -1.3839999 0.838 1
7.8959999 -1.3099999 0.90600002 1
7.8979998 -1.395 0.96799999 1
7.8969998 -1.314 1.027 1
7.8979998 -1.408 0.71700001 1
7.8959999 -1.272 1.031 1
7.8979998 -1.386 1.158 1
7.8969998 -1.314 1.025 1
7.8959999 -1.298 0.94300002 1
7.8969998 -1.358 0.97399998 1
7.8969998 -1.323 0.815 1
7.8959999 -1.286 0.926 1
7.8979998 -1.373 1.138 1
7.8979998 -1.38 0.963 1
7.8979998 -1.382 0.99299997 1
7.8979998 -1.39 0.87099999 1
7.8969998 -1.347 0.96200001 1
7.8979998 -1.373 1 1
7.8979998 -1.397 1.152 1
7.8979998 -1.3789999 1.0470001 1
7.8979998 -1.396 1.151 1
7.8969998 -1.351 0.87300003 1
7.8969998 -1.317 1.026 1
7.8979998 -1.395 0.80699998 1
7.8959999 -1.257 1.052 1
7.8969998 -1.352 0.85799998 1
7.8959999 -1.2589999 1.051 1
7.8969998 -1.345 0.86799997 1
7.8969998 -1.346 1.0650001 1
7.8969998 -1.332 1.052 1
7.8979998 -1.38 1.051 1
7.8979998 -1.382 0.92299998 1
7.8969998 -1.317 1.1109999 1
7.8969998 -1.331 1.061 1
7.8969998 -1.369 0.958 1
7.8959999 -1.257 0.903 1
7.895 -1.244 1.018 1
7.8979998 -1.4069999 0.72500002 1
7.895 -1.233 0.99599999 1
7.8979998 -1.396 0.83899999 1
7.8959999 -1.267 0.92000002 1
7.895 -1.243 0.96200001 1
7.8969998 -1.35 1.066 1
7.8979998 -1.393 0.949 1
7.8969998 -1.335 0.96899998 1
7.8969998 -1.339 0.90399998 1
7.8979998 -1.403 0.83700001 1
7.8979998 -1.388 1.115 1
7.8969998 -1.325 1.054 1
7.8959999 -1.3150001 0.83999997 1
7.8979998 -1.3940001 0.97299999 1
7.8979998 -1.405 1.205 1
7.8959999 -1.3099999 0.87 1
7.8979998 -1.3940001 1.041 1
7.8969998 -1.38 0.74699998 1
7.8969998 -1.344 1.051 1
7.8969998 -1.318 1.0700001 1
7.8979998 -1.398 0.83700001 1
7.8979998 -1.3789999 1.166 1
7.8959999 -1.301 0.87 1
7.8969998 -1.3329999 1.095 1
7.8979998 -1.395 1.043 1
7.8979998 -1.4 1.001 1
7.8969998 -1.354 0.98400003 1
7.8979998 -1.4119999 0.72399998 1
7.8979998 -1.368 0.99800003 1
7.8979998 -1.401 0.88099998 1
7.8979998 -1.409 0.80599999 1
7.8979998 -1.41 0.72100002 1
7.8969998 -1.329 0.97299999 1
7.8959999 -1.279 0.889 1
7.8959999 -1.257 1.008 1
7.8969998 -1.342 0.935 1
7.8979998 -1.387 1.03 1
7.8979998 -1.405 0.90700001 1
7.8969998 -1.3200001 0.98900002 1
7.8959999 -1.309 0.82800001 1
7.8979998 -1.401 1.085 1
7.8959999 -1.296 0.84799999 1
7.8969998 -1.3279999 1.006 1
7.8979998 -1.396 0.92400002 1
7.8969998 -1.326 0.81199998 1
7.8979998 -1.4069999 1.02 1
7.8979998 -1.402 0.71700001 1
7.8969998 -1.345 0.79000002 1
7.8959999 -1.265 0.92299998 1
7.8979998 -1.3839999 0.90899998 1
7.8979998 -1.392 0.83899999 1
7.8969998 -1.359 0.79799998 1
7.8959999 -1.262 1.015 1
7.8979998 -1.388 0.97899997 1
7.8979998 -1.398 1.023 1
7.8979998 -1.377 0.97899997 1
7.8979998 -1.385 0.787 1
7.8969998 -1.3099999 1.045 1
7.8959999 -1.26 0.88999999 1
7.8969998 -1.308 1 1
7.8979998 -1.396 1.2130001 1
7.8959999 -1.258 1.033 1
7.8979998 -1.3940001 0.926 1
7.8979998 -1.37 1.0369999 1
7.8979998 -1.397 1.136 1
7.8969998 -1.376 0.75300002 1
7.8959999 -1.274 1.036 1
7.8979998 -1.3789999 1.141 1
7.8979998 -1.372 1.0140001 1
7.8969998 -1.353 0.81599998 1
7.8969998 -1.34 0.79900002 1
7.8959999 -1.281 1.056 1
7.8969998 -1.344 0.85299999 1
7.8959999 -1.281 0.99299997 1
7.8969998 -1.316 0.92199999 1
7.8979998 -1.382 0.95099998 1
7.8969998 -1.341 0.90700001 1
7.8969998 -1.3329999 0.81199998 1
7.8959999 -1.308 0.977 1
7.8959999 -1.2589999 1.006 1
7.8979998 -1.404 1.207 1
7.8959999 -1.3049999 1.027 1
7.8979998 -1.387 0.79699999 1
7.8959999 -1.27 1.0420001 1
7.8979998 -1.402 0.79699999 1
7.8969998 -1.355 0.84899998 1
7.8979998 -1.392 1.2180001 1
7.8969998 -1.352 1.098 1
7.8979998 -1.401 1.056 1
7.8969998 -1.331 0.80000001 1
7.8969998 -1.35 1.1569999 1
7.895 -1.239 1.023 1
7.8969998 -1.342 1.1390001 1
7.8969998 -1.35 1.107 1
7.8979998 -1.3710001 1.113 1
7.8979998 -1.364 1.086 1
7.8969998 -1.3150001 0.99199998 1
7.8979998 -1.3789999 1.2130001 1
7.8969998 -1.345 1.022 1
7.8979998 -1.387 1.061 1
7.8959999 -1.291 1.0470001 1
7.8959999 -1.293 1.09 1
7.9000001 -1.248 1.767 1
7.9000001 -1.3380001 1.941 1
7.895 -1.324 1.6390001 1
7.8990002 -1.27 1.728 1
7.8959999 -1.355 1.789 1
7.8959999 -1.378 1.8 1
7.8990002 -1.327 1.893 1
7.8990002 -1.326 1.8940001 1
7.895 -1.3940001 1.8049999 1
7.8969998 -1.298 1.705 1
7.8959999 -1.447 1.989 1
7.8969998 -1.425 1.959 1
7.8969998 -1.265 1.641 1
7.901 -1.321 1.965 1
7.895 -1.316 1.6210001 1
7.8959999 -1.278 1.591 1
7.9000001 -1.318 1.9119999 1
7.8969998 -1.4299999 1.97 1
7.8969998 -1.296 1.72 1
7.8979998 -1.281 1.706 1
7.8969998 -1.314 1.711 1
7.8969998 -1.26 1.637 1
7.8990002 -1.329 1.9 1
7.8959999 -1.247 1.534 1
7.8969998 -1.434 1.987 1
7.8959999 -1.265 1.539 1
7.8990002 -1.347 1.95 1
7.895 -1.2309999 1.442 1
7.8979998 -1.382 1.944 1
7.9000001 -1.253 1.796 1
7.8979998 -1.255 1.645 1
7.901 -1.313 1.972 1
7.8969998 -1.346 1.806 1
7.8990002 -1.248 1.686 1
7.9000001 -1.265 1.798 1
7.8969998 -1.354 1.811 1
7.8979998 -1.2539999 1.6619999 1
7.895 -1.286 1.567 1
7.901 -1.2359999 1.77 1
7.8990002 -1.348 1.916 1
7.8959999 -1.413 1.924 1
7.9000001 -1.346 1.974 1
7.8979998 -1.2589999 1.653 1
7.8979998 -1.33 1.804 1
7.902 -1.284 1.9450001 1
7.8969998 -1.3710001 1.873 1
7.9000001 -1.2869999 1.848 1
7.895 -1.322 1.642 1
7.8969998 -1.27 1.649 1
7.902 -1.26 1.9220001 1
7.8959999 -1.346 1.739 1
7.895 -1.311 1.6160001 1
7.901 -1.262 1.888 1
7.8979998 -1.3890001 1.989 1
7.895 -1.262 1.5 1
7.8990002 -1.293 1.809 1
7.8979998 -1.303 1.752 1
7.902 -1.266 1.9450001 1
7.8959999 -1.256 1.512 1
7.8979998 -1.3099999 1.8099999 1
7.895 -1.423 1.8839999 1
7.8959999 -1.421 1.8940001 1
7.8959999 -1.279 1.558 1
7.8969998 -1.301 1.687 1
7.8969998 -1.324 1.783 1
7.8990002 -1.278 1.7539999 1
7.8959999 -1.355 1.788 1
7.8969998 -1.363 1.85 1
7.9039998 -1.2410001 1.978 1
7.901 -1.248 1.801 1
7.9000001 -1.274 1.794 1
7.8969998 -1.265 1.619 1
7.8979998 -1.303 1.7819999 1
7.902 -1.291 1.971 1
7.8979998 -1.248 1.612 1
7.8979998 -1.319 1.824 1
7.8969998 -1.357 1.855 1
7.8979998 -1.252 1.627 1
7.895 -1.24 1.4630001 1
7.902 -1.285 1.979 1
7.8979998 -1.35 1.848 1
7.8990002 -1.266 1.744 1
7.8959999 -1.3 1.656 1
7.901 -1.233 1.77 1
7.901 -1.235 1.802 1
7.9000001 -1.251 1.773 1
7.895 -1.312 1.627 1
7.895 -1.434 1.909 1
7.8979998 -1.391 1.982 1
7.8990002 -1.359 1.98 1
7.8990002 -1.232 1.655 1
7.8959999 -1.326 1.725 1
7.8979998 -1.3049999 1.794 1
7.8959999 -1.303 1.635 1
7.8990002 -1.33 1.89 1
7.895 -1.298 1.603 1
7.8969998 -1.262 1.584 1
7.895 -1.323 1.6440001 1
7.8979998 -1.3890001 1.938 1
7.8959999 -1.319 1.6950001 1
7.8969998 -1.397 1.9 1
7.8959999 -1.438 1.983 1
7.8990002 -1.274 1.789 1
7.9029999 -1.26 1.965 1
7.8959999 -1.257 1.534 1
7.8959999 -1.443 1.987 1
7.901 -1.3049999 1.952 1
7.9000001 -1.3279999 1.92 1
7.8959999 -1.278 1.568 1
7.8969998 -1.339 1.812 1
7.8969998 -1.296 1.7079999 1
7.895 -1.397 1.821 1
7.8959999 -1.304 1.6339999 1
7.8959999 -1.452 1.989 1
7.8969998 -1.323 1.729 1
7.8959999 -1.255 1.535 1
7.8969998 -1.383 1.873 1
7.8990002 -1.314 1.875 1
7.8990002 -1.3150001 1.854 1
7.901 -1.278 1.898 1
7.9000001 -1.296 1.867 1
7.8959999 -1.387 1.863 1
7.895 -1.256 1.473 1
7.9029999 -1.257 1.941 1
7.895 -1.41 1.858 1
7.8990002 -1.279 1.749 1
7.9029999 -1.2410001 1.937 1
7.8959999 -1.253 1.529 1
7.8969998 -1.416 1.992 1
7.9000001 -1.33 1.952 1
7.8990002 -1.265 1.739 1
7.901 -1.265 1.882 1
7.8969998 -1.301 1.7180001 1
7.8959999 -1.353 1.758 1
7.8969998 -1.429 1.972 1
7.9029999 -1.248 1.931 1
7.8990002 -1.317 1.842 1
7.8979998 -1.403 1.971 1
7.901 -1.294 1.948 1
7.8979998 -1.344 1.877 1
7.8990002 -1.313 1.853 1
7.8969998 -1.285 1.666 1
7.9029999 -1.247 1.947 1
7.8969998 -1.272 1.62 1
7.895 -1.291 1.5829999 1
7.8959999 -1.243 1.526 1
7.9029999 -1.256 1.9400001 1
7.8990002 -1.234 1.681 1
7.8990002 -1.2539999 1.7309999 1
7.8959999 -1.3940001 1.849 1
7.8959999 -1.324 1.675 1
7.9000001 -1.257 1.765 1
7.8979998 -1.388 1.951 1
7.8969998 -1.428 1.989 1
7.8959999 -1.267 1.5930001 1
7.8990002 -1.289 1.812 1
7.8959999 -1.395 1.852 1
7.8969998 -1.25 1.557 1
7.8959999 -1.279 1.584 1
7.8990002 -1.248 1.715 1
7.8990002 -1.335 1.881 1
7.9000001 -1.247 1.737 1
7.8969998 -1.38 1.854 1
7.9000001 -1.2970001 1.855 1
7.8990002 -1.265 1.765 1
7.8979998 -1.271 1.666 1
7.8969998 -1.2309999 1.5599999 1
7.8979998 -1.335 1.826 1
7.8969998 -1.3150001 1.705 1
7.9000001 -1.28 1.8430001 1
7.9000001 -1.256 1.79 1
7.8969998 -1.3660001 1.825 1
7.9029999 -1.234 1.9 1
7.895 -1.413 1.85 1
7.9029999 -1.245 1.967 1
7.8969998 -1.293 1.682 1
7.8979998 -1.289 1.735 1
7.8959999 -1.324 1.717 1
7.8969998 -1.3 1.677 1
7.9029999 -1.266 1.983 1
7.8959999 -1.374 1.7869999 1
7.8979998 -1.239 1.603 1
7.895 -1.2460001 1.46 1
7.8969998 -1.2920001 1.6619999 1
7.8959999 -1.235 1.489 1
7.9039998 -1.238 1.969 1
7.9000001 -1.327 1.956 1
7.8969998 -1.307 1.6900001 1
7.895 -1.381 1.791 1
7.8979998 -1.373 1.947 1
7.9000001 -1.351 1.973 1
7.8990002 -1.2539999 1.701 1
7.8969998 -1.41 1.946 1
7.895 -1.427 1.886 1
7.895 -1.403 1.83 1
7.8959999 -1.332 1.694 1
7.8979998 -1.353 1.86 1
7.902 -1.2309999 1.854 1
7.8979998 -1.316 1.785 1
7.8969998 -1.352 1.8380001 1
7.901 -1.234 1.804 1
7.8979998 -1.248 1.635 1
7.8959999 -1.388 1.865 1
7.8990002 -1.255 1.689 1
7.8969998 -1.303 1.693 1
7.9029999 -1.245 1.929 1
7.895 -1.358 1.73 1
7.9000001 -1.345 1.97 1
7.8969998 -1.261 1.612 1
7.8990002 -1.341 1.909 1
7.901 -1.274 1.8940001 1
7.8979998 -1.363 1.888 1
7.895 -1.332 1.6619999 1
7.8990002 -1.251 1.7359999 1
7.8990002 -1.239 1.678 1
7.9000001 -1.312 1.939 1
7.8959999 -1.276 1.571 1
7.8979998 -1.268 1.683 1
7.901 -1.296 1.909 1
7.8990002 -1.334 1.8839999 1
7.8979998 -1.327 1.813 1
7.8969998 -1.2920001 1.65 1
7.902 -1.2359999 1.864 1
7.8959999 -1.373 1.8150001 1
7.9000001 -1.283 1.817 1
7.9000001 -1.321 1.903 1
7.8959999 -1.398 1.849 1
7.901 -1.277 1.9 1
7.9029999 -1.234 1.893 1
7.895 -1.237 1.444 1
7.8990002 -1.2869999 1.796 1
7.8959999 -1.393 1.844 1
7.8990002 -1.2819999 1.752 1
7.901 -1.262 1.855 1
7.8959999 -1.388 1.834 1
7.895 -1.353 1.73 1
7.9000001 -1.3430001 1.976 1
7.895 -1.34 1.678 1
7.9000001 -1.295 1.8430001 1
7.895 -1.368 1.7539999 1
7.9000001 -1.293 1.86 1
7.8959999 -1.444 1.974 1
7.9039998 -1.2460001 1.985 1
7.895 -1.465 1.975 1
7.8990002 -1.252 1.697 1
7.901 -1.306 1.974 1
7.8969998 -1.408 1.952 1
7.9000001 -1.302 1.916 1
7.8979998 -1.382 1.977 1
7.8990002 -1.362 1.969 1
7.8979998 -1.237 1.592 1
7.8990002 -1.2970001 1.788 1
7.8979998 -1.387 1.956 1
7.902 -1.276 1.941 1
7.8979998 -1.316 1.778 1
7.8990002 -1.233 1.66 1
7.901 -1.289 1.936 1
7.902 -1.271 1.967 1
7.901 -1.2410001 1.8329999 1
7.8959999 -1.248 1.528 1
7.8959999 -1.3329999 1.715 1
7.8979998 -1.2359999 1.596 1
7.8990002 -1.267 1.7640001 1
7.8969998 -1.342 1.803 1
7.901 -1.263 1.867 1
7.9000001 -1.289 1.84 1
7.8990002 -1.28 1.799 1
7.8979998 -1.369 1.899 1
7.8979998 -1.411 1.987 1
7.8969998 -1.437 1.989 1
7.8990002 -1.275 1.794 1
7.8969998 -1.334 1.788 1
7.8979998 -1.2410001 1.6390001 1
7.901 -1.267 1.841 1
7.9000001 -1.299 1.872 1
7.8969998 -1.388 1.874 1
7.8969998 -1.413 1.99 1
7.895 -1.365 1.755 1
7.8990002 -1.24 1.676 1
7.9000001 -1.265 1.79 1
7.9000001 -1.288 1.868 1
7.8959999 -1.431 1.918 1
7.902 -1.298 1.978 1
7.8969998 -1.238 1.538 1
7.901 -1.268 1.855 1
7.902 -1.249 1.916 1
7.8979998 -1.248 1.645 1
7.8990002 -1.281 1.795 1
7.9000001 -1.255 1.758 1
7.8959999 -1.406 1.902 1
7.8979998 -1.281 1.727 1
7.9000001 -1.303 1.8609999 1
7.8969998 -1.3940001 1.927 1
7.8959999 -1.385 1.85 1
7.8959999 -1.294 1.6339999 1
7.8979998 -1.326 1.83 1
7.8959999 -1.418 1.883 1
7.8979998 -1.372 1.898 1
7.902 -1.245 1.8609999 1
7.901 -1.316 1.983 1
7.8979998 -1.332 1.851 1
7.8969998 -1.327 1.789 1
7.8990002 -1.327 1.859 1
7.895 -1.36 1.7410001 1
7.8959999 -1.2589999 1.5549999 1
7.8990002 -1.266 1.749 1
7.902 -1.298 1.975 1
7.8959999 -1.3279999 1.692 1
7.9000001 -1.313 1.926 1
7.8959999 -1.427 1.91 1
7.8979998 -1.26 1.643 1
7.902 -1.258 1.898 1
7.8959999 -1.339 1.729 1
7.902 -1.281 1.9680001 1
7.901 -1.283 1.895 1
7.8959999 -1.423 1.902 1
7.8990002 -1.239 1.666 1
7.8990002 -1.2539999 1.723 1
7.8990002 -1.263 1.707 1
7.8959999 -1.239 1.474 1
7.8969998 -1.238 1.558 1
7.8969998 -1.256 1.6109999 1
7.8979998 -1.318 1.7970001 1
7.895 -1.234 1.4299999 1
7.895 -1.2309999 1.42 1
7.8959999 -1.3559999 1.737 1
7.902 -1.252 1.8660001 1
7.8969998 -1.401 1.9400001 1
7.901 -1.239 1.823 1
7.8969998 -1.401 1.939 1
7.8979998 -1.261 1.691 1
7.8990002 -1.256 1.724 1
7.8979998 -1.3940001 1.947 1
7.8959999 -1.245 1.497 1
7.8969998 -1.399 1.954 1
7.9000001 -1.244 1.761 1
7.895 -1.354 1.726 1
7.8990002 -1.24 1.658 1
7.9000001 -1.274 1.804 1
7.8959999 -1.436 1.9529999 1
7.8969998 -1.316 1.7589999 1
7.8969998 -1.3839999 1.9119999 1
7.9029999 -1.232 1.925 1
7.8959999 -1.2539999 1.524 1
7.902 -1.235 1.842 1
7.901 -1.257 1.847 1
7.8959999 -1.4450001 1.95 1
7.9000001 -1.2359999 1.766 1
7.8990002 -1.372 1.988 1
7.8969998 -1.2309999 1.554 1
7.9000001 -1.291 1.893 1
7.901 -1.266 1.862 1
7.9000001 -1.3279999 1.9529999 1
7.8990002 -1.3200001 1.86 1
7.8990002 -1.271 1.752 1
7.8969998 -1.3099999 1.752 1
7.9000001 -1.341 1.977 1
7.895 -1.2359999 1.4400001 1
7.901 -1.329 1.9859999 1
7.8959999 -1.342 1.748 1
7.9029999 -1.26 1.95 1
7.902 -1.235 1.854 1
7.8979998 -1.311 1.8 1
7.9039998 -1.237 1.97 1
7.895 -1.325 1.654 1
7.9029999 -1.232 1.938 1
7.8969998 -1.4349999 1.982 1
7.8959999 -1.275 1.562 1
7.8990002 -1.3049999 1.823 1
7.8959999 -1.27 1.596 1
7.8979998 -1.363 1.903 1
7.8959999 -1.414 1.925 1
7.9000001 -1.2309999 1.7309999 1
7.8979998 -1.41 1.987 1
7.9029999 -1.247 1.959 1
7.9000001 -1.288 1.846 1
7.8959999 -1.298 1.663 1
7.8969998 -1.351 1.807 1
7.901 -1.289 1.937 1
7.8959999 -1.324 1.665 1
7.901 -1.249 1.802 1
7.8959999 -1.349 1.76 1
7.9000001 -1.232 1.7359999 1
7.8969998 -1.432 1.983 1
7.9000001 -1.277 1.825 1
7.8969998 -1.365 1.85 1
7.9000001 -1.283 1.827 1
7.8979998 -1.255 1.637 1
7.9000001 -1.317 1.9349999 1
7.895 -1.324 1.647 1
7.9029999 -1.24 1.902 1
7.8990002 -1.302 1.852 1
7.8969998 -1.281 1.65 1
7.8969998 -1.377 1.858 1
7.9000001 -1.317 1.933 1
7.8979998 -1.2539999 1.626 1
7.8969998 -1.4119999 1.954 1
7.901 -1.251 1.846 1
7.895 -1.249 1.469 1
7.8959999 -1.26 1.552 1
7.8969998 -1.322 1.771 1
7.9029999 -1.262 1.972 1
7.9000001 -1.272 1.8049999 1
7.895 -1.302 1.612 1
7.895 -1.3789999 1.776 1
7.8969998 -1.398 1.9220001 1
7.8969998 -1.4170001 1.99 1
7.8959999 -1.411 1.87 1
7.901 -1.237 1.795 1
7.902 -1.257 1.896 1
7.902 -1.2539999 1.893 1
7.9000001 -1.2359999 1.738 1
7.8959999 -1.24 1.497 1
7.8990002 -1.256 1.706 1
7.901 -1.313 1.975 1
7.9000001 -1.2589999 1.788 1
7.9000001 -1.313 1.89 1
7.902 -1.262 1.947 1
7.8979998 -1.265 1.668 1
7.8979998 -1.3789999 1.9349999 1
7.8979998 -1.267 1.682 1
7.901 -1.285 1.929 1
7.8979998 -1.319 1.781 1
7.902 -1.251 1.921 1
7.8959999 -1.307 1.652 1
7.8969998 -1.35 1.846 1
7.8959999 -1.41 1.883 1
7.8969998 -1.289 1.698 1
7.8959999 -1.428 1.927 1
7.895 -1.318 1.623 1
7.9000001 -1.245 1.771 1
7.8959999 -1.28 1.5930001 1
7.8959999 -1.448 1.955 1
7.895 -1.251 1.487 1
7.902 -1.263 1.909 1
7.901 -1.3150001 1.966 1
7.8979998 -1.382 1.9579999 1
7.895 -1.395 1.818 1
7.895 -1.267 1.5 1
7.8959999 -1.37 1.816 1
7.895 -1.243 1.464 1
7.8959999 -1.4299999 1.957 1
7.8979998 -1.24 1.633 1
7.9029999 -1.237 1.909 1
7.9000001 -1.28 1.842 1
7.9000001 -1.293 1.847 1
7.901 -1.301 1.938 1
7.901 -1.3099999 1.9579999 1
7.8969998 -1.387 1.914 1
7.902 -1.2460001 1.858 1
7.8969998 -1.364 1.872 1
7.895 -1.378 1.7690001 1
7.8979998 -1.393 1.967 1
7.9000001 -1.334 1.941 1
7.9000001 -1.242 1.738 1
7.895 -1.262 1.515 1
7.8969998 -1.378 1.877 1
7.8969998 -1.405 1.92 1
7.895 -1.364 1.744 1
7.8969998 -1.274 1.655 1
7.8969998 -1.2359999 1.548 1
7.895 -1.454 1.952 1
7.8969998 -1.426 1.9910001 1
7.8990002 -1.362 1.952 1
7.8990002 -1.289 1.784 1
7.895 -1.393 1.8200001 1
7.8990002 -1.3099999 1.859 1
7.8959999 -1.2460001 1.502 1
7.8990002 -1.28 1.8049999 1
7.8969998 -1.295 1.6670001 1
7.9000001 -1.2359999 1.72 1
7.8959999 -1.3200001 1.677 1
7.901 -1.243 1.808 1
7.902 -1.233 1.836 1
7.895 -1.344 1.688 1
7.8990002 -1.253 1.7410001 1
7.9000001 -1.24 1.735 1
7.9000001 -1.2920001 1.893 1
7.8979998 -1.385 1.954 1
7.8990002 -1.255 1.726 1
7.895 -1.277 1.529 1
7.8969998 -1.2460001 1.603 1
7.8959999 -1.248 1.5190001 1
7.8969998 -1.243 1.582 1
7.8969998 -1.418 1.978 1
7.8990002 -1.2690001 1.743 1
7.902 -1.239 1.873 1
7.8959999 -1.353 1.744 1
7.9000001 -1.33 1.9680001 1
7.8979998 -1.278 1.694 1
7.8969998 -1.325 1.772 1
7.902 -1.279 1.984 1
7.8969998 -1.274 1.6619999 1
7.8979998 -1.324 1.812 1
7.8990002 -1.2920001 1.819 1
7.901 -1.235 1.811 1
7.8979998 -1.378 1.911 1
7.895 -1.242 1.465 1
7.8979998 -1.319 1.774 1
7.8979998 -1.3890001 1.96 1
7.895 -1.296 1.585 1
7.8979998 -1.363 1.933 1
7.9000001 -1.329 1.969 1
7.902 -1.278 1.9859999 1
7.8990002 -1.267 1.763 1
7.895 -1.346 1.6950001 1
7.901 -1.2690001 1.892 1
7.8959999 -1.34 1.704 1
7.8979998 -1.337 1.831 1
7.901 -1.2460001 1.821 1
7.8979998 -1.2869999 1.714 1
7.8959999 -1.318 1.6569999 1
7.8959999 -1.398 1.888 1
7.8959999 -1.37 1.821 1
7.8959999 -1.45 1.962 1
7.901 -1.256 1.84 1
7.9029999 -1.249 1.964 1
7.9039998 -1.233 1.954 1
7.8959999 -1.365 1.761 1
7.8979998 -1.314 1.802 1
7.8979998 -1.3940001 1.957 1
7.8969998 -1.257 1.5779999 1
7.8979998 -1.376 1.9400001 1
7.8959999 -1.273 1.556 1
7.8979998 -1.247 1.627 1
7.8969998 -1.285 1.6799999 1
7.8969998 -1.304 1.721 1
7.8959999 -1.3559999 1.744 1
7.8959999 -1.4170001 1.924 1
7.9000001 -1.256 1.756 1
7.8979998 -1.268 1.6950001 1
7.8959999 -1.291 1.594 1
7.8979998 -1.3150001 1.806 1
7.8959999 -1.2359999 1.46 1
7.8990002 -1.317 1.89 1
7.901 -1.313 1.989 1
7.901 -1.24 1.806 1
7.9000001 -1.298 1.8660001 1
7.8959999 -1.433 1.948 1
7.8969998 -1.334 1.78 1
7.8959999 -1.3559999 1.7640001 1
7.8969998 -1.3329999 1.778 1
7.901 -1.278 1.893 1
7.8990002 -1.339 1.883 1
7.8959999 -1.419 1.893 1
7.8969998 -1.411 1.962 1
7.9000001 -1.24 1.766 1
7.8959999 -1.291 1.589 1
7.901 -1.242 1.79 1
7.8969998 -1.3380001 1.771 1
7.8979998 -1.242 1.598 1
7.895 -1.237 1.45 1
7.895 -1.4170001 1.8660001 1
7.8959999 -1.395 1.878 1
7.8969998 -1.413 1.946 1
7.9000001 -1.2359999 1.733 1
7.8969998 -1.411 1.9579999 1
7.8979998 -1.395 1.978 1
7.8979998 -1.362 1.925 1
7.895 -1.456 1.959 1
7.9000001 -1.29 1.837 1
7.9029999 -1.237 1.899 1
7.8969998 -1.258 1.618 1
7.8969998 -1.316 1.7410001 1
7.8959999 -1.295 1.641 1
7.9000001 -1.2410001 1.727 1
7.8990002 -1.374 1.9910001 1
7.895 -1.4220001 1.873 1
7.8969998 -1.252 1.575 1
7.9000001 -1.2359999 1.747 1
7.8990002 -1.363 1.9450001 1
7.9000001 -1.2309999 1.739 1
7.8959999 -1.374 1.8380001 1
7.9029999 -1.265 1.959 1
7.895 -1.288 1.573 1
7.901 -1.296 1.923 1
7.895 -1.326 1.659 1
7.8979998 -1.3789999 1.921 1
7.8959999 -1.419 1.9119999 1
7.8969998 -1.349 1.791 1
7.901 -1.3 1.946 1
7.8990002 -1.353 1.926 1
7.8969998 -1.284 1.67 1
7.9000001 -1.288 1.876 1
7.8990002 -1.306 1.822 1
7.901 -1.251 1.818 1
7.9000001 -1.2410001 1.742 1
7.8990002 -1.242 1.702 1
7.8959999 -1.298 1.6059999 1
7.8979998 -1.275 1.7309999 1
7.901 -1.232 1.79 1
7.8959999 -1.2819999 1.625 1
7.895 -1.3329999 1.664 1
7.8969998 -1.3559999 1.846 1
7.8990002 -1.345 1.914 1
7.8990002 -1.286 1.774 1
7.8990002 -1.247 1.709 1
7.9000001 -1.232 1.751 1
7.9000001 -1.318 1.9349999 1
7.8990002 -1.277 1.785 1
7.8959999 -1.432 1.943 1
7.8990002 -1.273 1.734 1
7.8959999 -1.232 1.483 1
7.8990002 -1.2819999 1.803 1
7.8969998 -1.322 1.751 1
7.9000001 -1.2819999 1.854 1
7.901 -1.2920001 1.929 1
7.8969998 -1.242 1.582 1
7.9000001 -1.326 1.949 1
7.902 -1.233 1.8660001 1
7.8969998 -1.318 1.7690001 1
7.8979998 -1.2539999 1.648 1
7.8959999 -1.397 1.846 1
7.895 -1.271 1.512 1
7.8979998 -1.273 1.6950001 1
7.8959999 -1.355 1.747 1
7.8990002 -1.324 1.8710001 1
7.9029999 -1.24 1.9170001 1
7.8959999 -1.2309999 1.505 1
7.8969998 -1.335 1.775 1
7.8979998 -1.339 1.831 1
7.8969998 -1.317 1.717 1
7.8959999 -1.3329999 1.714 1
7.8959999 -1.4349999 1.937 1
7.901 -1.286 1.911 1
7.895 -1.289 1.579 1
7.901 -1.293 1.929 1
7.901 -1.256 1.872 1
7.901 -1.325 1.987 1
7.8969998 -1.243 1.566 1
7.8990002 -1.25 1.707 1
7.8990002 -1.38 1.99 1
7.8969998 -1.233 1.541 1
7.8990002 -1.341 1.9299999 1
7.8959999 -1.3380001 1.694 1
7.895 -1.298 1.582 1
7.8959999 -1.395 1.882 1
7.8969998 -1.386 1.9220001 1
7.8979998 -1.395 1.98 1
7.8959999 -1.294 1.6390001 1
7.8990002 -1.234 1.675 1
7.8990002 -1.27 1.749 1
7.902 -1.2640001 1.901 1
7.8959999 -1.256 1.5650001 1
7.8959999 -1.357 1.7640001 1
7.9000001 -1.321 1.964 1
7.8969998 -1.291 1.674 1
7.8990002 -1.257 1.7 1
7.9000001 -1.273 1.835 1
7.8979998 -1.266 1.661 1
7.8969998 -1.313 1.74 1
7.895 -1.3 1.59 1
7.8959999 -1.362 1.799 1
7.8969998 -1.378 1.89 1
7.8990002 -1.378 1.9809999 1
7.895 -1.382 1.786 1
7.8979998 -1.399 1.976 1
7.8969998 -1.279 1.632 1
7.8979998 -1.365 1.914 1
7.8959999 -1.303 1.625 1
7.8979998 -1.273 1.716 1
7.8979998 -1.288 1.735 1
7.8959999 -1.301 1.665 1
7.9029999 -1.248 1.961 1
7.8979998 -1.286 1.74 1
7.8990002 -1.353 1.926 1
7.8990002 -1.261 1.758 1
7.8990002 -1.258 1.705 1
7.8979998 -1.275 1.688 1
7.9000001 -1.298 1.869 1
7.8990002 -1.358 1.926 1
7.895 -1.357 1.72 1
7.8959999 -1.375 1.796 1
7.8969998 -1.253 1.584 1
7.8979998 -1.3049999 1.791 1
7.902 -1.291 1.964 1
7.902 -1.272 1.952 1
7.8990002 -1.291 1.78 1
7.901 -1.276 1.868 1
7.8959999 -1.342 1.738 1
7.8979998 -1.303 1.747 1
7.8959999 -1.25 1.5089999 1
7.8959999 -1.4299999 1.938 1
7.8969998 -1.436 1.984 1
7.8979998 -1.337 1.831 1
7.902 -1.238 1.858 1
7.9000001 -1.277 1.8329999 1
7.8969998 -1.3890001 1.89 1
7.9000001 -1.27 1.8380001 1
7.8969998 -1.409 1.98 1
7.8969998 -1.33 1.766 1
7.9000001 -1.258 1.795 1
7.901 -1.261 1.869 1
7.8969998 -1.425 1.9630001 1
7.8969998 -1.387 1.903 1
7.8969998 -1.294 1.67 1
7.8990002 -1.3890001 2.029 1
7.902 -1.303 2.039 1
7.902 -1.316 2.0569999 1
7.9000001 -1.377 2.092 1
7.8979998 -1.4299999 2.0710001 1
7.8979998 -1.4680001 2.1400001 1
7.9000001 -1.377 2.0599999 1
7.902 -1.3789999 2.1619999 1
7.8990002 -1.424 2.096 1
7.901 -1.378 2.115 1
7.8979998 -1.467 2.128 1
7.8979998 -1.441 2.1170001 1
7.9000001 -1.359 2.0050001 1
7.902 -1.349 2.105 1
7.9029999 -1.296 2.086 1
7.9029999 -1.2920001 2.0669999 1
7.901 -1.3890001 2.175 1
7.901 -1.352 2.0680001 1
7.8990002 -1.451 2.1459999 1
7.8959999 -1.457 2.0039999 1
7.8979998 -1.46 2.1570001 1
7.8979998 -1.444 2.1140001 1
7.9029999 -1.27 2.0109999 1
7.902 -1.3660001 2.132 1
7.9000001 -1.3940001 2.0810001 1
7.9000001 -1.444 2.2279999 1
7.8979998 -1.416 2.0120001 1
7.9039998 -1.234 1.9910001 1
7.9039998 -1.267 2.0409999 1
7.901 -1.369 2.105 1
7.8979998 -1.469 2.168 1
7.901 -1.397 2.1589999 1
7.9000001 -1.413 2.1270001 1
7.8969998 -1.4400001 2.007 1
7.8979998 -1.451 2.1210001 1
7.9000001 -1.377 2.086 1
7.9029999 -1.275 2.0139999 1
7.902 -1.33 2.0929999 1
7.902 -1.385 2.178 1
7.8979998 -1.4220001 2.0309999 1
7.901 -1.3609999 2.0769999 1
7.9029999 -1.2869999 2.0480001 1
7.8990002 -1.4299999 2.145 1
7.901 -1.411 2.2 1
7.9000001 -1.364 2.059 1
7.901 -1.345 2.069 1
7.8990002 -1.387 2.027 1
7.8979998 -1.432 2.095 1
7.8990002 -1.473 2.224 1
7.902 -1.34 2.1029999 1
7.8979998 -1.4349999 2.072 1
7.8979998 -1.432 2.0439999 1
7.8979998 -1.416 2.036 1
7.8979998 -1.424 2.0639999 1
7.9029999 -1.311 2.1070001 1
7.8979998 -1.4450001 2.098 1
7.901 -1.411 2.1849999 1
7.8979998 -1.444 2.0780001 1
7.9029999 -1.2869999 2.0539999 1
7.901 -1.402 2.1960001 1
7.8979998 -1.434 2.086 1
7.9000001 -1.348 2.01 1
7.902 -1.342 2.1170001 1
7.8969998 -1.473 2.119 1
7.9000001 -1.426 2.165 1
7.901 -1.41 2.2079999 1
7.9000001 -1.4349999 2.1919999 1
7.8990002 -1.429 2.1429999 1
7.902 -1.332 2.1070001 1
7.901 -1.3789999 2.1140001 1
7.9000001 -1.342 1.998 1
7.901 -1.416 2.211 1
7.9029999 -1.296 2.063 1
7.9000001 -1.397 2.102 1
7.9000001 -1.419 2.154 1
7.901 -1.3329999 2.04 1
7.9029999 -1.2920001 2.0599999 1
7.8969998 -1.441 2.0179999 1
7.9039998 -1.2359999 1.995 1
7.9029999 -1.29 2.0550001 1
7.9000001 -1.427 2.1570001 1
7.8990002 -1.442 2.128 1
7.8979998 -1.408 2.017 1
7.8969998 -1.4630001 2.0880001 1
7.901 -1.431 2.2420001 1
7.901 -1.368 2.079 1
7.9039998 -1.249 2.0150001 1
7.8979998 -1.4579999 2.1289999 1
7.902 -1.3329999 2.095 1
7.901 -1.406 2.191 1
7.901 -1.403 2.2019999 1
7.901 -1.332 2.016 1
7.901 -1.3380001 2.027 1
7.902 -1.339 2.1059999 1
7.902 -1.324 2.0699999 1
7.8979998 -1.4299999 2.053 1
7.8979998 -1.411 2.046 1
7.8959999 -1.46 2.01 1
7.9000001 -1.467 2.286 1
7.8979998 -1.414 2.0120001 1
7.9000001 -1.438 2.227 1
7.8969998 -1.448 2.053 1
7.9029999 -1.3049999 2.079 1
7.9029999 -1.286 2.046 1
7.8990002 -1.397 2.046 1
7.901 -1.346 2.0699999 1
7.8990002 -1.443 2.155 1
7.9000001 -1.4579999 2.27 1
7.9029999 -1.2819999 2.003 1
7.9000001 -1.341 1.9960001 1
7.8990002 -1.4170001 2.1210001 1
7.9000001 -1.476 2.2939999 1
7.902 -1.347 2.1300001 1
7.9000001 -1.357 2.043 1
7.9000001 -1.46 2.2490001 1
7.9000001 -1.446 2.224 1
7.8979998 -1.395 1.993 1
7.901 -1.331 2.016 1
7.8979998 -1.399 2.0190001 1
7.902 -1.3329999 2.075 1
7.902 -1.326 2.089 1
7.902 -1.3279999 2.0829999 1
7.901 -1.382 2.1670001 1
7.8979998 -1.454 2.131 1
7.9029999 -1.308 2.096 1
7.902 -1.368 2.1570001 1
7.8990002 -1.457 2.1960001 1
7.902 -1.321 2.0320001 1
7.902 -1.3559999 2.115 1
7.9000001 -1.386 2.059 1
7.902 -1.35 2.1259999 1
7.902 -1.364 2.141 1
7.9029999 -1.271 2.016 1
7.9039998 -1.2690001 2.0420001 1
7.9000001 -1.397 2.1040001 1
7.8990002 -1.39 2.013 1
7.902 -1.37 2.1470001 1
7.9029999 -1.312 2.096 1
7.9000001 -1.437 2.2030001 1
7.901 -1.42 2.2249999 1
7.9000001 -1.35 2.026 1
7.9029999 -1.316 2.1010001 1
7.9000001 -1.359 2.029 1
7.8959999 -1.4630001 2.04 1
7.902 -1.388 2.1849999 1
7.9000001 -1.437 2.22 1
7.9029999 -1.294 2.0869999 1
7.8990002 -1.372 2.0109999 1
7.8969998 -1.426 1.995 1
7.9000001 -1.447 2.197 1
7.8969998 -1.466 2.092 1
7.902 -1.35 2.1429999 1
7.902 -1.306 2.0020001 1
7.901 -1.423 2.217 1
7.9000001 -1.376 2.0339999 1
7.9000001 -1.462 2.2460001 1
7.8990002 -1.3940001 2.0650001 1
7.9000001 -1.444 2.224 1
7.9029999 -1.326 2.1199999 1
7.9029999 -1.2819999 2.013 1
7.8990002 -1.4220001 2.075 1
7.8979998 -1.425 2.056 1
7.901 -1.324 1.9910001 1
7.902 -1.322 2.0580001 1
7.8969998 -1.471 2.0699999 1
7.9000001 -1.385 2.0710001 1
7.9029999 -1.277 2.0409999 1
7.8959999 -1.47 2.056 1
7.9039998 -1.25 2.03 1
7.9000001 -1.419 2.1600001 1
7.8990002 -1.414 2.0739999 1
7.901 -1.4170001 2.23 1
7.9039998 -1.272 2.059 1
7.901 -1.368 2.105 1
7.8969998 -1.461 2.0829999 1
7.9000001 -1.448 2.2060001 1
7.9029999 -1.266 2.0150001 1
7.8959999 -1.455 1.9960001 1
7.9029999 -1.2920001 2.072 1
7.9000001 -1.454 2.266 1
7.8990002 -1.438 2.1719999 1
7.9000001 -1.444 2.197 1
7.8959999 -1.4680001 1.995 1
7.9000001 -1.443 2.191 1
7.8969998 -1.4450001 2.0580001 1
7.9000001 -1.4400001 2.221 1
7.9000001 -1.467 2.2509999 1
7.9000001 -1.419 2.1429999 1
7.902 -1.352 2.1240001 1
7.9000001 -1.454 2.253 1
7.8979998 -1.469 2.1589999 1
7.9000001 -1.363 2.0439999 1
7.901 -1.408 2.211 1
7.8979998 -1.439 2.086 1
7.901 -1.413 2.2030001 1
7.9000001 -1.429 2.1789999 1
7.8979998 -1.403 2.0039999 1
7.8959999 -1.455 2 1
7.9000001 -1.439 2.1989999 1
7.9029999 -1.33 2.1229999 1
7.8969998 -1.474 2.1259999 1
7.8990002 -1.448 2.1400001 1
7.8979998 -1.461 2.1059999 1
7.902 -1.295 2.0139999 1
7.9000001 -1.465 2.244 1
7.902 -1.302 2.0090001 1
7.901 -1.37 2.135 1
7.8969998 -1.441 2.0280001 1
7.901 -1.3660001 2.095 1
7.902 -1.348 2.1110001 1
7.8959999 -1.472 2.0250001 1
7.9000001 -1.381 2.049 1
7.8990002 -1.392 2.0610001 1
7.901 -1.332 1.998 1
7.9000001 -1.3789999 2.0450001 1
7.8990002 -1.446 2.1400001 1
7.9029999 -1.301 2.052 1
7.901 -1.344 2.0580001 1
7.9000001 -1.4529999 2.234 1
7.9039998 -1.283 2.0669999 1
7.8990002 -1.464 2.1949999 1
7.8990002 -1.474 2.217 1
7.8959999 -1.46 2.0079999 1
7.9029999 -1.314 2.0880001 1
7.9000001 -1.45 2.2420001 1
7.8979998 -1.428 2.0810001 1
7.8959999 -1.459 2.017 1
7.901 -1.369 2.108 1
7.9029999 -1.294 2.0480001 1
7.8979998 -1.424 2.0309999 1
7.8979998 -1.419 2.0250001 1
7.9000001 -1.355 2.027 1
7.901 -1.406 2.1819999 1
7.8990002 -1.415 2.1040001 1
7.8979998 -1.448 2.092 1
7.901 -1.3890001 2.174 1
7.8969998 -1.449 2.066 1
7.902 -1.319 2.0350001 1
7.902 -1.321 2.036 1
7.902 -1.324 2.0940001 1
7.9000001 -1.35 2.0220001 1
7.8959999 -1.473 2.046 1
7.9000001 -1.354 2.0109999 1
7.8990002 -1.4170001 2.099 1
7.8979998 -1.448 2.1329999 1
7.9000001 -1.4349999 2.1860001 1
7.9000001 -1.41 2.1530001 1
7.902 -1.396 2.204 1
7.901 -1.3559999 2.1040001 1
7.8979998 -1.447 2.0699999 1
7.9000001 -1.363 2.016 1
7.902 -1.349 2.1059999 1
7.9000001 -1.455 2.2539999 1
7.901 -1.434 2.2379999 1
7.8990002 -1.3839999 2.046 1
7.902 -1.325 2.046 1
7.8979998 -1.4069999 1.997 1
7.902 -1.307 2.0409999 1
7.901 -1.3329999 2.0050001 1
7.901 -1.381 2.1140001 1
7.9000001 -1.4170001 2.1659999 1
7.9029999 -1.294 2.0320001 1
7.901 -1.331 2.039 1
7.9000001 -1.4450001 2.237 1
7.8990002 -1.45 2.168 1
7.901 -1.404 2.1830001 1
7.9000001 -1.37 2.0220001 1
7.8969998 -1.459 2.0480001 1
7.902 -1.346 2.099 1
7.9000001 -1.4630001 2.234 1
7.8979998 -1.466 2.1400001 1
7.8990002 -1.4450001 2.1289999 1
7.8969998 -1.431 2.0250001 1
7.902 -1.3660001 2.1689999 1
7.8959999 -1.451 2.0120001 1
7.902 -1.342 2.099 1
7.902 -1.369 2.1730001 1
7.9029999 -1.295 2.0829999 1
7.9000001 -1.387 2.0969999 1
7.901 -1.374 2.125 1
7.8959999 -1.471 2.0469999 1
7.8969998 -1.471 2.099 1
7.9029999 -1.274 2.017 1
7.8979998 -1.466 2.135 1
7.901 -1.322 2.027 1
7.8969998 -1.444 2.0109999 1
7.9039998 -1.251 2.02 1
7.9000001 -1.348 2.0220001 1
7.901 -1.429 2.2420001 1
7.8979998 -1.438 2.059 1
7.895 -1.473 2.003 1
7.9029999 -1.288 2.0369999 1
7.9000001 -1.358 2.043 1
7.9029999 -1.327 2.1140001 1
7.9000001 -1.449 2.2090001 1
7.901 -1.388 2.177 1
7.8990002 -1.451 2.198 1
7.9000001 -1.411 2.1689999 1
7.9000001 -1.36 2.0179999 1
7.9029999 -1.308 2.0869999 1
7.902 -1.304 2 1
7.8959999 -1.469 2.0569999 1
7.9029999 -1.273 1.999 1
7.8990002 -1.434 2.122 1
7.902 -1.337 2.108 1
7.8990002 -1.462 2.168 1
7.9039998 -1.251 1.9910001 1
7.8990002 -1.4630001 2.197 1
7.901 -1.336 2.0439999 1
7.8979998 -1.4529999 2.105 1
7.901 -1.421 2.201 1
7.902 -1.398 2.2060001 1
7.901 -1.346 2.0610001 1
7.9000001 -1.403 2.1470001 1
7.8969998 -1.466 2.079 1
7.9029999 -1.296 2.0799999 1
7.8990002 -1.46 2.1900001 1
7.8979998 -1.438 2.0669999 1
7.9000001 -1.36 2.0480001 1
7.8969998 -1.451 2.076 1
7.9000001 -1.4349999 2.2130001 1
7.8990002 -1.374 2.0020001 1
7.8990002 -1.451 2.1989999 1
7.901 -1.383 2.1589999 1
7.9000001 -1.446 2.204 1
7.9000001 -1.474 2.26 1
7.9029999 -1.275 2.036 1
7.9000001 -1.416 2.174 1
7.8990002 -1.3890001 2.0369999 1
7.8990002 -1.3839999 2.0050001 1
7.9000001 -1.398 2.1199999 1
7.901 -1.3660001 2.095 1
7.902 -1.3200001 2.063 1
7.8959999 -1.442 1.9960001 1
7.8990002 -1.392 2.0650001 1
7.8990002 -1.4 2.05 1
7.901 -1.334 2.0320001 1
7.901 -1.381 2.142 1
7.8990002 -1.4069999 2.0769999 1
7.8990002 -1.377 2.023 1
7.9000001 -1.373 2.039 1
7.902 -1.3329999 2.1170001 1
7.8990002 -1.426 2.122 1
7.9000001 -1.457 2.2539999 1
7.9029999 -1.318 2.112 1
7.901 -1.317 2.0039999 1
7.9000001 -1.438 2.1949999 1
7.9000001 -1.457 2.23 1
7.8979998 -1.4069999 2.0179999 1
7.8990002 -1.474 2.256 1
7.9000001 -1.436 2.2290001 1
7.9000001 -1.397 2.118 1
7.9029999 -1.291 2.0480001 1
7.8990002 -1.471 2.204 1
7.8990002 -1.419 2.1129999 1
7.9000001 -1.446 2.1960001 1
7.901 -1.331 2.0280001 1
7.9000001 -1.423 2.151 1
7.902 -1.364 2.1559999 1
7.9000001 -1.378 2.079 1
7.8959999 -1.4579999 2.0250001 1
7.9000001 -1.451 2.2639999 1
7.8990002 -1.414 2.069 1
7.901 -1.421 2.2309999 1
7.8959999 -1.472 2.0039999 1
7.895 -1.472 1.994 1
7.902 -1.367 2.141 1
7.9000001 -1.431 2.2119999 1
7.9000001 -1.471 2.2909999 1
7.9029999 -1.3 2.052 1
7.8979998 -1.444 2.0710001 1
7.9000001 -1.424 2.164 1
7.8959999 -1.473 2.0550001 1
7.9029999 -1.283 2.0339999 1
7.9029999 -1.2819999 2.039 1
7.8990002 -1.418 2.098 1
7.9000001 -1.365 2.043 1
7.8990002 -1.39 2.0039999 1
7.9000001 -1.4349999 2.2219999 1
7.8990002 -1.461 2.207 1
7.8969998 -1.4349999 1.995 1
7.902 -1.341 2.0810001 1
7.901 -1.317 1.992 1
7.9000001 -1.383 2.056 1
7.902 -1.378 2.184 1
7.8990002 -1.398 2.0250001 1
7.902 -1.306 2.006 1
7.8990002 -1.3890001 2.039 1
7.8979998 -1.416 2.0220001 1
7.8979998 -1.4400001 2.0999999 1
7.8990002 -1.444 2.164 1
7.8990002 -1.381 2.016 1
7.901 -1.325 1.992 1
7.9029999 -1.262 2.0020001 1
7.902 -1.3380001 2.0899999 1
7.8969998 -1.423 2.013 1
7.9000001 -1.413 2.1700001 1
7.8969998 -1.471 2.0829999 1
7.9000001 -1.47 2.2820001 1
7.9000001 -1.395 2.089 1
7.8990002 -1.382 2.0179999 1
7.902 -1.335 2.0680001 1
7.9000001 -1.444 2.2420001 1
7.9000001 -1.438 2.198 1
7.902 -1.3609999 2.161 1
7.8959999 -1.47 0.23899999 1
7.8969998 -1.349 0.484 1
7.8969998 -1.427 0.47299999 1
7.8959999 -1.391 0.30399999 1
7.8969998 -1.335 0.47 1
7.8969998 -1.45 0.43000001 1
7.8969998 -1.35 0.30199999 1
7.8959999 -1.459 0.278 1
7.8979998 -1.368 0.57200003 1
7.8969998 -1.427 0.52999997 1
7.8969998 -1.318 0.44100001 1
7.8959999 -1.398 0.294 1
7.8969998 -1.448 0.42699999 1
7.8969998 -1.276 0.30399999 1
7.8979998 -1.382 0.59299999 1
7.8969998 -1.406 0.43099999 1
7.8969998 -1.3609999 0.43599999 1
7.8969998 -1.4220001 0.509 1
7.8959999 -1.444 0.21799999 1
7.8969998 -1.341 0.48800001 1
7.8959999 -1.424 0.26199999 1
7.8969998 -1.439 0.38800001 1
7.8969998 -1.376 0.52200001 1
7.8969998 -1.344 0.403 1
7.8969998 -1.42 0.51099998 1
7.8969998 -1.349 0.45199999 1
7.8969998 -1.237 0.25799999 1
7.8959999 -1.444 0.31400001 1
7.8969998 -1.364 0.34999999 1
7.8969998 -1.283 0.24699999 1
7.8959999 -1.4170001 0.35100001 1
7.8969998 -1.2819999 0.29800001 1
7.8959999 -1.46 0.25799999 1
7.8979998 -1.3660001 0.574 1
7.8969998 -1.396 0.44499999 1
7.8959999 -1.354 0.28099999 1
7.8969998 -1.345 0.48300001 1
7.8959999 -1.425 0.223 1
7.8969998 -1.321 0.42199999 1
7.8979998 -1.398 0.61000001 1
7.8959999 -1.414 0.33500001 1
7.8969998 -1.325 0.27500001 1
7.8959999 -1.447 0.294 1
7.8969998 -1.286 0.32800001 1
7.8969998 -1.387 0.44400001 1
7.8969998 -1.375 0.523 1
7.8969998 -1.383 0.47799999 1
7.8969998 -1.281 0.249 1
7.8969998 -1.35 0.43099999 1
7.8969998 -1.321 0.43000001 1
7.8969998 -1.36 0.43200001 1
7.8959999 -1.423 0.322 1
7.8969998 -1.331 0.42399999 1
7.8969998 -1.376 0.32499999 1
7.8959999 -1.415 0.31299999 1
7.8959999 -1.471 0.28099999 1
7.8969998 -1.391 0.435 1
7.8969998 -1.381 0.40099999 1
7.8969998 -1.413 0.52200001 1
7.8969998 -1.401 0.37099999 1
7.8959999 -1.433 0.36399999 1
7.8959999 -1.4 0.31900001 1
7.8959999 -1.4349999 0.278 1
7.8969998 -1.326 0.447 1
7.8969998 -1.34 0.37400001 1
7.8969998 -1.294 0.36500001 1
7.8969998 -1.325 0.412 1
7.8979998 -1.3710001 0.59399998 1
7.8969998 -1.342 0.479 1
7.8959999 -1.3329999 0.255 1
7.8969998 -1.26 0.303 1
7.8959999 -1.395 0.27000001 1
7.8969998 -1.3 0.39899999 1
7.8959999 -1.441 0.26100001 1
7.8969998 -1.284 0.32499999 1
7.8969998 -1.393 0.34599999 1
7.8969998 -1.431 0.579 1
7.8969998 -1.286 0.25 1
7.8969998 -1.255 0.28400001 1
7.8969998 -1.369 0.42300001 1
7.8959999 -1.374 0.235 1
7.8969998 -1.322 0.29499999 1
7.8959999 -1.375 0.278 1
7.8969998 -1.421 0.59399998 1
7.8969998 -1.3839999 0.50800002 1
7.8959999 -1.419 0.33399999 1
7.8959999 -1.406 0.25799999 1
7.8969998 -1.396 0.40599999 1
7.8969998 -1.277 0.27599999 1
7.8969998 -1.436 0.49200001 1
7.8959999 -1.39 0.248 1
7.8969998 -1.33 0.477 1
7.8959999 -1.329 0.257 1
7.8969998 -1.437 0.51300001 1
7.8969998 -1.437 0.48899999 1
7.8969998 -1.334 0.31 1
7.8969998 -1.342 0.43200001 1
7.8969998 -1.266 0.30399999 1
7.8969998 -1.362 0.39500001 1
7.8969998 -1.2359999 0.26699999 1
7.8959999 -1.409 0.22 1
7.8969998 -1.275 0.301 1
7.8959999 -1.413 0.27599999 1
7.8969998 -1.327 0.28600001 1
7.8969998 -1.372 0.40900001 1
7.8969998 -1.405 0.43900001 1
7.8969998 -1.327 0.34299999 1
7.8969998 -1.424 0.57999998 1
7.8969998 -1.268 0.303 1
7.8969998 -1.283 0.294 1
7.8969998 -1.299 0.396 1
7.8979998 -1.3890001 0.61500001 1
7.8969998 -1.3380001 0.34099999 1
7.8969998 -1.396 0.542 1
7.8969998 -1.29 0.384 1
7.8969998 -1.3609999 0.32100001 1
7.8969998 -1.267 0.23899999 1
7.8959999 -1.425 0.289 1
7.8969998 -1.355 0.368 1
7.8969998 -1.376 0.47999999 1
7.8959999 -1.442 0.366 1
7.8969998 -1.3430001 0.324 1
7.8969998 -1.4170001 0.45899999 1
7.8969998 -1.433 0.509 1
7.8969998 -1.424 0.57200003 1
7.8959999 -1.4119999 0.34099999 1
7.8969998 -1.344 0.41499999 1
7.8969998 -1.296 0.31099999 1
7.8969998 -1.33 0.44400001 1
7.8959999 -1.477 0.21799999 1
7.8959999 -1.388 0.285 1
7.8969998 -1.34 0.322 1
7.8969998 -1.447 0.40599999 1
7.8979998 -1.3839999 0.611 1
7.8969998 -1.336 0.493 1
7.8979998 -1.396 0.60699999 1
7.8969998 -1.4349999 0.48899999 1
7.8959999 -1.441 0.285 1
7.8979998 -1.3789999 0.57999998 1
7.8969998 -1.427 0.44499999 1
7.8969998 -1.283 0.29899999 1
7.8969998 -1.265 0.301 1
7.8969998 -1.318 0.39300001 1
7.8969998 -1.397 0.398 1
7.8969998 -1.344 0.32100001 1
7.8969998 -1.322 0.38600001 1
7.8969998 -1.308 0.36500001 1
7.8969998 -1.416 0.53299999 1
7.8969998 -1.274 0.26699999 1
7.8959999 -1.367 0.292 1
7.8969998 -1.33 0.472 1
7.8969998 -1.309 0.278 1
7.8959999 -1.419 0.24600001 1
7.8959999 -1.433 0.255 1
7.8979998 -1.385 0.57300001 1
7.8959999 -1.4170001 0.347 1
7.8969998 -1.286 0.389 1
7.8969998 -1.382 0.47099999 1
7.8969998 -1.421 0.495 1
7.8969998 -1.433 0.51599997 1
7.8969998 -1.365 0.382 1
7.8969998 -1.404 0.505 1
7.8979998 -1.388 0.63099998 1
7.8969998 -1.284 0.36000001 1
7.8959999 -1.464 0.227 1
7.8969998 -1.433 0.52399999 1
7.8959999 -1.401 0.27200001 1
7.8969998 -1.355 0.31799999 1
7.8959999 -1.378 0.28 1
7.8969998 -1.347 0.419 1
7.8969998 -1.439 0.40000001 1
7.8979998 -1.3940001 0.64399999 1
7.8959999 -1.418 0.347 1
7.8959999 -1.344 0.228 1
7.8969998 -1.3200001 0.47 1
7.8959999 -1.454 0.324 1
7.8959999 -1.46 0.21600001 1
7.8969998 -1.322 0.38299999 1
7.8979998 -1.4170001 0.65100002 1
7.8969998 -1.4170001 0.36700001 1
7.8969998 -1.393 0.52899998 1
7.8979998 -1.339 0.51099998 1
7.8979998 -1.382 0.57700002 1
7.8959999 -1.462 0.22400001 1
7.8969998 -1.392 0.33199999 1
7.8969998 -1.3789999 0.42699999 1
7.8969998 -1.378 0.39199999 1
7.8969998 -1.2819999 0.29100001 1
7.8959999 -1.432 0.29499999 1
7.8969998 -1.3049999 0.373 1
7.8979998 -1.391 0.60299999 1
7.8969998 -1.41 0.53100002 1
7.8959999 -1.413 0.34400001 1
7.8959999 -1.387 0.32100001 1
7.8959999 -1.431 0.331 1
7.8969998 -1.273 0.35299999 1
7.8959999 -1.316 0.24600001 1
7.8959999 -1.344 0.27399999 1
7.8969998 -1.307 0.38999999 1
7.8969998 -1.386 0.46399999 1
7.8969998 -1.281 0.264 1
7.8969998 -1.388 0.44600001 1
7.8969998 -1.432 0.54299998 1
7.8959999 -1.457 0.21699999 1
7.8969998 -1.293 0.333 1
7.8969998 -1.318 0.463 1
7.8969998 -1.341 0.28600001 1
7.8959999 -1.336 0.25299999 1
7.8969998 -1.369 0.48500001 1
7.8979998 -1.404 0.64999998 1
7.8969998 -1.3 0.36700001 1
7.8969998 -1.436 0.43599999 1
7.8969998 -1.38 0.546 1
7.8969998 -1.41 0.52700001 1
7.8979998 -1.41 0.63200003 1
7.8969998 -1.286 0.26100001 1
7.8969998 -1.311 0.244 1
7.8969998 -1.272 0.236 1
7.8969998 -1.421 0.52700001 1
7.8969998 -1.3789999 0.505 1
7.8969998 -1.304 0.31999999 1
7.8969998 -1.316 0.33899999 1
7.8969998 -1.382 0.48100001 1
7.8969998 -1.3710001 0.35699999 1
7.8969998 -1.404 0.491 1
7.8979998 -1.368 0.551 1
7.8969998 -1.4119999 0.45899999 1
7.8979998 -1.415 0.60600001 1
7.8969998 -1.4170001 0.47499999 1
7.8969998 -1.424 0.59299999 1
7.8969998 -1.415 0.53200001 1
7.8969998 -1.442 0.45899999 1
7.8969998 -1.4 0.51200002 1
7.8969998 -1.378 0.37599999 1
7.8969998 -1.279 0.359 1
7.8979998 -1.416 0.62400001 1
7.8969998 -1.4220001 0.41800001 1
7.8969998 -1.438 0.43399999 1
7.8959999 -1.471 0.26499999 1
7.8969998 -1.2640001 0.28299999 1
7.8959999 -1.414 0.264 1
7.8979998 -1.38 0.56400001 1
7.8959999 -1.444 0.21699999 1
7.8979998 -1.376 0.60299999 1
7.8959999 -1.3200001 0.24600001 1
7.8969998 -1.2460001 0.243 1
7.8969998 -1.34 0.36399999 1
7.8959999 -1.322 0.229 1
7.8979998 -1.392 0.602 1
7.8959999 -1.401 0.28600001 1
7.8969998 -1.306 0.38499999 1
7.8979998 -1.4069999 0.65899998 1
7.8969998 -1.296 0.35699999 1
7.8979998 -1.419 0.62699997 1
7.8959999 -1.344 0.26199999 1
7.8969998 -1.376 0.49900001 1
7.8969998 -1.286 0.35600001 1
7.8969998 -1.267 0.31900001 1
7.8969998 -1.436 0.52399999 1
7.8969998 -1.293 0.28099999 1
7.8959999 -1.349 0.235 1
7.8959999 -1.45 0.34599999 1
7.8969998 -1.2640001 0.28999999 1
7.8969998 -1.402 0.48899999 1
7.8969998 -1.4 0.42699999 1
7.8969998 -1.416 0.458 1
7.8969998 -1.411 0.484 1
7.8969998 -1.324 0.37400001 1
7.8959999 -1.3839999 0.28600001 1
7.8969998 -1.322 0.405 1
7.8969998 -1.323 0.42699999 1
7.8969998 -1.376 0.31600001 1
7.8959999 -1.434 0.32600001 1
7.8969998 -1.258 0.25600001 1
7.8959999 -1.469 0.30000001 1
7.8969998 -1.306 0.27700001 1
7.8969998 -1.395 0.41299999 1
7.8959999 -1.471 0.21799999 1
7.8969998 -1.381 0.384 1
7.8959999 -1.393 0.32699999 1
7.8969998 -1.378 0.495 1
7.8969998 -1.313 0.41600001 1
7.8969998 -1.272 0.34400001 1
7.8969998 -1.347 0.428 1
7.8979998 -1.345 0.51999998 1
7.8969998 -1.326 0.33000001 1
7.8969998 -1.2970001 0.375 1
7.8959999 -1.377 0.233 1
7.8969998 -1.3 0.266 1
7.8959999 -1.359 0.229 1
7.8979998 -1.358 0.53799999 1
7.8969998 -1.381 0.33700001 1
7.8969998 -1.331 0.43599999 1
7.8979998 -1.3940001 0.64700001 1
7.8959999 -1.3430001 0.241 1
7.8979998 -1.393 0.61299998 1
7.8969998 -1.353 0.39500001 1
7.8969998 -1.39 0.34900001 1
7.8959999 -1.446 0.359 1
7.8969998 -1.411 0.354 1
7.8969998 -1.327 0.426 1
7.8959999 -1.443 0.229 1
7.8969998 -1.258 0.25600001 1
7.8969998 -1.378 0.419 1
7.8969998 -1.271 0.25299999 1
7.8969998 -1.401 0.36500001 1
7.8969998 -1.312 0.37 1
7.8969998 -1.396 0.53200001 1
7.8959999 -1.409 0.24600001 1
7.8969998 -1.433 0.55900002 1
7.8969998 -1.307 0.36700001 1
7.8969998 -1.383 0.461 1
7.8969998 -1.386 0.33199999 1
7.8969998 -1.414 0.528 1
7.8979998 -1.4220001 0.63499999 1
7.8969998 -1.404 0.35299999 1
7.8959999 -1.451 0.32499999 1
7.8969998 -1.37 0.38100001 1
7.8959999 -1.431 0.233 1
7.8969998 -1.332 0.27500001 1
7.8969998 -1.426 0.58600003 1
7.8969998 -1.428 0.48300001 1
7.8969998 -1.2869999 0.32100001 1
7.8969998 -1.3329999 0.322 1
7.8979998 -1.397 0.61799997 1
7.8959999 -1.4119999 0.296 1
7.8969998 -1.452 0.426 1
7.8959999 -1.459 0.36500001 1
7.8959999 -1.4529999 0.23899999 1
7.8969998 -1.346 0.39199999 1
7.8969998 -1.352 0.31400001 1
7.8969998 -1.396 0.52899998 1
7.8969998 -1.38 0.34099999 1
7.8969998 -1.409 0.456 1
7.8969998 -1.427 0.55500001 1
7.8969998 -1.316 0.377 1
7.8959999 -1.426 0.31200001 1
7.8969998 -1.387 0.403 1
7.8969998 -1.358 0.47600001 1
7.8979998 -1.421 0.62 1
7.8969998 -1.309 0.34299999 1
7.8969998 -1.385 0.52700001 1
7.8959999 -1.403 0.264 1
7.8969998 -1.347 0.5 1
7.8969998 -1.293 0.25 1
7.8969998 -1.393 0.44100001 1
7.8959999 -1.376 0.30700001 1
7.8969998 -1.36 0.51599997 1
7.8969998 -1.3839999 0.45199999 1
7.8969998 -1.2869999 0.359 1
7.8969998 -1.304 0.259 1
7.8969998 -1.374 0.35499999 1
7.8979998 -1.415 0.67199999 1
7.8969998 -1.443 0.40000001 1
7.8959999 -1.405 0.33000001 1
7.8969998 -1.34 0.315 1
7.8979998 -1.408 0.58999997 1
7.8969998 -1.316 0.28400001 1
7.8969998 -1.442 0.42300001 1
7.8959999 -1.3890001 0.322 1
7.8959999 -1.372 0.26899999 1
7.8969998 -1.325 0.36199999 1
7.8959999 -1.476 0.23999999 1
7.8959999 -1.393 0.243 1
7.8969998 -1.35 0.37 1
7.8969998 -1.374 0.44 1
7.8969998 -1.255 0.30599999 1
7.8969998 -1.242 0.271 1
7.8969998 -1.277 0.287 1
7.8959999 -1.446 0.257 1
7.8979998 -1.409 0.67299998 1
7.8959999 -1.4349999 0.26899999 1
7.8969998 -1.393 0.35699999 1
7.8969998 -1.311 0.31799999 1
7.8969998 -1.311 0.27200001 1
7.8979998 -1.419 0.60399997 1
7.8969998 -1.382 0.331 1
7.8959999 -1.363 0.22400001 1
7.8959999 -1.452 0.289 1
7.8959999 -1.442 0.30500001 1
7.8969998 -1.326 0.359 1
7.8969998 -1.393 0.48300001 1
7.8969998 -1.234 0.264 1
7.8959999 -1.314 0.23999999 1
7.8979998 -1.408 0.61199999 1
7.8959999 -1.368 0.28400001 1
7.8959999 -1.405 0.273 1
7.8979998 -1.365 0.55500001 1
