# .PCD v0.7 - Point Cloud Data file format
VERSION 0.7
FIELDS x y z label
SIZE 4 4 4 4
TYPE F F F U
COUNT 1 1 1 1
WIDTH 1772
HEIGHT 1
VIEWPOINT 0 0 0 1 0 0 0
POINTS 1772
DATA ascii
3.51 -2.3889999 2.9349999 1
3.5090001 -2.539 2.8299999 1
3.5079999 -2.549 2.9519999 1
3.5090001 -2.51 2.842 1
3.51 -2.5309999 2.779 1
3.51 -2.4619999 2.8710001 1
3.5079999 -2.5480001 2.9300001 1
3.5090001 -2.487 2.938 1
3.51 -2.5339999 2.7869999 1
3.5090001 -2.5209999 2.8150001 1
3.5079999 -2.5480001 2.957 1
3.5090001 -2.55 2.7980001 1
3.51 -2.4790001 2.8499999 1
3.5090001 -2.461 2.934 1
3.5090001 -2.5420001 2.8610001 1
3.51 -2.4430001 2.8800001 1
3.5090001 -2.556 2.8299999 1
3.51 -2.4419999 2.9219999 1
3.5090001 -2.5109999 2.914 1
3.5090001 -2.4949999 2.8729999 1
3.5090001 -2.5420001 2.8010001 1
3.51 -2.425 2.8800001 1
3.5079999 -2.5480001 2.8940001 1
3.51 -2.45 2.8940001 1
3.51 -2.392 2.9089999 1
3.51 -2.437 2.8699999 1
3.51 -2.484 2.823 1
3.5090001 -2.5009999 2.8729999 1
3.5079999 -2.563 2.8900001 1
3.51 -2.4300001 2.9119999 1
3.5090001 -2.4679999 2.9230001 1
3.5090001 -2.4389999 2.947 1
3.5090001 -2.5309999 2.859 1
3.5079999 -2.5539999 2.931 1
3.5079999 -2.5339999 2.9549999 1
3.51 -2.402 2.905 1
3.5090001 -2.4960001 2.9360001 1
3.51 -2.49 2.832 1
3.5079999 -2.543 2.9059999 1
3.51 -2.5009999 2.819 1
3.5079999 -2.549 2.9430001 1
3.5090001 -2.471 2.8840001 1
3.5090001 -2.497 2.8640001 1
3.5079999 -2.4920001 2.9590001 1
3.51 -2.4679999 2.872 1
3.5079999 -2.543 2.927 1
3.51 -2.405 2.924 1
3.51 -2.5190001 2.7650001 1
3.51 -2.5039999 2.78 1
3.5079999 -2.563 2.9059999 1
3.5090001 -2.5139999 2.8640001 1
3.5090001 -2.441 2.9530001 1
3.51 -2.4260001 2.8959999 1
3.5079999 -2.5539999 2.8729999 1
3.5079999 -2.556 2.872 1
3.5090001 -2.4649999 2.8989999 1
3.51 -2.5039999 2.829 1
3.5079999 -2.553 2.891 1
3.5090001 -2.473 2.9449999 1
3.51 -2.497 2.7980001 1
3.5079999 -2.4960001 2.954 1
3.51 -2.526 2.7539999 1
3.5090001 -2.54 2.842 1
3.51 -2.402 2.948 1
3.51 -2.4200001 2.9070001 1
3.51 -2.5039999 2.7850001 1
3.51 -2.438 2.882 1
3.5090001 -2.5209999 2.819 1
3.5109999 -2.3610001 2.938 1
3.5079999 -2.5239999 2.914 1
3.5090001 -2.4590001 2.924 1
3.51 -2.391 2.925 1
3.5090001 -2.5510001 2.835 1
3.5090001 -2.4519999 2.915 1
3.5090001 -2.52 2.8499999 1
3.5090001 -2.5209999 2.9100001 1
3.51 -2.4549999 2.8640001 1
3.51 -2.411 2.905 1
3.5090001 -2.507 2.9260001 1
3.51 -2.4579999 2.852 1
3.51 -2.4260001 2.944 1
3.5090001 -2.474 2.9419999 1
3.51 -2.4119999 2.9260001 1
3.51 -2.4059999 2.938 1
3.51 -2.444 2.8640001 1
3.5079999 -2.549 2.9330001 1
3.5090001 -2.4879999 2.9449999 1
3.51 -2.5380001 2.743 1
3.51 -2.4289999 2.937 1
3.5090001 -2.543 2.869 1
3.5090001 -2.507 2.925 1
3.5090001 -2.5469999 2.825 1
3.51 -2.4460001 2.9119999 1
3.51 -2.4200001 2.8740001 1
3.5090001 -2.46 2.927 1
3.5079999 -2.5280001 2.9260001 1
3.51 -2.4189999 2.872 1
3.51 -2.5250001 2.8010001 1
3.5090001 -2.5469999 2.777 1
3.5090001 -2.5339999 2.8199999 1
3.51 -2.4990001 2.803 1
3.5090001 -2.5469999 2.809 1
3.51 -2.3889999 2.9159999 1
3.51 -2.4100001 2.9200001 1
3.51 -2.47 2.8310001 1
3.5109999 -2.355 2.944 1
3.5090001 -2.493 2.9419999 1
3.5079999 -2.523 2.9400001 1
3.5079999 -2.5639999 2.9530001 1
3.51 -2.5090001 2.8 1
3.51 -2.4400001 2.901 1
3.5079999 -2.5610001 2.9449999 1
3.5090001 -2.5580001 2.846 1
3.51 -2.5020001 2.802 1
3.5090001 -2.553 2.8180001 1
3.5079999 -2.5569999 2.9549999 1
3.5079999 -2.526 2.921 1
3.51 -2.53 2.7709999 1
3.51 -2.4649999 2.869 1
3.5079999 -2.5580001 2.914 1
3.5090001 -2.5280001 2.842 1
3.51 -2.404 2.9400001 1
3.5109999 -2.3440001 2.954 1
3.5079999 -2.5 2.95 1
3.51 -2.424 2.9219999 1
3.51 -2.461 2.848 1
3.5090001 -2.5079999 2.9230001 1
3.51 -2.5339999 2.7839999 1
3.51 -2.473 2.8280001 1
3.5090001 -2.4920001 2.8540001 1
3.5079999 -2.5220001 2.918 1
3.5090001 -2.517 2.855 1
3.5090001 -2.4909999 2.9030001 1
3.51 -2.4909999 2.8310001 1
3.51 -2.4809999 2.8199999 1
3.51 -2.3940001 2.9219999 1
3.5090001 -2.4449999 2.951 1
3.5090001 -2.539 2.7950001 1
3.516 -2.471 2.977 1
3.513 -2.4619999 2.97 1
3.5120001 -2.4260001 2.964 1
3.5220001 -2.3729999 2.987 1
3.513 -2.346 2.9630001 1
3.517 -2.4260001 2.9779999 1
3.5120001 -2.3889999 2.961 1
3.5109999 -2.3870001 2.9590001 1
3.5209999 -2.3629999 2.984 1
3.5190001 -2.4549999 2.9849999 1
3.5239999 -2.3759999 2.993 1
3.5109999 -2.5220001 2.9679999 1
3.52 -2.3759999 2.9809999 1
3.523 -2.3870001 2.99 1
3.5220001 -2.398 2.9890001 1
3.5109999 -2.415 2.96 1
3.5150001 -2.3870001 2.9690001 1
3.517 -2.3710001 2.973 1
3.5139999 -2.369 2.9649999 1
3.5250001 -2.355 2.993 1
3.5179999 -2.4230001 2.9809999 1
3.5239999 -2.4089999 2.993 1
3.5150001 -2.4319999 2.9719999 1
3.5109999 -2.378 2.9590001 1
3.513 -2.464 2.97 1
3.5109999 -2.536 2.9679999 1
3.5139999 -2.405 2.9690001 1
3.516 -2.401 2.973 1
3.5109999 -2.4000001 2.96 1
3.517 -2.4349999 2.977 1
3.517 -2.4719999 2.98 1
3.516 -2.3970001 2.974 1
3.5120001 -2.362 2.9590001 1
3.5150001 -2.4560001 2.974 1
3.5190001 -2.369 2.9790001 1
3.516 -2.427 2.9749999 1
3.517 -2.411 2.9749999 1
3.5120001 -2.3399999 2.9590001 1
3.5109999 -2.4100001 2.961 1
3.52 -2.368 2.98 1
3.5139999 -2.348 2.9649999 1
3.5150001 -2.4030001 2.97 1
3.5220001 -2.3599999 2.984 1
3.513 -2.473 2.971 1
3.5239999 -2.398 2.994 1
3.5120001 -2.4849999 2.9690001 1
3.5120001 -2.4159999 2.9630001 1
3.52 -2.342 2.98 1
3.5139999 -2.4990001 2.974 1
3.5090001 -2.53 2.964 1
3.5190001 -2.4300001 2.983 1
3.5179999 -2.434 2.9809999 1
3.523 -2.4200001 2.9920001 1
3.517 -2.4519999 2.9779999 1
3.517 -2.3529999 2.971 1
3.517 -2.3829999 2.974 1
3.5120001 -2.418 2.964 1
3.517 -2.47 2.98 1
3.516 -2.437 2.9760001 1
3.5079999 -2.552 2.9619999 1
3.5120001 -2.49 2.9679999 1
3.5090001 -2.529 2.9630001 1
3.51 -2.3989999 2.9579999 1
3.516 -2.4790001 2.3710001 1
3.5150001 -2.5209999 2.4219999 1
3.5150001 -2.4990001 2.444 1
3.5209999 -2.266 1.9960001 1
3.5150001 -2.5 2.4430001 1
3.5190001 -2.26 2.2060001 1
3.5190001 -2.273 2.1719999 1
3.52 -2.342 2.0810001 1
3.517 -2.3829999 2.3529999 1
3.517 -2.2590001 2.441 1
3.5150001 -2.4809999 2.4489999 1
3.5179999 -2.3800001 2.247 1
3.517 -2.227 2.4330001 1
3.5190001 -2.3369999 2.1700001 1
3.5179999 -2.26 2.3080001 1
3.52 -2.3239999 2.0869999 1
3.517 -2.3239999 2.382 1
3.516 -2.3640001 2.451 1
3.5190001 -2.2379999 2.2320001 1
3.5179999 -2.299 2.29 1
3.5190001 -2.2690001 2.2320001 1
3.5190001 -2.3139999 2.188 1
3.517 -2.283 2.3670001 1
3.5150001 -2.4890001 2.3970001 1
3.5179999 -2.348 2.201 1
3.517 -2.3280001 2.402 1
3.5150001 -2.425 2.4460001 1
3.5190001 -2.3429999 2.1689999 1
3.516 -2.4400001 2.3759999 1
3.5190001 -2.3 2.2379999 1
3.5190001 -2.332 2.181 1
3.5190001 -2.2390001 2.2119999 1
3.5150001 -2.454 2.411 1
3.5190001 -2.3399999 2.187 1
3.5150001 -2.4400001 2.4489999 1
3.5150001 -2.5109999 2.4059999 1
3.5150001 -2.441 2.438 1
3.516 -2.4159999 2.339 1
3.517 -2.3629999 2.299 1
3.5209999 -2.28 2 1
3.5179999 -2.2950001 2.296 1
3.5190001 -2.2509999 2.2679999 1
3.5179999 -2.3559999 2.2520001 1
3.5190001 -2.3659999 2.142 1
3.516 -2.335 2.4230001 1
3.5190001 -2.2939999 2.2409999 1
3.517 -2.4219999 2.2490001 1
3.5179999 -2.3340001 2.306 1
3.5190001 -2.2609999 2.1849999 1
3.5179999 -2.2579999 2.313 1
3.516 -2.4749999 2.3329999 1
3.5209999 -2.266 2.0739999 1
3.5179999 -2.2920001 2.3299999 1
3.517 -2.2550001 2.4449999 1
3.517 -2.355 2.355 1
3.5209999 -2.2909999 2.0209999 1
3.5150001 -2.5139999 2.355 1
3.517 -2.3410001 2.368 1
3.516 -2.4860001 2.3710001 1
3.5190001 -2.2509999 2.2379999 1
3.5179999 -2.3529999 2.24 1
3.5190001 -2.352 2.105 1
3.516 -2.4579999 2.358 1
3.5190001 -2.2620001 2.1919999 1
3.5179999 -2.2279999 2.3610001 1
3.52 -2.2750001 2.1059999 1
3.516 -2.428 2.3310001 1
3.5179999 -2.2920001 2.348 1
3.52 -2.234 2.1789999 1
3.517 -2.323 2.375 1
3.517 -2.2720001 2.4360001 1
3.5150001 -2.5250001 2.3959999 1
3.516 -2.4219999 2.3840001 1
3.52 -2.2349999 2.1960001 1
3.5150001 -2.4070001 2.45 1
3.517 -2.3239999 2.3599999 1
3.517 -2.24 2.408 1
3.5190001 -2.3570001 2.1500001 1
3.516 -2.434 2.348 1
3.5150001 -2.5039999 2.3859999 1
3.517 -2.237 2.4189999 1
3.5179999 -2.431 2.221 1
3.5179999 -2.325 2.2709999 1
3.517 -2.3859999 2.3629999 1
3.517 -2.332 2.348 1
3.5150001 -2.5179999 2.4300001 1
3.517 -2.342 2.3080001 1
3.5150001 -2.4909999 2.447 1
3.5190001 -2.2379999 2.214 1
3.5150001 -2.5209999 2.3859999 1
3.5150001 -2.5239999 2.3889999 1
3.5190001 -2.296 2.2030001 1
3.516 -2.3829999 2.405 1
3.5190001 -2.323 2.2149999 1
3.5179999 -2.3889999 2.247 1
3.516 -2.4349999 2.3970001 1
3.5190001 -2.3770001 2.1459999 1
3.52 -2.2739999 2.142 1
3.5209999 -2.2750001 2.0380001 1
3.517 -2.3970001 2.3529999 1
3.517 -2.223 2.4400001 1
3.5179999 -2.365 2.2709999 1
3.5190001 -2.29 2.1570001 1
3.5190001 -2.29 2.243 1
3.5150001 -2.523 2.3800001 1
3.516 -2.392 2.437 1
3.5209999 -2.2920001 2.0039999 1
3.516 -2.3800001 2.4030001 1
3.516 -2.5009999 2.3469999 1
3.5190001 -2.335 2.1329999 1
3.5190001 -2.3440001 2.1619999 1
3.5179999 -2.346 2.28 1
3.5179999 -2.336 2.276 1
3.516 -2.484 2.3380001 1
3.517 -2.3770001 2.3529999 1
3.517 -2.29 2.4100001 1
3.517 -2.3080001 2.385 1
3.5179999 -2.25 2.365 1
3.5179999 -2.3559999 2.2880001 1
3.516 -2.3859999 2.428 1
3.516 -2.335 2.438 1
3.5190001 -2.289 2.1789999 1
3.5139999 -2.5650001 2.441 1
3.517 -2.4170001 2.2550001 1
3.5190001 -2.2609999 2.1949999 1
3.5179999 -2.3670001 2.2509999 1
3.5179999 -2.234 2.402 1
3.517 -2.3710001 2.368 1
3.5150001 -2.4860001 2.375 1
3.52 -2.3069999 2.1059999 1
3.516 -2.3729999 2.4100001 1
3.5209999 -2.26 2.02 1
3.516 -2.3559999 2.4030001 1
3.516 -2.349 2.437 1
3.516 -2.392 2.4159999 1
3.5190001 -2.3050001 2.1889999 1
3.516 -2.3710001 2.3900001 1
3.516 -2.309 2.4460001 1
3.5150001 -2.5309999 2.3829999 1
3.516 -2.418 2.3699999 1
3.516 -2.3710001 2.4519999 1
3.5209999 -2.2709999 1.976 1
3.5179999 -2.279 2.3380001 1
3.5179999 -2.3570001 2.26 1
3.517 -2.279 2.3959999 1
3.5179999 -2.392 2.1600001 1
3.52 -2.257 2.1489999 1
3.5179999 -2.2809999 2.2690001 1
3.5190001 -2.2969999 2.2049999 1
3.5150001 -2.4690001 2.4330001 1
3.516 -2.46 2.358 1
3.52 -2.24 2.108 1
3.52 -2.276 2.1589999 1
3.517 -2.3699999 2.3429999 1
3.5190001 -2.3069999 2.1559999 1
3.5190001 -2.2739999 2.2420001 1
3.516 -2.471 2.3239999 1
3.5179999 -2.3859999 2.1670001 1
3.517 -2.3469999 2.3199999 1
3.5179999 -2.223 2.3740001 1
3.5179999 -2.3629999 2.2019999 1
3.5179999 -2.349 2.2190001 1
3.5190001 -2.2449999 2.2 1
3.516 -2.4260001 2.414 1
3.516 -2.471 2.3010001 1
3.5190001 -2.227 2.276 1
3.5179999 -2.309 2.336 1
3.5190001 -2.2390001 2.2980001 1
3.516 -2.4549999 2.391 1
3.5209999 -2.2679999 2.029 1
3.5209999 -2.256 1.993 1
3.517 -2.2590001 2.411 1
3.5179999 -2.2839999 2.2739999 1
3.52 -2.276 2.132 1
3.5190001 -2.299 2.2060001 1
3.517 -2.283 2.4170001 1
3.516 -2.4749999 2.3599999 1
3.52 -2.2460001 2.115 1
3.517 -2.277 2.369 1
3.5179999 -2.3239999 2.2550001 1
3.5190001 -2.3110001 2.2130001 1
3.516 -2.408 2.378 1
3.516 -2.4660001 2.2980001 1
3.5179999 -2.392 2.1930001 1
3.52 -2.2690001 2.165 1
3.517 -2.303 2.4349999 1
3.516 -2.3870001 2.369 1
3.516 -2.375 2.4260001 1
3.5179999 -2.2420001 2.3599999 1
3.516 -2.4719999 2.3770001 1
3.5179999 -2.335 2.2479999 1
3.517 -2.3540001 2.335 1
3.5209999 -2.2780001 1.971 1
3.516 -2.3269999 2.427 1
3.5190001 -2.237 2.2939999 1
3.516 -2.4449999 2.345 1
3.516 -2.306 2.4419999 1
3.5209999 -2.257 2.017 1
3.517 -2.382 2.3169999 1
3.52 -2.247 2.151 1
3.5190001 -2.2279999 2.256 1
3.517 -2.415 2.2509999 1
3.516 -2.339 2.4460001 1
3.5179999 -2.3380001 2.266 1
3.517 -2.3510001 2.2980001 1
3.52 -2.2639999 2.0780001 1
3.5179999 -2.408 2.2409999 1
3.5179999 -2.349 2.2309999 1
3.5179999 -2.2550001 2.3800001 1
3.517 -2.3280001 2.3640001 1
3.5150001 -2.5020001 2.4119999 1
3.5209999 -2.29 2.017 1
3.5190001 -2.378 2.171 1
3.5190001 -2.3110001 2.2290001 1
3.516 -2.342 2.4349999 1
3.5150001 -2.477 2.4289999 1
3.5179999 -2.3 2.3399999 1
3.516 -2.326 2.4460001 1
3.5150001 -2.47 2.3959999 1
3.5190001 -2.3169999 2.1429999 1
3.5190001 -2.244 2.2279999 1
3.5190001 -2.234 2.2320001 1
3.5150001 -2.4779999 2.3859999 1
3.52 -2.2950001 2.089 1
3.517 -2.3889999 2.2969999 1
3.5179999 -2.3399999 2.28 1
3.5190001 -2.3659999 2.1600001 1
3.5209999 -2.2550001 2.075 1
3.5209999 -2.2839999 2.0339999 1
3.516 -2.3740001 2.401 1
3.517 -2.4449999 2.302 1
3.516 -2.3340001 2.434 1
3.517 -2.3599999 2.2980001 1
3.517 -2.378 2.2969999 1
3.5190001 -2.257 2.234 1
3.5190001 -2.348 2.138 1
3.5179999 -2.346 2.2579999 1
3.5179999 -2.2309999 2.325 1
3.52 -2.25 2.1129999 1
3.5179999 -2.29 2.2550001 1
3.5190001 -2.2969999 2.2349999 1
3.5209999 -2.2539999 1.994 1
3.516 -2.4400001 2.329 1
3.5179999 -2.3369999 2.2479999 1
3.517 -2.234 2.441 1
3.5190001 -2.329 2.152 1
3.5190001 -2.2309999 2.29 1
3.5190001 -2.372 2.1589999 1
3.5179999 -2.2709999 2.329 1
3.517 -2.4230001 2.302 1
3.52 -2.3139999 2.0550001 1
3.5179999 -2.312 2.2839999 1
3.52 -2.2479999 2.1470001 1
3.5150001 -2.4530001 2.421 1
3.5150001 -2.4890001 2.378 1
3.516 -2.346 2.411 1
3.516 -2.4300001 2.349 1
3.5179999 -2.2950001 2.25 1
3.5190001 -2.3640001 2.105 1
3.5190001 -2.335 2.1760001 1
3.52 -2.2520001 2.1289999 1
3.5179999 -2.2509999 2.3629999 1
3.517 -2.22 2.427 1
3.517 -2.29 2.444 1
3.52 -2.296 2.099 1
3.517 -2.3829999 2.296 1
3.517 -2.427 2.302 1
3.52 -2.2690001 2.0869999 1
3.517 -2.3199999 2.3540001 1
3.516 -2.4920001 2.3280001 1
3.5209999 -2.2780001 2.0309999 1
3.517 -2.296 2.3599999 1
3.5190001 -2.3239999 2.184 1
3.52 -2.277 2.1530001 1
3.5220001 -2.276 1.961 1
3.5150001 -2.5120001 2.405 1
3.516 -2.487 2.3340001 1
3.517 -2.398 2.257 1
3.5150001 -2.4849999 2.4059999 1
3.516 -2.339 2.4289999 1
3.517 -2.3929999 2.26 1
3.5150001 -2.539 2.425 1
3.517 -2.359 2.382 1
3.516 -2.467 2.3429999 1
3.5209999 -2.2650001 1.99 1
3.5209999 -2.2720001 2.0639999 1
3.52 -2.2360001 2.154 1
3.5179999 -2.349 2.296 1
3.5179999 -2.3740001 2.2539999 1
3.517 -2.3670001 2.3239999 1
3.517 -2.421 2.2909999 1
3.516 -2.418 2.4070001 1
3.517 -2.3699999 2.3169999 1
3.5209999 -2.296 2.01 1
3.5190001 -2.2520001 2.2820001 1
3.516 -2.4949999 2.3269999 1
3.517 -2.3559999 2.3870001 1
3.5179999 -2.4130001 2.1989999 1
3.5179999 -2.4070001 2.1800001 1
3.5190001 -2.2249999 2.2909999 1
3.5179999 -2.3110001 2.2969999 1
3.5179999 -2.339 2.286 1
3.517 -2.424 2.237 1
3.52 -2.2750001 2.1259999 1
3.516 -2.391 2.4219999 1
3.517 -2.319 2.335 1
3.516 -2.451 2.323 1
3.517 -2.3870001 2.355 1
3.5190001 -2.3069999 2.1500001 1
3.517 -2.2390001 2.4530001 1
3.5179999 -2.325 2.2709999 1
3.517 -2.2460001 2.4530001 1
3.5190001 -2.335 2.168 1
3.517 -2.425 2.277 1
3.52 -2.3080001 2.05 1
3.5190001 -2.2639999 2.217 1
3.5179999 -2.2939999 2.2739999 1
3.517 -2.3299999 2.395 1
3.5179999 -2.322 2.247 1
3.5179999 -2.359 2.1919999 1
3.517 -2.3499999 2.382 1
3.516 -2.4119999 2.365 1
3.5209999 -2.2449999 2.043 1
3.516 -2.4400001 2.3770001 1
3.5179999 -2.388 2.187 1
3.517 -2.3239999 2.3340001 1
3.5150001 -2.507 2.418 1
3.517 -2.365 2.3080001 1
3.5150001 -2.503 2.3770001 1
3.5150001 -2.513 2.425 1
3.5179999 -2.2360001 2.3770001 1
3.5150001 -2.5079999 2.355 1
3.5209999 -2.2850001 2.023 1
3.52 -2.329 2.0929999 1
3.5179999 -2.2409999 2.3959999 1
3.517 -2.2379999 2.451 1
3.5190001 -2.312 2.1989999 1
3.517 -2.3740001 2.348 1
3.5190001 -2.2639999 2.244 1
3.517 -2.309 2.4030001 1
3.516 -2.355 2.4519999 1
3.517 -2.3169999 2.405 1
3.5139999 -2.556 2.4360001 1
3.517 -2.247 2.45 1
3.5179999 -2.391 2.2449999 1
3.52 -2.263 2.155 1
3.5190001 -2.3410001 2.115 1
3.5179999 -2.2260001 2.3559999 1
3.5190001 -2.299 2.188 1
3.516 -2.4619999 2.3139999 1
3.5190001 -2.2780001 2.2079999 1
3.5209999 -2.27 2.0139999 1
3.5150001 -2.5 2.3759999 1
3.5150001 -2.5220001 2.3729999 1
3.5179999 -2.289 2.3139999 1
3.5190001 -2.2869999 2.2119999 1
3.516 -2.421 2.4070001 1
3.517 -2.3699999 2.293 1
3.52 -2.2679999 2.1619999 1
3.5209999 -2.2460001 2.079 1
3.5179999 -2.3429999 2.2650001 1
3.516 -2.473 2.3280001 1
3.52 -2.3069999 2.0409999 1
3.5190001 -2.3150001 2.1470001 1
3.516 -2.487 2.3499999 1
3.516 -2.4649999 2.3150001 1
3.5150001 -2.507 2.3900001 1
3.5150001 -2.5239999 2.401 1
3.5179999 -2.3970001 2.1830001 1
3.517 -2.277 2.4530001 1
3.5179999 -2.434 2.221 1
3.5179999 -2.368 2.191 1
3.516 -2.3870001 2.3740001 1
3.5190001 -2.3789999 2.1389999 1
3.516 -2.3770001 2.4419999 1
3.5179999 -2.2590001 2.3210001 1
3.52 -2.3139999 2.1300001 1
3.5179999 -2.3050001 2.2650001 1
3.516 -2.4400001 2.3870001 1
3.517 -2.2609999 2.451 1
3.517 -2.3139999 2.4130001 1
3.5179999 -2.425 2.22 1
3.5179999 -2.223 2.368 1
3.5209999 -2.28 2.0079999 1
3.5179999 -2.395 2.233 1
3.5179999 -2.326 2.2460001 1
3.5150001 -2.497 2.411 1
3.516 -2.4170001 2.3859999 1
3.52 -2.28 2.079 1
3.5209999 -2.303 2.0239999 1
3.5179999 -2.2639999 2.3110001 1
3.5190001 -2.2520001 2.2360001 1
3.5209999 -2.2679999 2.0190001 1
3.5179999 -2.293 2.3239999 1
3.517 -2.2620001 2.405 1
3.5190001 -2.346 2.1819999 1
3.517 -2.4230001 2.2850001 1
3.5179999 -2.3640001 2.234 1
3.5179999 -2.3800001 2.191 1
3.5179999 -2.388 2.2360001 1
3.517 -2.365 2.3039999 1
3.5179999 -2.3 2.2520001 1
3.5150001 -2.5050001 2.368 1
3.516 -2.45 2.3859999 1
3.52 -2.302 2.0450001 1
3.52 -2.303 2.0580001 1
3.517 -2.299 2.3929999 1
3.5179999 -2.263 2.28 1
3.5190001 -2.339 2.131 1
3.517 -2.3399999 2.3469999 1
3.517 -2.3269999 2.398 1
3.5179999 -2.398 2.164 1
3.516 -2.4000001 2.3789999 1
3.517 -2.4419999 2.26 1
3.517 -2.402 2.348 1
3.516 -2.3989999 2.415 1
3.517 -2.3299999 2.355 1
3.516 -2.457 2.3380001 1
3.517 -2.2939999 2.447 1
3.5190001 -2.273 2.237 1
3.5190001 -2.2449999 2.2030001 1
3.5179999 -2.2609999 2.3710001 1
3.5179999 -2.342 2.2479999 1
3.5190001 -2.26 2.1989999 1
3.5179999 -2.3559999 2.211 1
3.52 -2.348 2.0899999 1
3.5190001 -2.3139999 2.1589999 1
3.517 -2.4630001 2.276 1
3.517 -2.4460001 2.2880001 1
3.5150001 -2.536 2.3989999 1
3.5209999 -2.2509999 2.0550001 1
3.5150001 -2.4579999 2.4100001 1
3.52 -2.2969999 2.0840001 1
3.517 -2.4089999 2.2609999 1
3.5150001 -2.4920001 2.385 1
3.5179999 -2.359 2.2820001 1
3.5190001 -2.27 2.1900001 1
3.516 -2.4159999 2.3399999 1
3.5190001 -2.2550001 2.1989999 1
3.5190001 -2.273 2.247 1
3.52 -2.3050001 2.1059999 1
3.516 -2.3800001 2.3870001 1
3.5179999 -2.283 2.2780001 1
3.5150001 -2.4779999 2.4030001 1
3.517 -2.4100001 2.329 1
3.52 -2.28 2.1389999 1
3.5179999 -2.2160001 2.401 1
3.52 -2.2939999 2.1289999 1
3.517 -2.332 2.3429999 1
3.517 -2.4100001 2.332 1
3.517 -2.4530001 2.299 1
3.5150001 -2.5009999 2.3800001 1
3.5150001 -2.4579999 2.401 1
3.5150001 -2.4389999 2.418 1
3.517 -2.4119999 2.3039999 1
3.5150001 -2.5120001 2.3800001 1
3.517 -2.2839999 2.4519999 1
3.516 -2.4419999 2.345 1
3.517 -2.221 2.4530001 1
3.52 -2.2739999 2.1259999 1
3.517 -2.3599999 2.3559999 1
3.516 -2.381 2.3800001 1
3.5179999 -2.349 2.2360001 1
3.52 -2.2850001 2.1129999 1
3.5190001 -2.3440001 2.158 1
3.5190001 -2.3770001 2.1670001 1
3.52 -2.256 2.154 1
3.5190001 -2.2720001 2.263 1
3.52 -2.2460001 2.1800001 1
3.5150001 -2.5020001 2.4219999 1
3.517 -2.319 2.359 1
3.5179999 -2.372 2.2609999 1
3.5150001 -2.5179999 2.401 1
3.5190001 -2.2539999 2.207 1
3.52 -2.3099999 2.0829999 1
3.5190001 -2.2809999 2.181 1
3.5190001 -2.346 2.155 1
3.5209999 -2.2539999 1.9910001 1
3.5179999 -2.3599999 2.273 1
3.52 -2.3399999 2.072 1
3.5150001 -2.4909999 2.4119999 1
3.5190001 -2.375 2.1619999 1
3.516 -2.402 2.375 1
3.5190001 -2.3380001 2.128 1
3.52 -2.25 2.1689999 1
3.517 -2.4430001 2.2869999 1
3.516 -2.434 2.3900001 1
3.5190001 -2.256 2.2739999 1
3.517 -2.3540001 2.3099999 1
3.517 -2.237 2.424 1
3.517 -2.3870001 2.2720001 1
3.5150001 -2.4809999 2.448 1
3.517 -2.3699999 2.3299999 1
3.516 -2.3010001 2.4549999 1
3.516 -2.4100001 2.3469999 1
3.52 -2.2520001 2.1240001 1
3.5179999 -2.3050001 2.2650001 1
3.5179999 -2.382 2.1930001 1
3.517 -2.358 2.378 1
3.516 -2.3610001 2.4260001 1
3.516 -2.3640001 2.414 1
3.5209999 -2.2539999 2 1
3.5209999 -2.2839999 2.0280001 1
3.52 -2.3150001 2.108 1
3.516 -2.487 2.322 1
3.5179999 -2.3989999 2.2349999 1
3.5190001 -2.309 2.161 1
3.52 -2.3310001 2.1129999 1
3.52 -2.312 2.069 1
3.516 -2.3410001 2.4219999 1
3.516 -2.3989999 2.4519999 1
3.516 -2.474 2.3340001 1
3.5179999 -2.2509999 2.382 1
3.5179999 -2.2590001 2.3139999 1
3.5179999 -2.217 2.418 1
3.5150001 -2.487 2.401 1
3.5179999 -2.2509999 2.3210001 1
3.517 -2.365 2.3369999 1
3.5190001 -2.2920001 2.2260001 1
3.52 -2.289 2.082 1
3.52 -2.2449999 2.1259999 1
3.516 -2.392 2.395 1
3.52 -2.2980001 2.0610001 1
3.5150001 -2.4949999 2.4230001 1
3.5209999 -2.2520001 1.992 1
3.517 -2.3169999 2.3510001 1
3.5179999 -2.312 2.3110001 1
3.5150001 -2.5480001 2.411 1
3.5150001 -2.5250001 2.3699999 1
3.5179999 -2.224 2.405 1
3.517 -2.306 2.3900001 1
3.5179999 -2.2809999 2.283 1
3.52 -2.2609999 2.1589999 1
3.517 -2.257 2.427 1
3.5179999 -2.349 2.2690001 1
3.5209999 -2.257 2.0810001 1
3.517 -2.451 2.2880001 1
3.5220001 -2.253 1.962 1
3.517 -2.349 2.3499999 1
3.516 -2.4530001 2.3429999 1
3.5209999 -2.2950001 2.0050001 1
3.517 -2.2279999 2.421 1
3.5179999 -2.289 2.276 1
3.517 -2.342 2.362 1
3.5190001 -2.2420001 2.293 1
3.5190001 -2.24 2.263 1
3.5150001 -2.448 2.415 1
3.5190001 -2.3099999 2.178 1
3.5179999 -2.2750001 2.2720001 1
3.5190001 -2.263 2.2 1
3.5150001 -2.4879999 2.3740001 1
3.5150001 -2.47 2.4360001 1
3.517 -2.3989999 2.329 1
3.5209999 -2.2509999 2.079 1
3.516 -2.395 2.402 1
3.52 -2.256 2.155 1
3.5190001 -2.325 2.1760001 1
3.5190001 -2.335 2.201 1
3.52 -2.3329999 2.1129999 1
3.52 -2.279 2.105 1
3.517 -2.447 2.2809999 1
3.5150001 -2.5450001 2.4100001 1
3.517 -2.421 2.276 1
3.517 -2.339 2.372 1
3.516 -2.4449999 2.316 1
3.5209999 -2.2839999 2.0239999 1
3.517 -2.329 2.3829999 1
3.5220001 -2.257 1.949 1
3.5179999 -2.326 2.28 1
3.517 -2.3900001 2.3069999 1
3.5179999 -2.313 2.3280001 1
3.5209999 -2.2750001 1.969 1
3.5179999 -2.276 2.335 1
3.52 -2.316 2.0610001 1
3.5179999 -2.382 2.2349999 1
3.5220001 -2.2590001 1.971 1
3.5209999 -2.2460001 2.0380001 1
3.5179999 -2.3559999 2.217 1
3.517 -2.296 2.3859999 1
3.5190001 -2.2639999 2.181 1
3.516 -2.3510001 2.4360001 1
3.517 -2.2650001 2.3859999 1
3.517 -2.415 2.2679999 1
3.5209999 -2.2809999 2.049 1
3.5190001 -2.289 2.2290001 1
3.5179999 -2.339 2.28 1
3.5209999 -2.289 2.0020001 1
3.516 -2.474 2.381 1
3.516 -2.467 2.3889999 1
3.516 -2.454 2.385 1
3.52 -2.345 2.0940001 1
3.517 -2.428 2.326 1
3.516 -2.4460001 2.378 1
3.52 -2.3039999 2.0669999 1
3.52 -2.266 2.1240001 1
3.517 -2.2609999 2.4059999 1
3.5190001 -2.2320001 2.2780001 1
3.52 -2.3110001 2.0569999 1
3.5179999 -2.4119999 2.2160001 1
3.5190001 -2.2969999 2.2019999 1
3.516 -2.4289999 2.372 1
3.5150001 -2.52 2.415 1
3.5139999 -2.549 2.4260001 1
3.5179999 -2.319 2.257 1
3.516 -2.47 2.3469999 1
3.5190001 -2.325 2.1600001 1
3.52 -2.2420001 2.1949999 1
3.5190001 -2.26 2.1930001 1
3.5179999 -2.2839999 2.339 1
3.5179999 -2.2850001 2.3110001 1
3.517 -2.3800001 2.3529999 1
3.5209999 -2.2490001 2.0339999 1
3.5179999 -2.3329999 2.276 1
3.516 -2.4059999 2.4230001 1
3.5179999 -2.319 2.26 1
3.517 -2.25 2.414 1
3.517 -2.3239999 2.3640001 1
3.52 -2.3410001 2.072 1
3.5190001 -2.329 2.1849999 1
3.5179999 -2.3469999 2.283 1
3.5150001 -2.5 2.385 1
3.52 -2.3280001 2.1110001 1
3.5150001 -2.457 2.424 1
3.5190001 -2.2490001 2.223 1
3.5150001 -2.51 2.3870001 1
3.517 -2.4549999 2.2609999 1
3.5190001 -2.3329999 2.2079999 1
3.5150001 -2.5280001 2.3729999 1
3.52 -2.306 2.098 1
3.517 -2.2690001 2.4289999 1
3.5209999 -2.289 1.983 1
3.52 -2.3069999 2.059 1
3.517 -2.3110001 2.395 1
3.5179999 -2.381 2.211 1
3.5150001 -2.4419999 2.444 1
3.5190001 -2.283 2.1600001 1
3.517 -2.424 2.2420001 1
3.5179999 -2.221 2.385 1
3.517 -2.4349999 2.2309999 1
3.52 -2.283 2.0680001 1
3.516 -2.3599999 2.4300001 1
3.52 -2.2520001 2.1340001 1
3.517 -2.2320001 2.4560001 1
3.5179999 -2.243 2.302 1
3.5190001 -2.319 2.1960001 1
3.5179999 -2.4070001 2.2379999 1
3.516 -2.359 2.3929999 1
3.516 -2.335 2.428 1
3.517 -2.382 2.3139999 1
3.517 -2.29 2.4330001 1
3.516 -2.46 2.3410001 1
3.5179999 -2.335 2.303 1
3.5150001 -2.4679999 2.4159999 1
3.516 -2.438 2.3570001 1
3.5209999 -2.2920001 1.988 1
3.517 -2.4059999 2.303 1
3.517 -2.253 2.4230001 1
3.517 -2.4349999 2.26 1
3.5179999 -2.3099999 2.306 1
3.517 -2.312 2.368 1
3.5179999 -2.2620001 2.336 1
3.52 -2.329 2.082 1
3.5190001 -2.273 2.227 1
3.517 -2.382 2.277 1
3.517 -2.375 2.316 1
3.5179999 -2.392 2.214 1
3.517 -2.4389999 2.2579999 1
3.5179999 -2.3239999 2.2950001 1
3.5209999 -2.2590001 2.0079999 1
3.516 -2.3800001 2.4319999 1
3.5190001 -2.29 2.197 1
3.517 -2.2739999 2.4560001 1
3.517 -2.3610001 2.3559999 1
3.5179999 -2.3559999 2.2379999 1
3.5139999 -2.556 2.4460001 1
3.5150001 -2.523 2.3889999 1
3.517 -2.3670001 2.3340001 1
3.5190001 -2.2509999 2.2620001 1
3.516 -2.375 2.3959999 1
3.517 -2.2869999 2.4319999 1
3.5190001 -2.2679999 2.194 1
3.5179999 -2.4000001 2.237 1
3.5179999 -2.3510001 2.2460001 1
3.5150001 -2.4319999 2.425 1
3.517 -2.3510001 2.345 1
3.5179999 -2.3239999 2.2479999 1
3.5190001 -2.2290001 2.2869999 1
3.517 -2.2939999 2.3699999 1
3.5190001 -2.2920001 2.1700001 1
3.5179999 -2.3039999 2.2950001 1
3.5179999 -2.273 2.296 1
3.5190001 -2.319 2.174 1
3.517 -2.3510001 2.313 1
3.5179999 -2.2550001 2.336 1
3.517 -2.359 2.296 1
3.516 -2.493 2.3599999 1
3.517 -2.418 2.302 1
3.5209999 -2.313 2.027 1
3.52 -2.332 2.096 1
3.52 -2.2820001 2.072 1
3.516 -2.447 2.3499999 1
3.516 -2.322 2.444 1
3.5179999 -2.309 2.2490001 1
3.516 -2.4400001 2.3629999 1
3.517 -2.369 2.355 1
3.5190001 -2.2679999 2.27 1
3.516 -2.3970001 2.415 1
3.517 -2.3299999 2.336 1
3.5179999 -2.313 2.3210001 1
3.5190001 -2.26 2.2590001 1
3.516 -2.5039999 2.3559999 1
3.517 -2.325 2.4070001 1
3.5150001 -2.516 2.4419999 1
3.5190001 -2.3280001 2.1300001 1
3.52 -2.326 2.1099999 1
3.516 -2.313 2.4389999 1
3.517 -2.447 2.293 1
3.5150001 -2.4849999 2.388 1
3.5209999 -2.2750001 2.052 1
3.517 -2.4059999 2.303 1
3.517 -2.3069999 2.3959999 1
3.52 -2.2579999 2.1559999 1
3.517 -2.325 2.362 1
3.517 -2.4230001 2.3 1
3.516 -2.3859999 2.3889999 1
3.517 -2.323 2.3829999 1
3.5190001 -2.2509999 2.21 1
3.5179999 -2.233 2.323 1
3.5190001 -2.316 2.131 1
3.516 -2.3929999 2.418 1
3.52 -2.26 2.1389999 1
3.517 -2.381 2.2950001 1
3.5209999 -2.2520001 2.0769999 1
3.516 -2.388 2.431 1
3.52 -2.299 2.1159999 1
3.5179999 -2.2490001 2.355 1
3.517 -2.372 2.3 1
3.52 -2.3 2.1029999 1
3.517 -2.3599999 2.3629999 1
3.5190001 -2.326 2.1400001 1
3.5150001 -2.5450001 2.4159999 1
3.516 -2.4790001 2.335 1
3.517 -2.3199999 2.349 1
3.517 -2.3800001 2.279 1
3.5190001 -2.3139999 2.191 1
3.517 -2.448 2.2620001 1
3.5209999 -2.277 2.0020001 1
3.5179999 -2.2579999 2.309 1
3.517 -2.3699999 2.29 1
3.516 -2.503 2.352 1
3.5190001 -2.3310001 2.1400001 1
3.5209999 -2.2709999 1.975 1
3.516 -2.411 2.3900001 1
3.5179999 -2.336 2.2939999 1
3.517 -2.2880001 2.425 1
3.5220001 -2.2509999 1.9809999 1
3.5179999 -2.414 2.234 1
3.5179999 -2.352 2.2409999 1
3.517 -2.355 2.3789999 1
3.517 -2.4219999 2.293 1
3.516 -2.348 2.4300001 1
3.516 -2.3150001 2.438 1
3.5150001 -2.4979999 2.375 1
3.516 -2.4219999 2.382 1
3.5190001 -2.332 2.1860001 1
3.5190001 -2.3069999 2.1429999 1
3.517 -2.427 2.253 1
3.5179999 -2.2190001 2.378 1
3.52 -2.2379999 2.132 1
3.516 -2.4230001 2.365 1
3.52 -2.3369999 2.0739999 1
3.517 -2.418 2.3199999 1
3.52 -2.3080001 2.1170001 1
3.517 -2.3800001 2.2780001 1
3.5179999 -2.256 2.3110001 1
3.5179999 -2.2479999 2.302 1
3.517 -2.3380001 2.3940001 1
3.516 -2.4159999 2.4200001 1
3.52 -2.3110001 2.072 1
3.516 -2.4289999 2.3529999 1
3.52 -2.283 2.0929999 1
3.52 -2.2880001 2.056 1
3.5179999 -2.3150001 2.323 1
3.52 -2.3110001 2.1259999 1
3.5179999 -2.3610001 2.211 1
3.516 -2.358 2.4059999 1
3.5179999 -2.2839999 2.3540001 1
3.5179999 -2.362 2.2 1
3.5179999 -2.2509999 2.3280001 1
3.517 -2.425 2.27 1
3.5150001 -2.4619999 2.411 1
3.5190001 -2.348 2.1949999 1
3.517 -2.4449999 2.243 1
3.52 -2.2679999 2.1289999 1
3.517 -2.283 2.4449999 1
3.517 -2.302 2.401 1
3.5179999 -2.4070001 2.2130001 1
3.52 -2.2780001 2.158 1
3.5179999 -2.346 2.2219999 1
3.5150001 -2.5 2.4030001 1
3.5179999 -2.365 2.2179999 1
3.516 -2.441 2.3800001 1
3.517 -2.2639999 2.4089999 1
3.5179999 -2.345 2.289 1
3.5190001 -2.3199999 2.2219999 1
3.5150001 -2.4879999 2.392 1
3.52 -2.2409999 2.128 1
3.5179999 -2.3989999 2.2509999 1
3.517 -2.224 2.4430001 1
3.517 -2.3710001 2.286 1
3.516 -2.4189999 2.388 1
3.5190001 -2.2739999 2.2509999 1
3.5179999 -2.3269999 2.244 1
3.517 -2.3829999 2.3429999 1
3.5179999 -2.339 2.3010001 1
3.5139999 -2.5510001 2.4460001 1
3.5179999 -2.223 2.3570001 1
3.5179999 -2.3859999 2.253 1
3.5190001 -2.3469999 2.1819999 1
3.517 -2.3310001 2.4000001 1
3.517 -2.3039999 2.4119999 1
3.5150001 -2.5179999 2.4170001 1
3.5179999 -2.23 2.3169999 1
3.5179999 -2.3940001 2.1930001 1
3.5190001 -2.2320001 2.2449999 1
3.5190001 -2.309 2.151 1
3.5179999 -2.411 2.2219999 1
3.52 -2.2620001 2.109 1
3.5179999 -2.358 2.227 1
3.516 -2.375 2.421 1
3.516 -2.378 2.418 1
3.52 -2.2349999 2.2030001 1
3.516 -2.392 2.3940001 1
3.516 -2.4860001 2.342 1
3.516 -2.355 2.424 1
3.5190001 -2.3169999 2.168 1
3.5190001 -2.381 2.1619999 1
3.52 -2.2709999 2.1389999 1
3.517 -2.313 2.4070001 1
3.516 -2.346 2.4519999 1
3.5190001 -2.2279999 2.2720001 1
3.517 -2.3959999 2.2809999 1
3.5190001 -2.319 2.148 1
3.5209999 -2.2650001 2.073 1
3.517 -2.4070001 2.2550001 1
3.5190001 -2.3559999 2.1070001 1
3.5190001 -2.3710001 2.161 1
3.5179999 -2.392 2.2060001 1
3.5179999 -2.388 2.171 1
3.5179999 -2.319 2.257 1
3.5209999 -2.273 2.0250001 1
3.5190001 -2.3800001 2.151 1
3.516 -2.4430001 2.313 1
3.5190001 -2.233 2.28 1
3.517 -2.2460001 2.4360001 1
3.517 -2.457 2.2809999 1
3.5150001 -2.461 2.401 1
3.516 -2.441 2.398 1
3.5190001 -2.336 2.1129999 1
3.52 -2.3310001 2.0550001 1
3.5179999 -2.2820001 2.3269999 1
3.517 -2.4530001 2.2650001 1
3.5209999 -2.2449999 2.0829999 1
3.516 -2.437 2.372 1
3.517 -2.312 2.428 1
3.517 -2.2449999 2.447 1
3.52 -2.2909999 2.082 1
3.5190001 -2.2820001 2.2079999 1
3.5190001 -2.2460001 2.283 1
3.5190001 -2.3269999 2.178 1
3.517 -2.3299999 2.3340001 1
3.5179999 -2.2179999 2.3929999 1
3.5209999 -2.276 2.0320001 1
3.5179999 -2.3610001 2.2320001 1
3.517 -2.4389999 2.2969999 1
3.5150001 -2.4890001 2.3729999 1
3.52 -2.302 2.1199999 1
3.517 -2.4230001 2.286 1
3.517 -2.4519999 2.2539999 1
3.517 -2.4360001 2.2309999 1
3.5150001 -2.539 2.4059999 1
3.516 -2.4990001 2.3570001 1
3.517 -2.3150001 2.3759999 1
3.5179999 -2.414 2.233 1
3.5190001 -2.299 2.244 1
3.5179999 -2.2920001 2.3180001 1
3.5190001 -2.2539999 2.2279999 1
3.5179999 -2.4089999 2.184 1
3.5179999 -2.4200001 2.2130001 1
3.52 -2.2539999 2.1010001 1
3.5190001 -2.3710001 2.1489999 1
3.5190001 -2.3369999 2.1860001 1
3.5209999 -2.3010001 2.0150001 1
3.5209999 -2.27 1.987 1
3.5190001 -2.352 2.1300001 1
3.5150001 -2.4760001 2.4289999 1
3.517 -2.224 2.4200001 1
3.5179999 -2.2820001 2.3210001 1
3.52 -2.3329999 2.0639999 1
3.517 -2.3329999 2.385 1
3.5179999 -2.3840001 2.2160001 1
3.516 -2.392 2.434 1
3.517 -2.427 2.3 1
3.5150001 -2.494 2.4349999 1
3.516 -2.3789999 2.3840001 1
3.52 -2.2579999 2.118 1
3.517 -2.325 2.4059999 1
3.5190001 -2.332 2.168 1
3.5190001 -2.266 2.178 1
3.517 -2.3469999 2.3970001 1
3.516 -2.401 2.3840001 1
3.5190001 -2.3039999 2.2390001 1
3.52 -2.3099999 2.039 1
3.5190001 -2.3329999 2.135 1
3.5150001 -2.4430001 2.431 1
3.5150001 -2.4349999 2.4449999 1
3.516 -2.3829999 2.428 1
3.517 -2.3010001 2.4170001 1
3.516 -2.3740001 2.405 1
3.5190001 -2.336 2.1340001 1
3.5179999 -2.263 2.3429999 1
3.5179999 -2.2920001 2.2679999 1
3.516 -2.3859999 2.3889999 1
3.517 -2.434 2.2320001 1
3.5179999 -2.335 2.303 1
3.5190001 -2.3050001 2.1600001 1
3.517 -2.256 2.4030001 1
3.5179999 -2.4070001 2.2449999 1
3.5179999 -2.2279999 2.4089999 1
3.5190001 -2.3540001 2.102 1
3.517 -2.3239999 2.4030001 1
3.516 -2.4779999 2.378 1
3.5190001 -2.2579999 2.1889999 1
3.5190001 -2.2690001 2.2149999 1
3.516 -2.362 2.3989999 1
3.5139999 -2.5450001 2.4230001 1
3.5150001 -2.5090001 2.391 1
3.5190001 -2.257 2.2130001 1
3.517 -2.3540001 2.329 1
3.5179999 -2.3640001 2.1949999 1
3.516 -2.3629999 2.4400001 1
3.517 -2.29 2.4349999 1
3.5179999 -2.3110001 2.306 1
3.52 -2.2509999 2.1819999 1
3.5190001 -2.336 2.152 1
3.516 -2.464 2.3150001 1
3.5179999 -2.2420001 2.299 1
3.517 -2.2620001 2.4200001 1
3.5179999 -2.3529999 2.2869999 1
3.52 -2.312 2.0810001 1
3.517 -2.319 2.3889999 1
3.5179999 -2.302 2.316 1
3.517 -2.3989999 2.335 1
3.5190001 -2.3069999 2.2309999 1
3.517 -2.3180001 2.365 1
3.5179999 -2.277 2.3150001 1
3.52 -2.256 2.1389999 1
3.517 -2.431 2.313 1
3.5179999 -2.415 2.21 1
3.517 -2.4000001 2.322 1
3.52 -2.2909999 2.092 1
3.5190001 -2.3410001 2.1199999 1
3.5309999 -2.237 1.395 1
3.53 -2.346 1.377 1
3.533 -2.1830001 1.273 1
3.527 -2.4189999 1.521 1
3.533 -2.237 1.225 1
3.5309999 -2.312 1.372 1
3.5309999 -2.1730001 1.3710001 1
3.53 -2.346 1.376 1
3.5320001 -2.2880001 1.293 1
3.5309999 -2.336 1.337 1
3.5320001 -2.2279999 1.293 1
3.53 -2.27 1.398 1
3.5320001 -2.233 1.303 1
3.5309999 -2.227 1.377 1
3.5320001 -2.2409999 1.291 1
3.529 -2.3399999 1.426 1
3.533 -2.2149999 1.2819999 1
3.5320001 -2.1800001 1.2970001 1
3.5309999 -2.2049999 1.4 1
3.5320001 -2.2279999 1.337 1
3.5280001 -2.395 1.471 1
3.5309999 -2.286 1.382 1
3.5320001 -2.234 1.294 1
3.53 -2.2939999 1.414 1
3.53 -2.3069999 1.4299999 1
3.53 -2.325 1.413 1
3.5309999 -2.158 1.3609999 1
3.529 -2.342 1.442 1
3.53 -2.2550001 1.415 1
3.533 -2.273 1.24 1
3.533 -2.2149999 1.2819999 1
3.529 -2.3010001 1.471 1
3.53 -2.3069999 1.388 1
3.5309999 -2.244 1.3839999 1
3.5320001 -2.2379999 1.288 1
3.529 -2.335 1.454 1
3.53 -2.2980001 1.3890001 1
3.5309999 -2.2880001 1.329 1
3.5309999 -2.2130001 1.368 1
3.533 -2.1989999 1.275 1
3.5280001 -2.3859999 1.5190001 1
3.53 -2.2590001 1.418 1
3.5309999 -2.2639999 1.377 1
3.5320001 -2.1860001 1.351 1
3.529 -2.348 1.437 1
3.533 -2.2739999 1.262 1
3.53 -2.302 1.3890001 1
3.533 -2.2869999 1.245 1
3.5280001 -2.3399999 1.499 1
3.529 -2.3610001 1.466 1
3.533 -2.224 1.257 1
3.529 -2.369 1.455 1
3.5309999 -2.319 1.3710001 1
3.529 -2.385 1.454 1
3.5309999 -2.299 1.365 1
3.5280001 -2.332 1.492 1
3.5309999 -2.263 1.358 1
3.5320001 -2.227 1.332 1
3.529 -2.2850001 1.443 1
3.5320001 -2.2739999 1.319 1
3.5280001 -2.3710001 1.522 1
3.5309999 -2.2179999 1.4 1
3.53 -2.2219999 1.41 1
3.529 -2.3770001 1.467 1
3.5320001 -2.27 1.291 1
3.5309999 -2.207 1.362 1
3.529 -2.2909999 1.439 1
3.53 -2.346 1.383 1
3.53 -2.2609999 1.437 1
3.5320001 -2.171 1.301 1
3.53 -2.279 1.403 1
3.533 -2.2449999 1.2359999 1
3.5309999 -2.2030001 1.352 1
3.533 -2.2679999 1.237 1
3.5309999 -2.3180001 1.364 1
3.5280001 -2.369 1.505 1
3.5309999 -2.174 1.3609999 1
3.5339999 -2.2460001 1.2180001 1
3.53 -2.352 1.408 1
3.529 -2.3699999 1.464 1
3.5309999 -2.309 1.359 1
3.5309999 -2.3010001 1.365 1
3.5309999 -2.214 1.345 1
3.5320001 -2.244 1.293 1
3.529 -2.398 1.465 1
3.53 -2.329 1.4069999 1
3.5309999 -2.1919999 1.3559999 1
3.5309999 -2.1960001 1.383 1
3.5309999 -2.2620001 1.388 1
3.5309999 -2.2539999 1.353 1
3.5339999 -2.2520001 1.217 1
3.5320001 -2.234 1.314 1
3.5309999 -2.234 1.369 1
3.53 -2.3 1.424 1
3.529 -2.3929999 1.457 1
3.53 -2.2449999 1.42 1
3.533 -2.2379999 1.279 1
3.5309999 -2.3180001 1.346 1
3.5280001 -2.385 1.477 1
3.529 -2.325 1.448 1
3.5309999 -2.3239999 1.3329999 1
3.529 -2.339 1.438 1
3.5309999 -2.313 1.332 1
3.529 -2.3729999 1.421 1
3.533 -2.2539999 1.272 1
3.533 -2.2509999 1.256 1
3.5309999 -2.3039999 1.325 1
3.5309999 -2.21 1.402 1
3.527 -2.3959999 1.533 1
3.53 -2.2449999 1.396 1
3.529 -2.316 1.467 1
3.5309999 -2.2149999 1.357 1
3.527 -2.395 1.539 1
3.53 -2.3410001 1.383 1
3.5309999 -2.2909999 1.345 1
3.533 -2.2060001 1.251 1
3.5309999 -2.2409999 1.344 1
3.533 -2.28 1.243 1
3.5309999 -2.325 1.347 1
3.53 -2.2590001 1.437 1
3.5320001 -2.165 1.3380001 1
3.53 -2.3239999 1.401 1
3.53 -2.2550001 1.41 1
3.5309999 -2.2219999 1.342 1
3.5320001 -2.3099999 1.2819999 1
3.533 -2.2780001 1.247 1
3.5309999 -2.3180001 1.359 1
3.533 -2.2460001 1.227 1
3.53 -2.2820001 1.438 1
3.5320001 -2.2490001 1.329 1
3.53 -2.349 1.405 1
3.5309999 -2.217 1.3710001 1
3.53 -2.2479999 1.419 1
3.529 -2.3959999 1.461 1
3.53 -2.283 1.388 1
3.527 -2.4230001 1.548 1
3.53 -2.237 1.397 1
3.5309999 -2.1789999 1.363 1
3.53 -2.2320001 1.405 1
3.529 -2.3610001 1.4220001 1
3.53 -2.3150001 1.378 1
3.5309999 -2.277 1.367 1
3.5320001 -2.2909999 1.301 1
3.533 -2.2590001 1.219 1
3.533 -2.224 1.2690001 1
3.5320001 -2.1989999 1.3430001 1
3.5309999 -2.198 1.362 1
3.5309999 -2.224 1.363 1
3.533 -2.253 1.224 1
3.5320001 -2.276 1.304 1
3.533 -2.28 1.2460001 1
3.5320001 -2.2149999 1.325 1
3.5320001 -2.2130001 1.325 1
3.53 -2.29 1.388 1
3.5309999 -2.1900001 1.364 1
3.529 -2.2920001 1.441 1
3.527 -2.4319999 1.558 1
3.5280001 -2.362 1.493 1
3.529 -2.3050001 1.451 1
3.533 -2.244 1.273 1
3.5309999 -2.224 1.378 1
3.529 -2.3610001 1.45 1
3.5320001 -2.1700001 1.306 1
3.533 -2.2190001 1.258 1
3.5320001 -2.1259999 1.335 1
3.5309999 -2.2379999 1.376 1
3.529 -2.3010001 1.467 1
3.5309999 -2.266 1.381 1
3.5320001 -2.1600001 1.335 1
3.5309999 -2.2190001 1.367 1
3.53 -2.293 1.3839999 1
3.5309999 -2.322 1.33 1
3.53 -2.2909999 1.409 1
3.533 -2.214 1.275 1
3.53 -2.3 1.395 1
3.5320001 -2.244 1.313 1
3.527 -2.414 1.5369999 1
3.533 -2.224 1.243 1
3.5320001 -2.2850001 1.307 1
3.53 -2.309 1.41 1
3.533 -2.25 1.272 1
3.53 -2.2650001 1.4170001 1
3.53 -2.243 1.397 1
3.529 -2.346 1.469 1
3.529 -2.378 1.4630001 1
3.526 -2.451 1.579 1
3.5320001 -2.1470001 1.342 1
3.5320001 -2.1259999 1.331 1
3.5309999 -2.3080001 1.351 1
3.53 -2.306 1.381 1
3.5309999 -2.286 1.3279999 1
3.53 -2.3369999 1.41 1
3.5320001 -2.1949999 1.317 1
3.53 -2.2449999 1.4220001 1
3.5320001 -2.2420001 1.299 1
3.53 -2.266 1.414 1
3.5320001 -2.2119999 1.342 1
3.527 -2.4289999 1.559 1
3.53 -2.3499999 1.4170001 1
3.5320001 -2.3010001 1.301 1
3.53 -2.3599999 1.396 1
3.5320001 -2.306 1.296 1
3.533 -2.184 1.293 1
3.533 -2.2709999 1.226 1
3.53 -2.27 1.4 1
3.5309999 -2.2820001 1.3710001 1
3.5320001 -2.187 1.301 1
3.5309999 -2.2980001 1.334 1
3.53 -2.2850001 1.437 1
3.5309999 -2.289 1.378 1
3.53 -2.3299999 1.372 1
3.527 -2.4089999 1.526 1
3.5320001 -2.322 1.306 1
3.5280001 -2.3699999 1.518 1
3.53 -2.253 1.425 1
3.5320001 -2.3069999 1.276 1
3.5309999 -2.2650001 1.346 1
3.53 -2.3269999 1.404 1
3.5309999 -2.2620001 1.375 1
3.529 -2.3510001 1.434 1
3.5320001 -2.1400001 1.345 1
3.533 -2.2850001 1.247 1
3.529 -2.329 1.4630001 1
3.5309999 -2.2320001 1.386 1
3.5280001 -2.3989999 1.507 1
3.533 -2.1589999 1.2970001 1
3.53 -2.3180001 1.3839999 1
3.5309999 -2.2060001 1.397 1
3.5320001 -2.1689999 1.331 1
3.529 -2.3570001 1.421 1
3.5339999 -2.253 1.2130001 1
3.53 -2.266 1.424 1
3.53 -2.3499999 1.403 1
3.53 -2.3050001 1.415 1
3.533 -2.2079999 1.253 1
3.5309999 -2.2869999 1.368 1
3.5320001 -2.2449999 1.3279999 1
3.5320001 -2.132 1.346 1
3.53 -2.2609999 1.399 1
3.5320001 -2.247 1.314 1
3.5309999 -2.3399999 1.365 1
3.5309999 -2.3 1.344 1
3.5320001 -2.1240001 1.3380001 1
3.53 -2.335 1.398 1
3.533 -2.2509999 1.274 1
3.5320001 -2.2490001 1.312 1
3.529 -2.365 1.451 1
3.533 -2.2149999 1.271 1
3.5320001 -2.1670001 1.352 1
3.5309999 -2.2609999 1.345 1
3.5320001 -2.299 1.279 1
3.529 -2.3039999 1.457 1
3.529 -2.323 1.464 1
3.533 -2.223 1.235 1
3.53 -2.224 1.4119999 1
3.53 -2.2750001 1.441 1
3.5320001 -2.1730001 1.355 1
3.5309999 -2.296 1.3609999 1
3.5280001 -2.3559999 1.51 1
3.529 -2.3199999 1.45 1
3.5309999 -2.2460001 1.3380001 1
3.5320001 -2.2479999 1.3 1
3.5309999 -2.2620001 1.341 1
3.5280001 -2.382 1.515 1
3.529 -2.3659999 1.4400001 1
3.53 -2.3299999 1.425 1
3.533 -2.2449999 1.227 1
3.529 -2.3559999 1.476 1
3.533 -2.2650001 1.2690001 1
3.529 -2.3499999 1.473 1
3.5309999 -2.293 1.3789999 1
3.5280001 -2.404 1.4859999 1
3.533 -2.2190001 1.278 1
3.533 -2.2620001 1.2690001 1
3.529 -2.3410001 1.478 1
3.5320001 -2.3050001 1.274 1
3.5320001 -2.1789999 1.332 1
3.529 -2.3039999 1.459 1
3.533 -2.2030001 1.2589999 1
3.533 -2.2190001 1.255 1
3.5320001 -2.27 1.272 1
3.5309999 -2.2690001 1.348 1
3.5280001 -2.3659999 1.493 1
3.53 -2.273 1.4299999 1
3.529 -2.3340001 1.4299999 1
3.533 -2.224 1.2539999 1
3.5320001 -2.2219999 1.308 1
3.529 -2.2820001 1.455 1
3.533 -2.1719999 1.2869999 1
3.5309999 -2.3 1.3200001 1
3.533 -2.2520001 1.244 1
3.529 -2.3269999 1.473 1
3.53 -2.279 1.433 1
3.5309999 -2.25 1.373 1
3.529 -2.342 1.467 1
3.53 -2.256 1.411 1
3.5320001 -2.2309999 1.311 1
3.529 -2.332 1.479 1
3.53 -2.3150001 1.395 1
3.5280001 -2.375 1.495 1
3.529 -2.277 1.452 1
3.53 -2.3269999 1.423 1
3.5309999 -2.319 1.341 1
3.5309999 -2.181 1.3660001 1
3.53 -2.2449999 1.398 1
3.533 -2.2160001 1.262 1
3.53 -2.2690001 1.429 1
3.5280001 -2.3410001 1.484 1
3.53 -2.323 1.405 1
3.5280001 -2.4000001 1.4859999 1
3.5309999 -2.279 1.377 1
3.527 -2.4289999 1.546 1
3.5309999 -2.2379999 1.3660001 1
3.533 -2.1900001 1.275 1
3.533 -2.257 1.24 1
3.5309999 -2.2079999 1.3890001 1
3.533 -2.299 1.2589999 1
3.529 -2.3150001 1.4349999 1
3.53 -2.3269999 1.4119999 1
3.5320001 -2.277 1.289 1
3.53 -2.302 1.421 1
3.5320001 -2.1240001 1.3329999 1
3.527 -2.431 1.539 1
3.5280001 -2.395 1.506 1
3.53 -2.3010001 1.399 1
3.533 -2.283 1.233 1
3.5309999 -2.2590001 1.37 1
3.53 -2.346 1.405 1
3.53 -2.2739999 1.438 1
3.5280001 -2.3929999 1.474 1
3.5320001 -2.1919999 1.313 1
3.5320001 -2.2509999 1.2920001 1
3.5280001 -2.369 1.4910001 1
3.5320001 -2.181 1.335 1
3.529 -2.3180001 1.467 1
3.53 -2.296 1.411 1
3.533 -2.234 1.226 1
3.529 -2.3210001 1.465 1
3.5309999 -2.257 1.383 1
3.533 -2.2679999 1.263 1
3.527 -2.4070001 1.525 1
3.5280001 -2.405 1.4910001 1
3.533 -2.2219999 1.249 1
3.533 -2.2520001 1.243 1
3.5320001 -2.164 1.322 1
3.53 -2.293 1.414 1
3.529 -2.332 1.427 1
3.5320001 -2.1589999 1.349 1
3.529 -2.3310001 1.429 1
3.53 -2.339 1.4119999 1
3.5320001 -2.2709999 1.289 1
3.529 -2.3 1.467 1
3.5320001 -2.1789999 1.339 1
3.5309999 -2.326 1.35 1
3.53 -2.25 1.404 1
3.5320001 -2.2360001 1.286 1
3.53 -2.335 1.392 1
3.5320001 -2.1930001 1.331 1
3.533 -2.2739999 1.2180001 1
3.5320001 -2.263 1.279 1
3.5320001 -2.267 1.286 1
3.5320001 -2.164 1.3380001 1
3.529 -2.2869999 1.456 1
3.529 -2.3410001 1.434 1
3.5309999 -2.158 1.363 1
3.5309999 -2.2449999 1.388 1
3.533 -2.2409999 1.271 1
3.5309999 -2.3329999 1.353 1
3.533 -2.2490001 1.252 1
3.5320001 -2.1630001 1.329 1
3.5309999 -2.3299999 1.346 1
3.529 -2.3269999 1.438 1
3.53 -2.2249999 1.405 1
3.5309999 -2.323 1.3609999 1
3.5320001 -2.142 1.346 1
3.5309999 -2.3380001 1.348 1
3.5309999 -2.198 1.362 1
3.529 -2.3829999 1.46 1
3.5320001 -2.1600001 1.351 1
3.5309999 -2.323 1.345 1
3.5309999 -2.2920001 1.345 1
3.53 -2.355 1.381 1
3.533 -2.286 1.2359999 1
3.5320001 -2.211 1.288 1
3.53 -2.2620001 1.4 1
3.53 -2.2520001 1.399 1
3.53 -2.3710001 1.409 1
3.53 -2.2520001 1.399 1
3.53 -2.3269999 1.4170001 1
3.5309999 -2.2520001 1.374 1
3.53 -2.3570001 1.399 1
3.5280001 -2.3970001 1.482 1
3.5320001 -2.2739999 1.327 1
3.5320001 -2.1670001 1.3049999 1
3.529 -2.3710001 1.4400001 1
3.5320001 -2.1830001 1.3099999 1
3.5309999 -2.165 1.363 1
3.529 -2.313 1.454 1
3.5309999 -2.233 1.34 1
3.5309999 -2.211 1.375 1
3.5320001 -2.1429999 1.329 1
3.5309999 -2.3099999 1.318 1
3.5309999 -2.2349999 1.348 1
3.529 -2.3410001 1.474 1
3.53 -2.3150001 1.4 1
3.5309999 -2.3150001 1.3660001 1
3.533 -2.273 1.2539999 1
3.5320001 -2.303 1.276 1
3.5309999 -2.325 1.364 1
3.53 -2.2750001 1.387 1
3.529 -2.3759999 1.4400001 1
3.5309999 -2.22 1.397 1
3.53 -2.299 1.405 1
3.527 -2.4159999 1.5319999 1
3.5309999 -2.3010001 1.372 1
3.5309999 -2.2780001 1.364 1
3.533 -2.2060001 1.255 1
3.527 -2.4260001 1.538 1
3.5309999 -2.2219999 1.377 1
3.533 -2.247 1.225 1
3.5309999 -2.2980001 1.378 1
3.5320001 -2.277 1.286 1
3.529 -2.372 1.444 1
3.529 -2.3559999 1.4680001 1
3.53 -2.2939999 1.3940001 1
3.5320001 -2.154 1.3380001 1
3.5320001 -2.3080001 1.284 1
3.527 -2.4330001 1.545 1
3.5309999 -2.2119999 1.396 1
3.5280001 -2.368 1.478 1
3.5320001 -2.1359999 1.342 1
3.5320001 -2.2869999 1.274 1
3.5309999 -2.1960001 1.388 1
3.5320001 -2.2219999 1.312 1
3.533 -2.2390001 1.25 1
3.533 -2.2820001 1.2309999 1
3.5320001 -2.1919999 1.302 1
3.523 -2.4449999 1.804 1
3.523 -2.4460001 1.774 1
3.523 -2.4189999 1.779 1
3.5220001 -2.404 1.885 1
3.5220001 -2.3759999 1.892 1
3.5220001 -2.3429999 1.873 1
3.523 -2.513 1.755 1
3.5220001 -2.2969999 1.918 1
3.5220001 -2.457 1.847 1
3.526 -2.4579999 1.589 1
3.5250001 -2.4779999 1.67 1
3.5239999 -2.408 1.765 1
3.5220001 -2.483 1.7970001 1
3.5239999 -2.5439999 1.699 1
3.5239999 -2.494 1.681 1
3.5220001 -2.4289999 1.8559999 1
3.5209999 -2.5710001 1.821 1
3.5220001 -2.3699999 1.885 1
3.5239999 -2.4460001 1.733 1
3.5239999 -2.477 1.694 1
3.5220001 -2.5420001 1.798 1
3.523 -2.3510001 1.807 1
3.5209999 -2.506 1.863 1
3.5220001 -2.4389999 1.851 1
3.5250001 -2.444 1.671 1
3.5239999 -2.4059999 1.739 1
3.523 -2.336 1.821 1
3.523 -2.4119999 1.802 1
3.5239999 -2.46 1.743 1
3.5250001 -2.493 1.632 1
3.5239999 -2.441 1.75 1
3.523 -2.3940001 1.827 1
3.5239999 -2.352 1.793 1
3.5220001 -2.273 1.9 1
3.523 -2.517 1.7410001 1
3.5209999 -2.47 1.882 1
3.5250001 -2.4760001 1.655 1
3.5220001 -2.3759999 1.8710001 1
3.5220001 -2.405 1.854 1
3.5209999 -2.5780001 1.862 1
3.523 -2.325 1.863 1
3.5220001 -2.4879999 1.837 1
3.523 -2.4549999 1.8 1
3.5220001 -2.5710001 1.7690001 1
3.5220001 -2.609 1.786 1
3.5220001 -2.405 1.877 1
3.5220001 -2.441 1.839 1
3.523 -2.5139999 1.742 1
3.5209999 -2.4849999 1.86 1
3.523 -2.5339999 1.771 1
3.523 -2.526 1.74 1
3.5239999 -2.4130001 1.751 1
3.5220001 -2.3740001 1.883 1
3.523 -2.3340001 1.812 1
3.5209999 -2.5580001 1.835 1
3.5250001 -2.4909999 1.635 1
3.5220001 -2.441 1.836 1
3.5209999 -2.467 1.876 1
3.5220001 -2.5150001 1.827 1
3.5239999 -2.398 1.7180001 1
3.5239999 -2.454 1.715 1
3.5220001 -2.5220001 1.825 1
3.5220001 -2.365 1.867 1
3.523 -2.279 1.885 1
3.5209999 -2.5910001 1.829 1
3.5220001 -2.503 1.798 1
3.5239999 -2.372 1.744 1
3.5209999 -2.6370001 1.837 1
3.5220001 -2.2920001 1.899 1
3.523 -2.368 1.817 1
3.5220001 -2.5209999 1.814 1
3.523 -2.402 1.821 1
3.526 -2.454 1.617 1
3.523 -2.506 1.752 1
3.5220001 -2.4630001 1.844 1
3.5239999 -2.447 1.698 1
3.523 -2.5569999 1.743 1
3.523 -2.325 1.825 1
3.5220001 -2.405 1.857 1
3.523 -2.52 1.761 1
3.5220001 -2.5079999 1.7970001 1
3.5220001 -2.5009999 1.832 1
3.5250001 -2.48 1.638 1
3.526 -2.4560001 1.625 1
3.523 -2.52 1.76 1
3.5239999 -2.375 1.738 1
3.5239999 -2.4920001 1.727 1
3.5209999 -2.5469999 1.849 1
3.5220001 -2.398 1.841 1
3.5220001 -2.4649999 1.8099999 1
3.5220001 -2.4890001 1.8430001 1
3.5220001 -2.536 1.8 1
3.523 -2.5650001 1.729 1
3.5220001 -2.375 1.903 1
3.5220001 -2.5369999 1.794 1
3.5220001 -2.579 1.78 1
3.5220001 -2.4790001 1.845 1
3.523 -2.5569999 1.737 1
3.5239999 -2.3629999 1.785 1
3.5209999 -2.553 1.872 1
3.5250001 -2.454 1.64 1
3.5209999 -2.5420001 1.8430001 1
3.52 -2.6289999 1.854 1
3.523 -2.362 1.793 1
3.5220001 -2.447 1.868 1
3.523 -2.355 1.839 1
3.523 -2.3870001 1.784 1
3.523 -2.3759999 1.832 1
3.52 -2.651 1.853 1
3.5239999 -2.4909999 1.709 1
3.523 -2.5480001 1.761 1
3.5250001 -2.4000001 1.688 1
3.523 -2.3989999 1.777 1
3.5209999 -2.4890001 1.86 1
3.523 -2.536 1.7690001 1
3.523 -2.3510001 1.836 1
3.5209999 -2.598 1.804 1
3.5220001 -2.473 1.836 1
3.5250001 -2.506 1.653 1
3.5239999 -2.513 1.678 1
3.523 -2.3280001 1.841 1
3.5239999 -2.4649999 1.707 1
3.523 -2.5190001 1.763 1
3.523 -2.3829999 1.8279999 1
3.5250001 -2.381 1.7180001 1
3.523 -2.4820001 1.7920001 1
3.5220001 -2.3789999 1.882 1
3.5220001 -2.3800001 1.851 1
3.5220001 -2.5109999 1.831 1
3.5220001 -2.493 1.811 1
3.5220001 -2.553 1.818 1
3.5220001 -2.404 1.841 1
3.5209999 -2.5940001 1.8279999 1
3.523 -2.398 1.786 1
3.5250001 -2.411 1.666 1
3.5250001 -2.473 1.665 1
3.5239999 -2.4170001 1.745 1
3.5250001 -2.4089999 1.698 1
3.5220001 -2.323 1.895 1
3.5220001 -2.4300001 1.835 1
3.5209999 -2.5899999 1.835 1
3.5250001 -2.4890001 1.632 1
3.5239999 -2.4000001 1.755 1
3.5220001 -2.51 1.829 1
3.5220001 -2.2750001 1.9 1
3.5239999 -2.4749999 1.686 1
3.5209999 -2.5009999 1.8609999 1
3.523 -2.471 1.765 1
3.5209999 -2.5999999 1.814 1
3.5220001 -2.4719999 1.832 1
3.5220001 -2.6110001 1.789 1
3.5209999 -2.4549999 1.883 1
3.5250001 -2.4979999 1.663 1
3.5220001 -2.4230001 1.874 1
3.5220001 -2.3529999 1.862 1
3.5239999 -2.477 1.683 1
3.523 -2.411 1.793 1
3.5250001 -2.4419999 1.647 1
3.5239999 -2.3429999 1.795 1
3.5250001 -2.438 1.678 1
3.5239999 -2.3870001 1.7309999 1
3.52 -2.6429999 1.853 1
3.5239999 -2.4960001 1.714 1
3.523 -2.5339999 1.744 1
3.523 -2.369 1.824 1
3.523 -2.4920001 1.75 1
3.523 -2.3859999 1.804 1
3.5209999 -2.6159999 1.8380001 1
3.523 -2.3510001 1.802 1
3.5220001 -2.405 1.8609999 1
3.5209999 -2.5109999 1.877 1
3.5209999 -2.493 1.869 1
