# .PCD v0.7 - Point Cloud Data file format
VERSION 0.7
FIELDS x y z label
SIZE 4 4 4 4
TYPE F F F U
COUNT 1 1 1 1
WIDTH 1544
HEIGHT 1
VIEWPOINT 0 0 0 1 0 0 0
POINTS 1544
DATA ascii
9.8310003 -6.2480001 1.036 1
9.8299999 -6.2779999 0.93199998 1
9.8319998 -6.1929998 1.105 1
9.8319998 -6.2309999 1.255 1
9.8310003 -6.2870002 1.094 1
9.8310003 -6.256 1.107 1
9.8310003 -6.2189999 1.023 1
9.8330002 -6.1479998 1.257 1
9.8310003 -6.2509999 1.011 1
9.8310003 -6.237 0.93000001 1
9.8319998 -6.2360001 1.13 1
9.8319998 -6.257 1.268 1
9.8310003 -6.2750001 0.98000002 1
9.8319998 -6.2319999 1.077 1
9.8310003 -6.2140002 0.95599997 1
9.8319998 -6.2069998 1.186 1
9.8319998 -6.1799998 0.97500002 1
9.8310003 -6.2649999 1.1339999 1
9.8310003 -6.2670002 1.043 1
9.8310003 -6.2150002 0.96600002 1
9.8299999 -6.2810001 0.90100002 1
9.8319998 -6.211 1.221 1
9.8319998 -6.1440001 1.044 1
9.8319998 -6.2709999 1.262 1
9.8330002 -6.2579999 1.368 1
9.8319998 -6.2090001 1.193 1
9.8330002 -6.1279998 1.113 1
9.8330002 -6.164 1.178 1
9.8339996 -6.0679998 1.179 1
9.8330002 -6.1690001 1.199 1
9.8330002 -6.1589999 1.275 1
9.8339996 -6.072 1.14 1
9.8299999 -6.277 0.83200002 1
9.8310003 -6.2420001 0.90200001 1
9.8319998 -6.2849998 1.2640001 1
9.8339996 -6.0830002 1.179 1
9.8330002 -6.112 1.179 1
9.8319998 -6.2010002 1.1799999 1
9.8330002 -6.2379999 1.334 1
9.8310003 -6.2480001 1.0470001 1
9.8319998 -6.2270002 1.178 1
9.8319998 -6.1789999 0.98699999 1
9.8310003 -6.25 1.039 1
9.8319998 -6.1680002 1.118 1
9.8330002 -6.2360001 1.2970001 1
9.8319998 -6.2129998 1.183 1
9.8330002 -6.1090002 1.158 1
9.8330002 -6.0869999 1.1440001 1
9.8319998 -6.2290001 1.263 1
9.8299999 -6.2849998 0.949 1
9.8319998 -6.211 1.123 1
9.8330002 -6.098 1.1569999 1
9.8339996 -6.086 1.199 1
9.8319998 -6.2309999 1.161 1
9.8330002 -6.263 1.346 1
9.8319998 -6.197 1.057 1
9.8339996 -6.1079998 1.223 1
9.8310003 -6.263 0.96899998 1
9.8330002 -6.237 1.35 1
9.8319998 -6.2649999 1.1900001 1
9.8330002 -6.2210002 1.2589999 1
9.8319998 -6.2259998 1.248 1
9.8319998 -6.2319999 1.223 1
9.8319998 -6.27 1.21 1
9.8330002 -6.1079998 1.109 1
9.8319998 -6.237 1.184 1
9.8330002 -6.1859999 1.204 1
9.8339996 -6.0710001 1.1849999 1
9.8319998 -6.2789998 1.1900001 1
9.8310003 -6.2449999 1.026 1
9.8319998 -6.1750002 1.13 1
9.8310003 -6.224 1.003 1
9.8310003 -6.2649999 1.062 1
9.8319998 -6.2529998 1.2819999 1
9.8310003 -6.2519999 0.97799999 1
9.8310003 -6.23 0.99599999 1
9.8310003 -6.2639999 0.99299997 1
9.8319998 -6.2160001 1.049 1
9.8310003 -6.29 1.054 1
9.8310003 -6.276 1.0880001 1
9.8330002 -6.119 1.0930001 1
9.8319998 -6.2290001 1.252 1
9.8310003 -6.2909999 1.028 1
9.8310003 -6.2670002 1.0599999 1
9.8330002 -6.1570001 1.147 1
9.8319998 -6.2090001 1.062 1
9.8319998 -6.1939998 1.181 1
9.8319998 -6.1859999 1.005 1
9.8310003 -6.243 0.97100002 1
9.8319998 -6.2519999 1.1619999 1
9.8330002 -6.1669998 1.244 1
9.8310003 -6.2519999 1.05 1
9.8319998 -6.2859998 1.274 1
9.8330002 -6.1869998 1.284 1
9.8310003 -6.2410002 1.021 1
9.8319998 -6.1490002 1.044 1
9.8319998 -6.2059999 1.063 1
9.8319998 -6.25 1.1210001 1
9.8299999 -6.2659998 0.91900003 1
9.8319998 -6.1799998 1.031 1
9.8339996 -6.0679998 1.175 1
9.8330002 -6.1389999 1.158 1
9.8319998 -6.2529998 1.256 1
9.8310003 -6.256 0.98199999 1
9.8310003 -6.2249999 1.04 1
9.8330002 -6.1869998 1.219 1
9.8319998 -6.1960001 1.076 1
9.8299999 -6.2659998 0.87599999 1
9.8319998 -6.2579999 1.1289999 1
9.8330002 -6.1259999 1.143 1
9.8310003 -6.2329998 0.98400003 1
9.8319998 -6.1890001 1.073 1
9.8319998 -6.1789999 1.064 1
9.8310003 -6.2680001 1.059 1
9.8330002 -6.1079998 1.1900001 1
9.8330002 -6.099 1.156 1
9.8330002 -6.1479998 1.097 1
9.8330002 -6.2449999 1.3559999 1
9.8319998 -6.223 1.2079999 1
9.8319998 -6.2670002 1.337 1
9.8330002 -6.211 1.272 1
9.8310003 -6.276 0.98199999 1
9.8330002 -6.1609998 1.114 1
9.8310003 -6.243 0.99699998 1
9.8330002 -6.1869998 1.294 1
9.8310003 -6.2420001 0.88300002 1
9.8330002 -6.1209998 1.184 1
9.8319998 -6.276 1.16 1
9.8319998 -6.2470002 1.165 1
9.8330002 -6.1859999 1.227 1
9.8310003 -6.276 1.145 1
9.8319998 -6.2119999 1.2079999 1
9.8310003 -6.243 1.0039999 1
9.8319998 -6.224 1.104 1
9.8319998 -6.2859998 1.29 1
9.8330002 -6.132 1.095 1
9.8319998 -6.256 1.137 1
9.8310003 -6.2220001 0.98699999 1
9.8330002 -6.1719999 1.1720001 1
9.8330002 -6.1500001 1.223 1
9.8330002 -6.1900001 1.228 1
9.8330002 -6.1760001 1.2 1
9.8330002 -6.2020001 1.279 1
9.8330002 -6.1810002 1.302 1
9.8310003 -6.2529998 0.97399998 1
9.8310003 -6.2779999 1.1390001 1
9.8310003 -6.2340002 1.001 1
9.8319998 -6.2340002 1.26 1
9.8319998 -6.2249999 1.219 1
9.8319998 -6.2800002 1.324 1
9.8310003 -6.204 0.95999998 1
9.8330002 -6.1259999 1.176 1
9.8319998 -6.1810002 1.034 1
9.8330002 -6.2449999 1.3430001 1
9.8330002 -6.2090001 1.273 1
9.8330002 -6.198 1.319 1
9.8330002 -6.0879998 1.112 1
9.8319998 -6.1960001 1.104 1
9.8319998 -6.1880002 1.066 1
9.8310003 -6.2270002 0.90600002 1
9.8310003 -6.2610002 0.95599997 1
9.8330002 -6.2059999 1.25 1
9.8319998 -6.178 1.108 1
9.8319998 -6.23 1.233 1
9.8319998 -6.1719999 1.002 1
9.8330002 -6.131 1.1210001 1
9.8319998 -6.2680001 1.268 1
9.8310003 -6.263 0.99800003 1
9.8319998 -6.2490001 1.188 1
9.8299999 -6.2810001 0.84299999 1
9.8330002 -6.132 1.1339999 1
9.8389997 -6.2579999 2.145 1
9.8389997 -6.1929998 2.118 1
9.8389997 -6.2340002 2.0220001 1
9.8389997 -6.2540002 2.105 1
9.8389997 -6.1929998 2.194 1
9.8389997 -6.2620001 2.21 1
9.8380003 -6.1550002 2.2520001 1
9.8380003 -6.0279999 2.178 1
9.8389997 -6.256 2.155 1
9.8389997 -6.2399998 2.0450001 1
9.8389997 -6.2810001 2.187 1
9.8389997 -6.1209998 2.0739999 1
9.8389997 -6.02 2.145 1
9.8380003 -6.033 2.165 1
9.8389997 -6.1830001 2.0669999 1
9.8380003 -6.0939999 2.2290001 1
9.8389997 -6.1440001 2.1229999 1
9.8389997 -6.1560001 2.0650001 1
9.8389997 -6.2410002 2.112 1
9.8389997 -6.2880001 2.1040001 1
9.8389997 -6.073 2.109 1
9.8389997 -6.2670002 2.013 1
9.8380003 -6.119 2.1900001 1
9.8389997 -6.1939998 2.043 1
9.8380003 -6.1950002 2.214 1
9.8380003 -6.2119999 2.2390001 1
9.8380003 -6.1069999 2.1930001 1
9.8389997 -6.243 2.0710001 1
9.8389997 -6.132 2.085 1
9.8380003 -6.1350002 2.22 1
9.8389997 -6.2659998 2.152 1
9.8389997 -6.2820001 2.0309999 1
9.8389997 -6.27 2.066 1
9.8389997 -6.2410002 2.2060001 1
9.8389997 -6.2719998 2.161 1
9.8389997 -6.2680001 2.105 1
9.8380003 -6.2490001 2.2709999 1
9.8389997 -6.2379999 2.1489999 1
9.8389997 -6.1939998 2.1819999 1
9.8389997 -6.1939998 2.1960001 1
9.8389997 -6.2049999 2.0599999 1
9.8389997 -6.1820002 2.0899999 1
9.8380003 -6.2589998 2.243 1
9.8389997 -6.2150002 2.0799999 1
9.8389997 -6.085 2.1259999 1
9.8389997 -6.2379999 2.1500001 1
9.8389997 -6.197 2.0469999 1
9.8380003 -6.2480001 2.217 1
9.8389997 -6.145 2.1689999 1
9.8380003 -6.2030001 2.2620001 1
9.8389997 -6.2779999 2.21 1
9.8389997 -6.1430001 2.108 1
9.8380003 -6.2249999 2.211 1
9.8389997 -6.263 2.2160001 1
9.8389997 -6.2810001 2.1029999 1
9.8389997 -6.1789999 2.069 1
9.8380003 -6.0159998 2.1700001 1
9.8389997 -6.1430001 2.1760001 1
9.8389997 -6.052 2.1300001 1
9.8380003 -5.9840002 2.1659999 1
9.8389997 -6.2470002 2.105 1
9.8389997 -6.171 2.076 1
9.8389997 -6.2389998 2.1059999 1
9.8389997 -6.1739998 2.0780001 1
9.8389997 -6.283 2.1570001 1
9.8389997 -5.9889998 2.148 1
9.8380003 -6.1700001 2.2320001 1
9.8389997 -6.2150002 2.1989999 1
9.8389997 -6.2270002 2.098 1
9.8389997 -6.2750001 2.1670001 1
9.8380003 -6.191 2.2309999 1
9.8389997 -6.1999998 2.131 1
9.8380003 -6.1220002 2.207 1
9.8389997 -6.1810002 2.1170001 1
9.8389997 -6.066 2.1300001 1
9.8380003 -6.2490001 2.2679999 1
9.8389997 -6.237 2.1229999 1
9.8389997 -6.2010002 2.085 1
9.8400002 -6.2779999 1.989 1
9.8380003 -6.0240002 2.21 1
9.8389997 -6.2399998 2.052 1
9.8389997 -6.2459998 2.155 1
9.8389997 -6.2709999 2.1730001 1
9.8380003 -6.1799998 2.2190001 1
9.8389997 -6.0999999 2.118 1
9.8389997 -6.29 2.21 1
9.8389997 -6.0999999 2.1229999 1
9.8380003 -6.1690001 2.2309999 1
9.8389997 -6.197 2.188 1
9.8389997 -6.1620002 2.125 1
9.8389997 -6.2719998 2.1700001 1
9.8389997 -6.1810002 2.0569999 1
9.8380003 -6.2719998 2.266 1
9.8380003 -6.2090001 2.214 1
9.8389997 -6.2280002 2.1589999 1
9.8389997 -6.1209998 2.1700001 1
9.8380003 -6.2020001 2.2409999 1
9.8389997 -6.1680002 2.108 1
9.8389997 -6.131 2.1719999 1
9.8380003 -6.2579999 2.2750001 1
9.8380003 -6.211 2.223 1
9.8380003 -6.0739999 2.214 1
9.8380003 -6.1859999 2.26 1
9.8389997 -6.2680001 2.052 1
9.8380003 -6.29 2.2290001 1
9.8380003 -6.2340002 2.257 1
9.8389997 -6.1989999 2.0420001 1
9.8389997 -6.2290001 2.1029999 1
9.8389997 -6.0869999 2.1670001 1
9.8389997 -6.184 2.0409999 1
9.8389997 -6.23 2.0380001 1
9.8389997 -6.1950002 2.135 1
9.8380003 -6.2280002 2.227 1
9.8389997 -6.1479998 2.152 1
9.8380003 -6.211 2.2490001 1
9.8389997 -6.1960001 2.109 1
9.8389997 -6.243 2.1800001 1
9.8380003 -6.2659998 2.2579999 1
9.8389997 -6.2620001 2.1889999 1
9.8389997 -6.2800002 2.1370001 1
9.8389997 -6.2220001 2.1989999 1
9.8380003 -6.2199998 2.2590001 1
9.8389997 -6.1490002 2.118 1
9.8380003 -6.0159998 2.2090001 1
9.8380003 -6.0159998 2.1570001 1
9.8389997 -6.2290001 2.168 1
9.8389997 -6.1820002 2.171 1
9.8389997 -6.2319999 2.039 1
9.8380003 -6.2280002 2.2520001 1
9.8380003 -5.9809999 2.1730001 1
9.8380003 -5.9790001 2.1659999 1
9.8389997 -6.1090002 2.1099999 1
9.8389997 -6.1989999 2.0510001 1
9.8380003 -6.0609999 2.1819999 1
9.8389997 -6.2329998 2.187 1
9.8389997 -6.1409998 2.0710001 1
9.8389997 -6.0890002 2.092 1
9.8389997 -6.237 2.175 1
9.8389997 -6.2859998 2.1240001 1
9.8400002 -6.289 1.987 1
9.8389997 -6.2049999 2.0510001 1
9.8389997 -6.2849998 2.0680001 1
9.8380003 -6.2600002 2.224 1
9.8389997 -6.119 2.135 1
9.8380003 -6.2649999 2.27 1
9.8389997 -6.2810001 2.1689999 1
9.8389997 -6.1719999 2.0669999 1
9.8389997 -6.1279998 2.177 1
9.8389997 -6.1700001 2.0829999 1
9.8380003 -6.1820002 2.2130001 1
9.8389997 -6.2690001 2.188 1
9.8389997 -6.1539998 2.125 1
9.8389997 -6.2719998 2.188 1
9.8380003 -5.9749999 2.1849999 1
9.8380003 -6.197 2.2260001 1
9.8380003 -6.0949998 2.227 1
9.8389997 -6.2020001 2.1099999 1
9.8389997 -6.1760001 2.1830001 1
9.8380003 -6.2189999 2.2190001 1
9.8389997 -6.164 2.1429999 1
9.8389997 -6.2290001 2.165 1
9.8380003 -6.1680002 2.247 1
9.8389997 -6.059 2.1099999 1
9.8380003 -6.0929999 2.221 1
9.8389997 -6.2750001 2.066 1
9.8380003 -5.993 2.187 1
9.8389997 -6.2509999 2.0409999 1
9.8389997 -6.1669998 2.1270001 1
9.8389997 -6.2509999 2.046 1
9.8380003 -5.9569998 2.171 1
9.8389997 -6.21 2.0320001 1
9.8380003 -6.105 2.204 1
9.8389997 -6.2859998 2.155 1
9.8389997 -6.1950002 2.125 1
9.8389997 -6.2680001 2.073 1
9.8380003 -6.2490001 2.2750001 1
9.8389997 -6.098 2.1670001 1
9.8389997 -6.1550002 2.1700001 1
9.8380003 -6.0900002 2.2060001 1
9.8380003 -6.1459999 2.191 1
9.8389997 -6.1680002 2.096 1
9.8380003 -6.0359998 2.1849999 1
9.8389997 -6.2389998 2.0650001 1
9.8389997 -6.2150002 2.05 1
9.8389997 -6.2659998 2.0869999 1
9.8380003 -6.1009998 2.2190001 1
9.8380003 -6 2.1800001 1
9.8389997 -6.2420001 2.1370001 1
9.8380003 -5.9520001 2.1700001 1
9.8380003 -5.9580002 2.1800001 1
9.8389997 -6.2550001 2.1070001 1
9.8389997 -6.2160001 2.138 1
9.8380003 -6.283 2.2520001 1
9.8380003 -6.027 2.181 1
9.8389997 -6.1630001 2.141 1
9.8389997 -6.237 2.1389999 1
9.8380003 -6.105 2.184 1
9.8389997 -6.2740002 2.128 1
9.8380003 -6.1209998 2.197 1
9.8389997 -6.132 2.1170001 1
9.8380003 -6.0900002 2.2060001 1
9.8389997 -6.289 2.1329999 1
9.8380003 -6.0760002 2.2079999 1
9.8380003 -6.0009999 2.1900001 1
9.8389997 -6.0599999 2.151 1
9.8389997 -6.2420001 2.158 1
9.8389997 -6.23 2.177 1
9.8389997 -6.125 2.0929999 1
9.8389997 -6.244 2.1010001 1
9.8380003 -6.223 2.244 1
9.8389997 -6.2680001 2.1199999 1
9.8389997 -6.165 2.1600001 1
9.8389997 -6.1040001 2.1270001 1
9.8380003 -6.092 2.2309999 1
9.8380003 -6.2420001 2.2249999 1
9.8389997 -6.1040001 2.148 1
9.8389997 -6.1669998 2.1359999 1
9.8389997 -6.2540002 2.062 1
9.8380003 -6.033 2.1830001 1
9.8400002 -6.2919998 1.984 1
9.8380003 -6.2789998 2.256 1
9.8380003 -6.2579999 2.2520001 1
9.8389997 -6.105 2.099 1
9.8380003 -6.0599999 2.178 1
9.8380003 -5.9809999 2.174 1
9.8389997 -6.2579999 2.112 1
9.8389997 -6.1430001 2.1370001 1
9.8389997 -6.237 2.201 1
9.8389997 -6.0879998 2.1719999 1
9.8389997 -6.25 2.1659999 1
9.8389997 -6.1750002 2.1400001 1
9.8389997 -6.0489998 2.1470001 1
9.8389997 -6.1810002 2.0639999 1
9.8389997 -6.1430001 2.128 1
9.8380003 -6.1300001 2.217 1
9.8389997 -6.1929998 2.1630001 1
9.8380003 -6.257 2.2750001 1
9.8389997 -6.1729999 2.076 1
9.8389997 -6.1739998 2.1300001 1
9.8380003 -6.1459999 2.2190001 1
9.8380003 -6.2690001 2.276 1
9.8389997 -6.0760002 2.1070001 1
9.8380003 -6.2140002 2.2309999 1
9.8380003 -6.1729999 2.2279999 1
9.8389997 -6.1059999 2.125 1
9.8380003 -5.9660001 2.1730001 1
9.8380003 -6.1550002 2.2219999 1
9.8389997 -6.2789998 2.1359999 1
9.8380003 -6.0770001 2.1889999 1
9.8380003 -6.1360002 2.2309999 1
9.8380003 -6.1849999 2.2460001 1
9.8380003 -6.0570002 2.1670001 1
9.8380003 -6.2020001 2.2260001 1
9.8380003 -6.132 2.2060001 1
9.8389997 -6.2810001 2.027 1
9.8389997 -6.2849998 2.03 1
9.8389997 -6.25 2.155 1
9.8380003 -6.243 2.2490001 1
9.8380003 -6.283 2.2690001 1
9.8380003 -6.0229998 2.1630001 1
9.8389997 -6.0479999 2.161 1
9.8389997 -6.1929998 2.0580001 1
9.8380003 -6.1290002 2.204 1
9.8389997 -6.2150002 2.0420001 1
9.8380003 -6.0939999 2.2130001 1
9.8380003 -6.0669999 2.2090001 1
9.8389997 -6.2839999 2.1819999 1
9.8380003 -6.2859998 2.2309999 1
9.8389997 -6.1040001 2.164 1
9.8380003 -5.9879999 2.152 1
9.8389997 -6.289 2.119 1
9.8380003 -6.2270002 2.2520001 1
9.8380003 -6.2449999 2.2379999 1
9.8389997 -6.105 2.1229999 1
9.8389997 -6.1090002 2.1029999 1
9.8380003 -6.1869998 2.234 1
9.8380003 -5.9450002 2.1719999 1
9.8380003 -6.2610002 2.2460001 1
9.8389997 -6.2280002 2.1789999 1
9.8389997 -6.171 2.1849999 1
9.8389997 -6.112 2.1630001 1
9.8389997 -6.2519999 2.0829999 1
9.8380003 -6.1259999 2.2379999 1
9.8389997 -6.2639999 2.1400001 1
9.8389997 -6.2610002 2.0710001 1
9.8389997 -6.2010002 2.1440001 1
9.8389997 -6.039 2.1589999 1
9.8389997 -6.2509999 2.0250001 1
9.8380003 -6.0120001 2.2079999 1
9.8389997 -6.191 2.085 1
9.8389997 -6.2529998 2.1500001 1
9.8389997 -6.21 2.1719999 1
9.8380003 -6.243 2.257 1
9.8380003 -6.244 2.25 1
9.8380003 -6.1329999 2.244 1
9.8389997 -6.1999998 2.2030001 1
9.8389997 -6.2319999 2.0739999 1
9.8380003 -6.0040002 2.194 1
9.8389997 -6.2160001 2.027 1
9.8389997 -6.2550001 2.0109999 1
9.8380003 -6.099 2.207 1
9.8380003 -6.277 2.243 1
9.8389997 -6.1409998 2.164 1
9.8389997 -6.2680001 2.145 1
9.8389997 -6.25 2.086 1
9.8389997 -6.138 2.1099999 1
9.8389997 -6.0570002 2.155 1
9.8389997 -6.2639999 2.214 1
9.8380003 -6.2379999 2.2709999 1
9.8380003 -6.1389999 2.2160001 1
9.8380003 -6.0770001 2.1860001 1
9.8389997 -6.2059999 2.0439999 1
9.8380003 -6.0359998 2.2049999 1
9.8389997 -6.2729998 2.0050001 1
9.8389997 -6.165 2.1210001 1
9.8389997 -6.1810002 2.191 1
9.8389997 -6.2589998 2.072 1
9.8389997 -6.256 2.0380001 1
9.8380003 -5.9759998 2.1559999 1
9.8380003 -5.9369998 2.1849999 1
9.8380003 -6.1999998 2.244 1
9.8380003 -6.145 2.224 1
9.8389997 -6.0799999 2.1700001 1
9.8380003 -6.1040001 2.1900001 1
9.8389997 -6.2470002 2.175 1
9.8389997 -6.2319999 2.148 1
9.8389997 -6.1020002 2.099 1
9.8389997 -6.237 2.029 1
9.8380003 -6.0929999 2.221 1
9.8389997 -6.1999998 2.072 1
9.8389997 -6.1589999 2.1630001 1
9.8389997 -6.237 2.188 1
9.8380003 -6.1339998 2.198 1
9.8389997 -6.2859998 2.204 1
9.8389997 -6.2389998 2.089 1
9.8380003 -6.2690001 2.26 1
9.8389997 -6.211 2.052 1
9.8380003 -6.223 2.2279999 1
9.8380003 -6.25 2.256 1
9.8380003 -6.1690001 2.2019999 1
9.8380003 -6.0960002 2.1960001 1
9.8389997 -6.244 2.0550001 1
9.8380003 -6.1999998 2.204 1
9.8389997 -6.2719998 2.0910001 1
9.8380003 -6.224 2.227 1
9.8380003 -6.2639999 2.2720001 1
9.8380003 -6.007 2.2049999 1
9.8380003 -6.1960001 2.2520001 1
9.8389997 -6.2210002 2.082 1
9.8389997 -6.29 2.098 1
9.8389997 -6.1630001 2.1860001 1
9.8380003 -6.256 2.25 1
9.8389997 -6.1009998 2.115 1
9.8389997 -6.1880002 2.0810001 1
9.8389997 -6.151 2.1329999 1
9.8389997 -6.2680001 2.2130001 1
9.8389997 -6.1820002 2.062 1
9.8389997 -6.1199999 2.0999999 1
9.8389997 -6.125 2.0999999 1
9.8380003 -6.0500002 2.1760001 1
9.8380003 -6.145 2.233 1
9.8389997 -6.066 2.119 1
9.8380003 -6.0409999 2.1900001 1
9.8389997 -6.138 2.105 1
9.8389997 -6.2649999 2.1110001 1
9.8389997 -6.237 2.1289999 1
9.8389997 -6.223 2.204 1
9.8389997 -6.2160001 2.142 1
9.8380003 -6.2350001 2.2409999 1
9.8389997 -6.086 2.1700001 1
9.8380003 -6.1430001 2.2390001 1
9.8380003 -6.165 2.2219999 1
9.8389997 -6.1830001 2.1259999 1
9.8389997 -6.1729999 2.138 1
9.8389997 -6.2519999 2.211 1
9.8380003 -5.993 2.1670001 1
9.8389997 -6.0799999 2.1059999 1
9.8380003 -6.2579999 2.2349999 1
9.8389997 -6.1570001 2.1240001 1
9.8389997 -6.211 2.177 1
9.8389997 -6.2750001 2.033 1
9.8389997 -6.118 2.178 1
9.8380003 -5.9840002 2.151 1
9.8389997 -6.2249999 2.1429999 1
9.8389997 -6.2389998 2.062 1
9.8389997 -6.243 2.21 1
9.8380003 -5.9590001 2.1659999 1
9.8389997 -6.2690001 2.1470001 1
9.8380003 -6.0689998 2.1960001 1
9.8380003 -6.1069999 2.211 1
9.8389997 -6.1550002 2.1889999 1
9.8389997 -6.237 2.1070001 1
9.8389997 -6.2709999 2.2160001 1
9.8389997 -6.2459998 2.1960001 1
9.8380003 -6.0409999 2.2019999 1
9.8380003 -6.1739998 2.22 1
9.8389997 -6.0869999 2.1619999 1
9.8389997 -6.1370001 2.1099999 1
9.8380003 -6.085 2.214 1
9.8389997 -6.1100001 2.098 1
9.8389997 -6.0700002 2.1530001 1
9.8389997 -6.013 2.152 1
9.8389997 -6.0339999 2.155 1
9.8389997 -6.1620002 2.1630001 1
9.8380003 -6.1420002 2.2049999 1
9.8380003 -6.1939998 2.237 1
9.8389997 -6.2119999 2.1289999 1
9.8389997 -6.1149998 2.0810001 1
9.8380003 -6.1529999 2.2060001 1
9.8389997 -6.1339998 2.151 1
9.8380003 -6.2389998 2.2149999 1
9.8389997 -6.2740002 2.1259999 1
9.8389997 -6.1009998 2.1289999 1
9.8389997 -6.165 2.1800001 1
9.8389997 -6.1849999 2.152 1
9.8380003 -6.1110001 2.237 1
9.8389997 -6.217 2.1440001 1
9.8380003 -5.96 2.1830001 1
9.8389997 -6.2210002 2.1459999 1
9.8380003 -5.9629998 2.188 1
9.8389997 -6.2189999 2.0309999 1
9.8389997 -6.1129999 2.1110001 1
9.8380003 -6.033 2.1989999 1
9.8380003 -6.0549998 2.201 1
9.8389997 -6.1459999 2.075 1
9.8380003 -6.1069999 2.1949999 1
9.8389997 -6.0640001 2.145 1
9.8380003 -6.2610002 2.247 1
9.8389997 -6.2589998 2.211 1
9.8389997 -6.0009999 2.142 1
9.8389997 -6.1630001 2.1199999 1
9.8389997 -6.197 2.0869999 1
9.8389997 -6.2179999 2.0969999 1
9.8389997 -6.1139998 2.161 1
9.8389997 -6.2820001 2.027 1
9.8389997 -6.1919999 2.0969999 1
9.8380003 -6.2859998 2.2420001 1
9.8380003 -5.98 2.175 1
9.8389997 -6.257 2.0239999 1
9.8389997 -6.2290001 2.198 1
9.8389997 -6.02 2.154 1
9.8380003 -6.2779999 2.289 1
9.8380003 -5.9660001 2.1689999 1
9.8389997 -6.2620001 2.036 1
9.8389997 -6.1360002 2.089 1
9.8389997 -6.2410002 2.161 1
9.8389997 -6.2480001 2.073 1
9.8389997 -6.1539998 2.1210001 1
9.8389997 -6.2259998 2.184 1
9.8389997 -6.25 2.1270001 1
9.8380003 -6.0669999 2.1760001 1
9.8389997 -6.1799998 2.072 1
9.8380003 -5.9689999 2.1860001 1
9.8380003 -6.0739999 2.1930001 1
9.8380003 -6.072 2.1900001 1
9.8389997 -6.2090001 2.0599999 1
9.8380003 -6.0619998 2.201 1
9.8380003 -5.9840002 2.1600001 1
9.8389997 -6.27 1.997 1
9.8389997 -6.2680001 2.187 1
9.8389997 -6.2709999 2.154 1
9.8389997 -6.2620001 2.1800001 1
9.8389997 -6.0900002 2.095 1
9.8389997 -6.0770001 2.1029999 1
9.8380003 -6.1490002 2.2360001 1
9.8380003 -6.2189999 2.233 1
9.8389997 -6.2490001 2.046 1
9.8389997 -6.2779999 2.089 1
9.8389997 -6.007 2.1500001 1
9.8380003 -6.0219998 2.194 1
9.8389997 -6.1719999 2.0450001 1
9.8380003 -6.1659999 2.2119999 1
9.8380003 -6.052 2.217 1
9.8380003 -6.243 2.2650001 1
9.8389997 -6.2179999 2.1270001 1
9.8389997 -6.2859998 2.0669999 1
9.8389997 -6.1849999 2.0769999 1
9.8389997 -6.1490002 2.0639999 1
9.8380003 -6.0120001 2.1659999 1
9.8380003 -6.0799999 2.1900001 1
9.8380003 -6.0440001 2.217 1
9.8380003 -6.105 2.2349999 1
9.8389997 -6.2659998 1.997 1
9.8389997 -6.2659998 2.056 1
9.8380003 -6.1529999 2.227 1
9.8380003 -6.145 2.1989999 1
9.8389997 -6.0240002 2.152 1
9.8389997 -6.2309999 2.158 1
9.8389997 -6.2509999 2.1029999 1
9.8389997 -6.244 2.128 1
9.8389997 -6.2059999 2.187 1
9.8380003 -6.211 2.237 1
9.8389997 -6.2280002 2.21 1
9.8380003 -6.2480001 2.223 1
9.8389997 -6.132 2.128 1
9.8380003 -6.276 2.2709999 1
9.8389997 -6.198 2.1489999 1
9.8389997 -6.1500001 2.089 1
9.8389997 -6.0840001 2.1570001 1
9.8389997 -6.2290001 2.151 1
9.8389997 -6.1479998 2.1429999 1
9.8389997 -6.1240001 2.1700001 1
9.8389997 -6.1919999 2.1400001 1
9.8389997 -6.1810002 2.079 1
9.8389997 -6.1560001 2.1110001 1
9.8389997 -6.1560001 2.1619999 1
9.8389997 -6.1669998 2.154 1
9.8389997 -6.2179999 2.0840001 1
9.8389997 -6.2199998 2.0309999 1
9.8389997 -6.2579999 2.1600001 1
9.8380003 -6.2020001 2.2460001 1
9.8389997 -6.0650001 2.1170001 1
9.8380003 -6.0419998 2.21 1
9.8380003 -6.204 2.217 1
9.8380003 -6.2719998 2.26 1
9.8389997 -6.2729998 2.21 1
9.8380003 -6.2329998 2.23 1
9.8389997 -6.191 2.04 1
9.8389997 -6.276 2.2090001 1
9.8389997 -6.177 2.155 1
9.8389997 -6.1389999 2.175 1
9.8389997 -6.2290001 2.175 1
9.8389997 -6.2750001 2.131 1
9.8380003 -6.1919999 2.2149999 1
9.8389997 -6.2810001 2.1140001 1
9.8389997 -6.1329999 2.085 1
9.8389997 -6.23 2.174 1
9.8380003 -6.0929999 2.2179999 1
9.8389997 -6.0929999 2.105 1
9.8389997 -6.184 2.056 1
9.8380003 -6.1350002 2.191 1
9.8389997 -6.2399998 2.056 1
9.8389997 -6.0279999 2.1300001 1
9.8389997 -6.2849998 2.204 1
9.8389997 -6.0799999 2.096 1
9.8389997 -6.1040001 2.1070001 1
9.8380003 -6.1890001 2.2190001 1
9.8380003 -6.2820001 2.243 1
9.8389997 -6.257 2.0480001 1
9.8380003 -6.178 2.227 1
9.8389997 -6.0479999 2.155 1
9.8389997 -6.1329999 2.1289999 1
9.8380003 -6.1609998 2.22 1
9.8389997 -6.211 2.0929999 1
9.8380003 -6.1149998 2.2349999 1
9.8389997 -6.1789999 2.0780001 1
9.8389997 -6.0229998 2.1400001 1
9.8380003 -6.2420001 2.2260001 1
9.8380003 -6.0640001 2.1760001 1
9.8389997 -6.2680001 2.0880001 1
9.8389997 -6.118 2.1170001 1
9.8389997 -6.243 2.1760001 1
9.8380003 -6.184 2.2 1
9.8389997 -6.283 2.132 1
9.8389997 -6.1339998 2.0769999 1
9.8389997 -6.2340002 2.1500001 1
9.8389997 -6.2690001 2.1860001 1
9.8389997 -6.1500001 2.1370001 1
9.8389997 -6.2160001 2.1259999 1
9.8389997 -6.2220001 2.0769999 1
9.8380003 -6.2449999 2.24 1
9.8380003 -6.0029998 2.155 1
9.8389997 -6.152 2.1240001 1
9.8389997 -6.217 2.0380001 1
9.8389997 -6.1069999 2.1129999 1
9.8389997 -6.2210002 2.1889999 1
9.8389997 -6.2509999 2.158 1
9.8389997 -6.1529999 2.1559999 1
9.8389997 -6.2449999 2.036 1
9.8389997 -6.0960002 2.108 1
9.8380003 -6.1009998 2.2060001 1
9.8380003 -6.2080002 2.2309999 1
9.8380003 -6.0029998 2.1800001 1
9.8380003 -6.2259998 2.2290001 1
9.8389997 -6.131 2.1570001 1
9.8389997 -6.1849999 2.1670001 1
9.8389997 -6.2620001 2.1619999 1
9.8389997 -6.178 2.085 1
9.8389997 -6.2249999 2.1760001 1
9.8389997 -6.04 2.141 1
9.8290005 -6.0970001 0.70300001 1
9.8280001 -6.2049999 0.704 1
9.8280001 -6.0380001 0.66100001 1
9.8290005 -6.0419998 0.68099999 1
9.8269997 -6.1420002 0.648 1
9.8290005 -6.2800002 0.75599998 1
9.8280001 -6.177 0.671 1
9.8290005 -6.0300002 0.67699999 1
9.8290005 -6.2340002 0.76800001 1
9.8269997 -6.1820002 0.61799997 1
9.8269997 -6.2690001 0.63200003 1
9.8290005 -6.098 0.70999998 1
9.8280001 -6.2459998 0.704 1
9.8280001 -6.2740002 0.699 1
9.8290005 -5.9710002 0.662 1
9.8290005 -6.289 0.75700003 1
9.8269997 -6.2750001 0.65200001 1
9.8280001 -6.2259998 0.68300003 1
9.8280001 -6.0949998 0.671 1
9.8269997 -6.1399999 0.639 1
9.8260002 -6.296 0.62699997 1
9.8290005 -6.1009998 0.69800001 1
9.8269997 -6.2750001 0.67699999 1
9.8269997 -6.1830001 0.64499998 1
9.8280001 -6.1129999 0.676 1
9.8269997 -6.2140002 0.65399998 1
9.8290005 -6.2319999 0.76300001 1
9.8290005 -6.257 0.76899999 1
9.8269997 -6.1880002 0.65499997 1
9.8269997 -6.1919999 0.65899998 1
9.8290005 -6.0640001 0.685 1
9.8290005 -6.2680001 0.75099999 1
9.8280001 -6.1139998 0.68699998 1
9.8290005 -6.2220001 0.745 1
9.8280001 -6.2340002 0.69099998 1
9.8269997 -6.2329998 0.63700002 1
9.8260002 -6.2189999 0.60399997 1
9.8280001 -6.2379999 0.68199998 1
9.8290005 -6.2690001 0.74400002 1
9.8269997 -6.1329999 0.62900001 1
9.8269997 -6.2459998 0.63999999 1
9.8280001 -6.2529998 0.68000001 1
9.8280001 -6.0450001 0.62900001 1
9.8280001 -6.0640001 0.67500001 1
9.8260002 -6.2979999 0.60600001 1
9.8280001 -6.046 0.67299998 1
9.8280001 -5.993 0.64499998 1
9.8280001 -6.1939998 0.699 1
9.8269997 -6.1989999 0.65700001 1
9.8290005 -6.0279999 0.68400002 1
9.8280001 -6.046 0.66100001 1
9.8290005 -6.217 0.73299998 1
9.8260002 -6.2639999 0.60100001 1
9.8280001 -6.1290002 0.66000003 1
9.8269997 -6.1830001 0.634 1
9.8290005 -6.2220001 0.72600001 1
9.8269997 -6.171 0.63999999 1
9.8280001 -6.2080002 0.685 1
9.8269997 -6.289 0.653 1
9.8260002 -6.2919998 0.63 1
9.8280001 -6.2509999 0.67900002 1
9.8290005 -6.158 0.71499997 1
9.8269997 -6.2329998 0.662 1
9.8280001 -6.1279998 0.67000002 1
9.8269997 -6.1669998 0.625 1
9.8280001 -6.2379999 0.69300002 1
9.8269997 -6.1459999 0.62199998 1
9.8290005 -6.2659998 0.75999999 1
9.8260002 -6.2470002 0.61699998 1
9.8280001 -6.006 0.63999999 1
9.8280001 -6.0279999 0.667 1
9.8280001 -6.1079998 0.67699999 1
9.8290005 -6.1030002 0.71200001 1
9.8280001 -5.9429998 0.64999998 1
9.8280001 -6.3000002 0.704 1
9.8280001 -6.1799998 0.68000001 1
9.8280001 -6.145 0.65899998 1
9.8280001 -6.2930002 0.69 1
9.8290005 -6.0479999 0.67900002 1
9.8280001 -6.2189999 0.69 1
9.8269997 -6.2379999 0.67000002 1
9.8290005 -6.2249999 0.73199999 1
9.8269997 -6.2290001 0.65399998 1
9.8290005 -6.007 0.67299998 1
9.8280001 -6.2540002 0.699 1
9.8269997 -6.1880002 0.61299998 1
9.8269997 -6.2160001 0.65499997 1
9.8260002 -6.3080001 0.616 1
9.8290005 -5.9780002 0.66299999 1
9.8280001 -6.0939999 0.65899998 1
9.8290005 -6.0929999 0.708 1
9.8280001 -6.184 0.704 1
9.8269997 -6.1560001 0.63700002 1
9.8299999 -6.2919998 0.79699999 1
9.8260002 -6.2509999 0.60100001 1
9.8269997 -6.2919998 0.653 1
9.8290005 -6.2470002 0.77200001 1
9.8290005 -6.2420001 0.73199999 1
9.8290005 -6.0939999 0.70099998 1
9.8280001 -5.9569998 0.648 1
9.8269997 -6.2249999 0.62 1
9.8269997 -6.2930002 0.64499998 1
9.8269997 -6.2519999 0.66000003 1
9.8280001 -6.0549998 0.648 1
9.8290005 -6.046 0.68400002 1
9.8280001 -6.165 0.685 1
9.8290005 -6.296 0.74299997 1
9.8290005 -6.2719998 0.77499998 1
9.8260002 -6.2309999 0.60799998 1
9.8280001 -6.1810002 0.68699998 1
9.8290005 -6.263 0.755 1
9.8280001 -6.0809999 0.65399998 1
9.8290005 -6.2509999 0.77600002 1
9.8280001 -5.9959998 0.639 1
9.8269997 -6.1859999 0.64200002 1
9.8280001 -6.1279998 0.67500001 1
9.8290005 -6.191 0.722 1
9.8280001 -6.0710001 0.68400002 1
9.8290005 -6.2259998 0.764 1
9.8260002 -6.2140002 0.611 1
9.8269997 -6.1760001 0.64700001 1
9.8280001 -6.178 0.67699999 1
9.8280001 -5.9910002 0.64399999 1
9.8280001 -6.0809999 0.639 1
9.8280001 -6.2030001 0.70099998 1
9.8280001 -6.0339999 0.64600003 1
9.8280001 -6.2919998 0.70899999 1
9.8260002 -6.3039999 0.59100002 1
9.8280001 -5.96 0.65399998 1
9.8290005 -6.0409999 0.69 1
9.8269997 -6.1630001 0.63300002 1
9.8280001 -6.1009998 0.67000002 1
9.8280001 -6.2750001 0.68599999 1
9.8290005 -6.2220001 0.75599998 1
9.8280001 -6.1599998 0.699 1
9.8280001 -6.21 0.69099998 1
9.8269997 -6.2670002 0.65499997 1
9.8269997 -6.2540002 0.67199999 1
9.8280001 -6.0949998 0.68199998 1
9.8290005 -6.2420001 0.73699999 1
9.8269997 -6.1149998 0.63099998 1
9.8280001 -6.1059999 0.65600002 1
9.8290005 -6.2800002 0.74699998 1
9.8280001 -6.0050001 0.65200001 1
9.8269997 -6.099 0.62800002 1
9.8269997 -6.2950001 0.67900002 1
9.8280001 -6.1160002 0.66900003 1
9.8269997 -6.2399998 0.64200002 1
9.8280001 -6.0760002 0.634 1
9.8280001 -6.296 0.741 1
9.8280001 -5.9759998 0.64499998 1
9.8290005 -6.2519999 0.764 1
9.8290005 -6.2090001 0.75700003 1
9.8269997 -6.21 0.64600003 1
9.8269997 -6.0939999 0.62699997 1
9.8290005 -6.1490002 0.70700002 1
9.8290005 -6.1739998 0.71799999 1
9.8290005 -6.2509999 0.74299997 1
9.8280001 -6.2309999 0.70200002 1
9.8260002 -6.2870002 0.63300002 1
9.8269997 -6.1750002 0.61500001 1
9.8280001 -6.2779999 0.727 1
9.8290005 -6.066 0.69 1
9.8280001 -6.1700001 0.69599998 1
9.8280001 -6.1999998 0.68400002 1
9.8280001 -6.2600002 0.72799999 1
9.8280001 -6.3010001 0.69800001 1
9.8290005 -5.9689999 0.66100001 1
9.8280001 -6.0599999 0.66799998 1
9.8280001 -5.9689999 0.64700001 1
9.8260002 -6.2249999 0.611 1
9.8269997 -6.2490001 0.65899998 1
9.8280001 -6.2839999 0.722 1
9.8269997 -6.2529998 0.65499997 1
9.8269997 -6.1160002 0.62800002 1
9.8290005 -6.0170002 0.676 1
9.8269997 -6.3000002 0.64099997 1
9.8280001 -6.105 0.68800002 1
9.8280001 -6.2880001 0.70200002 1
9.8290005 -6.1269999 0.72399998 1
9.8260002 -6.2389998 0.61000001 1
9.8290005 -6.256 0.74900001 1
9.8269997 -6.086 0.62699997 1
9.8269997 -6.2160001 0.66399997 1
9.8269997 -6.1810002 0.65700001 1
9.8269997 -6.2909999 0.66600001 1
9.8290005 -6.1760001 0.73699999 1
9.8280001 -6.1339998 0.66000003 1
9.8280001 -6.2800002 0.71799999 1
9.8269997 -6.1799998 0.62 1
9.8260002 -6.2550001 0.60100001 1
9.8280001 -6.2189999 0.699 1
9.8260002 -6.2849998 0.59899998 1
9.8269997 -6.2329998 0.66100001 1
9.8260002 -6.2270002 0.60699999 1
9.8280001 -6.1539998 0.69199997 1
9.8280001 -6.0570002 0.64999998 1
9.8269997 -6.25 0.66600001 1
9.8280001 -6.2649999 0.69300002 1
9.8280001 -6.2719998 0.70300001 1
9.8269997 -6.2909999 0.64499998 1
9.8290005 -6.1020002 0.69700003 1
9.8269997 -6.1859999 0.64600003 1
9.8260002 -6.3119998 0.60299999 1
9.8280001 -6.0760002 0.68300003 1
9.8269997 -6.2930002 0.64700001 1
9.8280001 -6.1329999 0.65399998 1
9.8290005 -6.1799998 0.73299998 1
9.8290005 -6.1960001 0.74599999 1
9.8290005 -6.178 0.72799999 1
9.8269997 -6.2280002 0.64399999 1
9.8280001 -6.1900001 0.67400002 1
9.8269997 -6.302 0.63999999 1
9.8280001 -6.2740002 0.69999999 1
9.8290005 -6.1859999 0.71899998 1
9.8280001 -5.9970002 0.63700002 1
9.8280001 -6.066 0.67000002 1
9.8280001 -6.2340002 0.72600001 1
9.8280001 -6.1589999 0.66000003 1
9.8290005 -6.1479998 0.704 1
9.8290005 -6.2600002 0.74699998 1
9.8269997 -6.223 0.63599998 1
9.8280001 -6.0009999 0.65799999 1
9.8280001 -6.0710001 0.67900002 1
9.8280001 -6.1170001 0.69599998 1
9.8280001 -6.1989999 0.704 1
9.8260002 -6.3049998 0.59399998 1
9.8280001 -6.1329999 0.68000001 1
9.8269997 -6.2659998 0.67699999 1
9.8280001 -6.0019999 0.65200001 1
9.8269997 -6.1370001 0.64600003 1
9.8280001 -6.2930002 0.699 1
9.8290005 -6.224 0.73100001 1
9.8269997 -6.1919999 0.61699998 1
9.8290005 -6.2080002 0.72600001 1
9.8290005 -5.9970002 0.667 1
9.8260002 -6.217 0.61000001 1
9.8280001 -6.059 0.66299999 1
9.8280001 -6.151 0.68699998 1
9.8290005 -6.1430001 0.72100002 1
9.8260002 -6.2160001 0.611 1
9.8280001 -6.1950002 0.70999998 1
9.8269997 -6.3049998 0.65600002 1
9.8290005 -6.2259998 0.74400002 1
9.8260002 -6.1989999 0.60699999 1
9.8280001 -6.1939998 0.70099998 1
9.8290005 -6.2199998 0.72799999 1
9.8280001 -6.1810002 0.68400002 1
9.8280001 -6.1009998 0.66100001 1
9.8280001 -6.1300001 0.69700003 1
9.8280001 -6.072 0.66500002 1
9.8290005 -6.2839999 0.77399999 1
9.8280001 -6.27 0.713 1
9.8280001 -6.2789998 0.72299999 1
9.8280001 -6.0879998 0.64999998 1
9.8290005 -6.27 0.76899999 1
9.8280001 -6.277 0.73699999 1
9.8280001 -6.1469998 0.671 1
9.8280001 -6.0599999 0.662 1
9.8260002 -6.2579999 0.611 1
9.8260002 -6.2820001 0.602 1
9.8269997 -6.2870002 0.64300001 1
9.8280001 -6.2600002 0.70099998 1
9.8280001 -6.1459999 0.66799998 1
9.8290005 -6.2639999 0.77600002 1
9.8290005 -6.152 0.708 1
9.8269997 -6.1129999 0.63700002 1
9.8280001 -5.9949999 0.64499998 1
9.8269997 -6.1539998 0.64999998 1
9.8280001 -6.0749998 0.63300002 1
9.8290005 -6.158 0.73699999 1
9.8280001 -6.2080002 0.68199998 1
9.8280001 -6.2160001 0.69499999 1
9.8280001 -6.1820002 0.66500002 1
9.8280001 -6.2160001 0.671 1
9.8280001 -6.2119999 0.676 1
9.8280001 -6.165 0.671 1
9.8269997 -6.1500001 0.62699997 1
9.8269997 -6.2399998 0.653 1
9.8260002 -6.237 0.616 1
9.8290005 -6.2399998 0.755 1
9.8269997 -6.1760001 0.63200003 1
9.8290005 -6.1849999 0.71899998 1
9.8280001 -6.223 0.68300003 1
9.8260002 -6.3070002 0.62599999 1
9.8269997 -6.2270002 0.63599998 1
9.8280001 -6.1300001 0.69499999 1
9.8269997 -6.2550001 0.64999998 1
9.8280001 -6.211 0.68800002 1
9.8280001 -6.1789999 0.69199997 1
9.8269997 -6.2119999 0.63800001 1
9.8280001 -6.2909999 0.71899998 1
9.8269997 -6.1700001 0.61900002 1
9.8280001 -6.2930002 0.69800001 1
9.8280001 -6.0819998 0.64499998 1
9.8260002 -6.2740002 0.60000002 1
9.8290005 -6.099 0.69599998 1
9.8280001 -6.039 0.63800001 1
9.8290005 -6.2690001 0.78200001 1
9.8269997 -6.2410002 0.67500001 1
9.8269997 -6.2420001 0.67500001 1
9.8290005 -6.1269999 0.71499997 1
9.8260002 -6.2930002 0.634 1
9.8269997 -6.2550001 0.62699997 1
9.8280001 -6.059 0.63999999 1
9.8290005 -6.2690001 0.787 1
9.8269997 -6.1869998 0.64399999 1
9.8290005 -6.1040001 0.70700002 1
9.8260002 -6.2859998 0.602 1
9.8290005 -6.2010002 0.74299997 1
9.8290005 -6.2119999 0.741 1
9.8280001 -5.9910002 0.64300001 1
9.8280001 -6.098 0.65399998 1
9.8290005 -6.0910001 0.70300001 1
9.8280001 -6.0009999 0.64499998 1
9.8290005 -6.1669998 0.72799999 1
9.8280001 -6.0580001 0.63099998 1
9.8269997 -6.2950001 0.65700001 1
9.8269997 -6.2690001 0.64099997 1
9.8290005 -6.184 0.727 1
9.8280001 -6.0560002 0.63599998 1
9.8290005 -6.052 0.69199997 1
9.8269997 -6.2579999 0.63700002 1
9.8269997 -6.2779999 0.68599999 1
9.8269997 -6.2249999 0.62699997 1
9.8260002 -6.303 0.58999997 1
9.8269997 -6.1869998 0.65100002 1
9.8260002 -6.2789998 0.602 1
9.8290005 -6.2410002 0.74699998 1
9.8290005 -6.1919999 0.74000001 1
9.8280001 -6.1199999 0.68300003 1
9.8280001 -6.2249999 0.68599999 1
9.8280001 -6.2690001 0.72299999 1
9.8290005 -6.2600002 0.745 1
9.8290005 -6.1420002 0.73299998 1
9.8269997 -6.2020001 0.62099999 1
9.8280001 -6.2059999 0.68199998 1
9.8290005 -6.2639999 0.77399999 1
9.8290005 -6.1859999 0.745 1
9.8290005 -6.046 0.68400002 1
9.8280001 -5.9530001 0.64399999 1
9.8269997 -6.2670002 0.65700001 1
9.8290005 -6.2969999 0.75099999 1
9.8290005 -6.1630001 0.73699999 1
9.8260002 -6.2080002 0.61000001 1
9.8269997 -6.27 0.64700001 1
9.8269997 -6.1399999 0.63099998 1
9.8290005 -6.296 0.778 1
9.8280001 -6.164 0.70099998 1
9.8269997 -6.2150002 0.66600001 1
9.8280001 -6.059 0.64600003 1
9.8269997 -6.2280002 0.63200003 1
9.8280001 -6.0549998 0.64300001 1
9.8290005 -6.1739998 0.71600002 1
9.8269997 -6.276 0.64999998 1
9.8269997 -6.2839999 0.67500001 1
9.8280001 -6.112 0.65799999 1
9.8290005 -6.0809999 0.69999999 1
9.8260002 -6.2709999 0.60600001 1
9.8290005 -6.112 0.70099998 1
9.8269997 -6.223 0.66900003 1
9.8280001 -6.0710001 0.68400002 1
9.8269997 -6.2199998 0.61900002 1
9.8269997 -6.2360001 0.62699997 1
9.8290005 -6.2480001 0.755 1
9.8280001 -6.2680001 0.69199997 1
9.8280001 -6.2680001 0.72000003 1
9.8280001 -6.1719999 0.68300003 1
9.8269997 -6.263 0.63200003 1
9.8280001 -6.1939998 0.68000001 1
9.8290005 -6.2449999 0.75099999 1
9.8269997 -6.1900001 0.61699998 1
9.8280001 -6.2529998 0.69300002 1
9.8280001 -6.0570002 0.66900003 1
9.8290005 -6.2919998 0.74400002 1
9.8280001 -6.1599998 0.699 1
9.8269997 -6.1799998 0.653 1
9.8290005 -6.223 0.727 1
9.8290005 -6.0630002 0.68400002 1
9.8269997 -6.256 0.63700002 1
9.8280001 -6.283 0.71600002 1
9.8290005 -6.1279998 0.713 1
9.8280001 -6.2670002 0.73299998 1
9.8280001 -6.1129999 0.648 1
9.8280001 -6.0840001 0.64300001 1
9.8280001 -6.277 0.70899999 1
9.8290005 -6.1490002 0.70700002 1
9.8269997 -6.289 0.63599998 1
9.8280001 -6.184 0.671 1
9.8260002 -6.2870002 0.59799999 1
9.8280001 -6.007 0.64399999 1
9.8290005 -6.21 0.72899997 1
9.8290005 -6.2140002 0.74699998 1
9.8280001 -5.9980001 0.63700002 1
9.8280001 -6.1459999 0.67000002 1
9.8280001 -6.2280002 0.70099998 1
9.8310003 -6.1090002 0.88599998 1
9.8299999 -6.1550002 0.77499998 1
9.8299999 -5.9790001 0.79100001 1
9.8290005 -6.0409999 0.70099998 1
9.8299999 -5.9980001 0.78100002 1
9.8310003 -6.033 0.85600001 1
9.8299999 -6.217 0.787 1
9.8319998 -6.0770001 0.99699998 1
9.8310003 -6.0999999 0.94700003 1
9.8299999 -6.2010002 0.85399997 1
9.8330002 -6.0359998 1.046 1
9.8290005 -6.0840001 0.73000002 1
9.8319998 -6.1240001 1.041 1
9.8319998 -6.086 0.995 1
9.8310003 -6.1700001 0.91399997 1
9.8290005 -6.0100002 0.72799999 1
9.8310003 -6.1849999 0.926 1
9.8319998 -6.1020002 0.991 1
9.8319998 -6.0669999 1.022 1
9.8319998 -6.0409999 0.96200001 1
9.8310003 -6.0209999 0.90200001 1
9.8299999 -6.0949998 0.81199998 1
9.8310003 -6.0780001 0.88999999 1
9.8299999 -6.25 0.81900001 1
9.8290005 -6.0479999 0.699 1
9.8319998 -6.0469999 0.98000002 1
9.8299999 -5.987 0.796 1
9.8290005 -6.2379999 0.778 1
9.8310003 -6.2010002 0.90200001 1
9.8319998 -6.0749998 1.005 1
9.8319998 -6.152 0.97399998 1
9.8299999 -6.0310001 0.787 1
9.8299999 -5.9770002 0.78399998 1
9.8299999 -6.1069999 0.79900002 1
9.8319998 -6.052 1.001 1
9.8299999 -6.0739999 0.838 1
9.8319998 -6.1069999 0.97399998 1
9.8299999 -6.256 0.85100001 1
9.8310003 -5.9889998 0.85399997 1
9.8319998 -6.0339999 1.015 1
9.8299999 -6.1490002 0.80199999 1
9.8299999 -6.1659999 0.80800003 1
9.8299999 -6.0900002 0.764 1
9.8319998 -6.026 0.94800001 1
9.8310003 -5.9980001 0.93099999 1
9.8290005 -6.0279999 0.69800001 1
9.8319998 -6.0770001 1.0140001 1
9.8319998 -6.0300002 0.99599999 1
9.8310003 -6.0110002 0.93099999 1
9.8299999 -6.0349998 0.80000001 1
9.8319998 -6.0539999 1.033 1
9.8299999 -6.0489998 0.79299998 1
9.8290005 -6.0190001 0.72500002 1
9.8299999 -6.1300001 0.85399997 1
9.8310003 -6.0079999 0.86000001 1
9.8330002 -6.1020002 1.075 1
9.8299999 -6.2290001 0.84100002 1
9.8330002 -6.039 1.066 1
9.8310003 -6.0650001 0.90600002 1
9.8310003 -6.2220001 0.89099997 1
9.8319998 -6.026 1.011 1
9.8319998 -6.0700002 0.95300001 1
9.8290005 -6.151 0.74299997 1
9.8299999 -6.1110001 0.80800003 1
9.8299999 -6.0970001 0.85299999 1
9.8299999 -6.2519999 0.792 1
9.8290005 -6.0100002 0.713 1
9.8299999 -6.0440001 0.759 1
9.8330002 -6.1209998 1.051 1
9.8290005 -6.0679998 0.72600001 1
9.8290005 -6.066 0.713 1
9.8299999 -6.059 0.76499999 1
9.8299999 -6.2589998 0.81 1
9.8330002 -6.0929999 1.0880001 1
9.8299999 -6.2719998 0.79299998 1
9.8290005 -6.224 0.778 1
9.8319998 -6.1539998 1.003 1
9.8299999 -6.0819998 0.80299997 1
9.8290005 -5.9640002 0.699 1
9.8330002 -6.0900002 1.082 1
9.8290005 -6.2329998 0.77499998 1
9.8290005 -6.098 0.73400003 1
9.8310003 -6.1409998 0.94300002 1
9.8310003 -6.1160002 0.89099997 1
9.8299999 -6.0999999 0.787 1
9.8310003 -6.086 0.88800001 1
9.8299999 -6.2030001 0.81599998 1
9.8290005 -6.151 0.75800002 1
9.8310003 -6.0229998 0.85000002 1
9.8310003 -6.0320001 0.875 1
9.8310003 -6.1469998 0.86699998 1
9.8310003 -6.053 0.93300003 1
9.8299999 -6.0799999 0.76700002 1
9.8310003 -6.138 0.89099997 1
9.8310003 -6.098 0.90200001 1
9.8319998 -6.1329999 1.0369999 1
9.8310003 -6.007 0.88300002 1
9.8310003 -5.9829998 0.85100001 1
9.8330002 -6.053 1.067 1
9.8330002 -6.0450001 1.057 1
9.8290005 -6.007 0.74299997 1
9.8310003 -6.0209999 0.88300002 1
9.8319998 -6.02 0.977 1
9.8319998 -6.1479998 0.958 1
9.8290005 -5.9809999 0.72600001 1
9.8330002 -6.073 1.095 1
9.8290005 -6.211 0.773 1
9.8310003 -6.131 0.93599999 1
9.8339996 -6.0619998 1.143 1
9.8310003 -6.1729999 0.90899998 1
9.8319998 -6.1160002 1.0190001 1
9.8299999 -6.2189999 0.829 1
9.8330002 -6.0640001 1.112 1
9.8299999 -6.1389999 0.80400002 1
9.8299999 -6.1009998 0.82099998 1
9.8319998 -6.1399999 0.95899999 1
9.8310003 -6.0430002 0.90600002 1
9.8330002 -6.0419998 1.048 1
9.8290005 -5.9749999 0.685 1
9.8319998 -6.039 0.98199999 1
9.8299999 -6.0469999 0.80199999 1
9.8290005 -6.1739998 0.75599998 1
9.8299999 -6.1110001 0.78799999 1
9.8310003 -6.178 0.89499998 1
9.8310003 -6.1729999 0.89300001 1
9.8299999 -6.244 0.79500002 1
9.8299999 -5.9749999 0.82499999 1
9.8310003 -6.0650001 0.87800002 1
9.8319998 -6.0050001 0.954 1
9.8330002 -6.0830002 1.1 1
9.8299999 -6.171 0.81099999 1
9.8299999 -6.1240001 0.81999999 1
9.8299999 -6.0079999 0.78399998 1
9.8310003 -6.1719999 0.94 1
9.8299999 -6.1040001 0.84100002 1
9.8290005 -6.0009999 0.68400002 1
9.8319998 -6.0440001 1.029 1
9.8290005 -6.237 0.77700001 1
9.8299999 -6.2449999 0.84100002 1
9.8310003 -6.0380001 0.85299999 1
9.8310003 -6.0689998 0.92799997 1
9.8290005 -6.2449999 0.78399998 1
9.8310003 -6.1620002 0.94599998 1
9.8290005 -5.9959998 0.71399999 1
9.8299999 -6.224 0.86799997 1
9.8310003 -6.0380001 0.89499998 1
9.8319998 -6.138 1.023 1
9.8310003 -6.1799998 0.926 1
9.8299999 -5.9850001 0.77999997 1
9.8290005 -6.0960002 0.73299998 1
9.8299999 -6.033 0.82200003 1
9.8319998 -6.0419998 1.029 1
9.8319998 -6.039 0.96499997 1
9.8339996 -6.0510001 1.149 1
9.8299999 -6.2249999 0.80199999 1
9.8299999 -5.9970002 0.75 1
9.8299999 -6.059 0.78100002 1
9.8299999 -6.1919999 0.833 1
9.8299999 -6.0960002 0.79100001 1
9.8310003 -6.1230001 0.89399999 1
9.8290005 -6.0170002 0.72799999 1
9.8299999 -6.2340002 0.85799998 1
9.8299999 -6.1279998 0.77899998 1
9.8299999 -6.191 0.81800002 1
9.8310003 -6.0339999 0.92000002 1
9.8299999 -6.0689998 0.792 1
9.8319998 -6.059 1.01 1
9.8290005 -5.9910002 0.704 1
9.8299999 -6.0370002 0.83600003 1
9.8290005 -6.1750002 0.764 1
9.8299999 -6.224 0.83399999 1
9.8299999 -6.0159998 0.77600002 1
9.8290005 -6.0149999 0.74900001 1
9.8319998 -6.1009998 0.95099998 1
9.8299999 -6.073 0.80800003 1
9.8319998 -6.177 0.972 1
9.8319998 -6.0780001 0.96499997 1
9.8299999 -6.1069999 0.81999999 1
9.8319998 -6.1490002 0.99900001 1
9.8299999 -6.0809999 0.84600002 1
9.8299999 -6.1350002 0.81 1
9.8330002 -6.0770001 1.041 1
9.8319998 -6.0190001 0.95200002 1
9.8290005 -6.0339999 0.708 1
9.8310003 -6.145 0.903 1
9.8299999 -6.0879998 0.78799999 1
9.8299999 -5.9640002 0.75 1
9.8310003 -6.2129998 0.89200002 1
9.8310003 -6.138 0.92000002 1
9.8319998 -6.0190001 0.93699998 1
9.8290005 -6.2659998 0.787 1
9.8310003 -6.0999999 0.921 1
9.8310003 -6.1329999 0.917 1
9.8330002 -6.1209998 1.045 1
9.8299999 -6.039 0.82099998 1
9.8310003 -6.1440001 0.93099999 1
9.8299999 -6.0770001 0.82999998 1
9.8330002 -6.0960002 1.0700001 1
9.8319998 -6.1220002 0.98199999 1
9.8290005 -6.0910001 0.76300001 1
9.8290005 -6.007 0.70700002 1
9.8319998 -6.118 0.977 1
9.8299999 -6.1669998 0.83499998 1
9.8310003 -6.2059999 0.91000003 1
9.8299999 -6.171 0.847 1
9.8299999 -6.1030002 0.81199998 1
9.8310003 -6.0479999 0.88499999 1
9.8319998 -6.1409998 0.95700002 1
9.8310003 -6.1409998 0.89499998 1
9.8299999 -6.085 0.79799998 1
9.8319998 -6.0250001 1.02 1
9.8319998 -6.1420002 1.0190001 1
9.8310003 -6.2059999 0.93300003 1
9.8330002 -6.0469999 1.038 1
9.8290005 -5.9829998 0.73000002 1
9.8299999 -6.0770001 0.76599997 1
9.8299999 -6.013 0.824 1
9.8319998 -6.0669999 0.98799998 1
9.8299999 -6.0939999 0.773 1
9.8330002 -6.059 1.046 1
9.8290005 -6.02 0.69700003 1
9.8299999 -6.1550002 0.792 1
9.8290005 -5.9699998 0.685 1
9.8310003 -6.0079999 0.86299998 1
9.8310003 -6.1020002 0.90100002 1
9.8319998 -6.0580001 1.016 1
9.8330002 -6.086 1.105 1
9.8310003 -6.1040001 0.88599998 1
9.8299999 -6.0879998 0.85000002 1
9.8310003 -6.02 0.92400002 1
9.8310003 -6.2290001 0.89499998 1
9.8299999 -6.1069999 0.79100001 1
9.8299999 -6.2319999 0.82300001 1
9.8310003 -6.1599998 0.89600003 1
9.8290005 -6.1370001 0.76099998 1
9.8330002 -6.059 1.089 1
9.8299999 -6.1659999 0.79900002 1
9.8310003 -6.0799999 0.86799997 1
9.8310003 -6.0799999 0.87800002 1
9.8299999 -6.237 0.84799999 1
9.8310003 -6.1409998 0.95499998 1
9.8299999 -6.184 0.83399999 1
9.8330002 -6.0619998 1.124 1
9.8319998 -6.1149998 1.0319999 1
9.8299999 -6.1300001 0.79100001 1
9.8299999 -6.237 0.79699999 1
9.8319998 -6.165 0.98299998 1
9.8330002 -6.085 1.04 1
9.8299999 -6.2360001 0.852 1
9.8310003 -6.1129999 0.87300003 1
9.8299999 -6.2160001 0.82800001 1
9.8299999 -6.1760001 0.81699997 1
9.8299999 -6.2740002 0.83099997 1
9.8330002 -6.0450001 1.033 1
9.8310003 -6.0900002 0.89300001 1
9.8310003 -6.0320001 0.87099999 1
9.8330002 -6.0289998 1.043 1
9.8290005 -6.0489998 0.73900002 1
9.8299999 -5.9770002 0.80000001 1
9.8299999 -5.9780002 0.80599999 1
9.8310003 -6.0840001 0.88099998 1
9.8290005 -5.9559999 0.68900001 1
9.8319998 -6.1090002 0.972 1
9.8330002 -6.0339999 1.084 1
9.8290005 -5.9580002 0.71200001 1
9.8319998 -6.026 0.97500002 1
9.8310003 -6.1880002 0.92500001 1
9.8310003 -6.138 0.91500002 1
9.8319998 -6.0599999 1.012 1
9.8290005 -6.1069999 0.72500002 1
9.8330002 -6.0840001 1.063 1
9.8290005 -6.145 0.75199997 1
9.8319998 -6.0170002 0.98799998 1
9.8310003 -6.085 0.88 1
9.8290005 -5.9549999 0.71399999 1
9.8310003 -6.1939998 0.92400002 1
9.8299999 -6.1149998 0.78399998 1
9.8299999 -6.2020001 0.81599998 1
9.8310003 -6.2350001 0.87699997 1
9.8310003 -6.0830002 0.86000001 1
9.8299999 -6.105 0.79000002 1
9.8299999 -6.0339999 0.82200003 1
9.8310003 -6.0159998 0.87 1
9.8290005 -6.066 0.73699999 1
9.8310003 -6.1329999 0.926 1
9.8290005 -6.079 0.713 1
9.8290005 -6.0100002 0.73199999 1
9.8319998 -6.1659999 0.963 1
9.8319998 -6.0240002 0.93900001 1
9.8299999 -6.2379999 0.787 1
9.8310003 -6.1479998 0.93400002 1
9.8299999 -6.2270002 0.833 1
9.8310003 -6.1849999 0.93900001 1
9.8299999 -6.1680002 0.778 1
9.8310003 -6.0229998 0.921 1
9.8299999 -6.0539999 0.78100002 1
9.8319998 -6.0960002 0.972 1
9.8299999 -6.1479998 0.77999997 1
9.8299999 -6.0970001 0.76999998 1
9.8299999 -6.1500001 0.82499999 1
9.8310003 -6.1160002 0.93599999 1
9.8310003 -6.0050001 0.89499998 1
9.8290005 -6.0939999 0.75700003 1
9.8310003 -6.1750002 0.87199998 1
9.8330002 -6.0760002 1.094 1
9.8330002 -6.1079998 1.0650001 1
9.8299999 -6.211 0.796 1
9.8319998 -6.0100002 0.98500001 1
9.8290005 -6.0599999 0.71100003 1
9.8299999 -6.1209998 0.79900002 1
9.8299999 -6.2059999 0.85699999 1
9.8310003 -6.098 0.94800001 1
9.8319998 -6.1500001 1.005 1
9.8310003 -6.0949998 0.93000001 1
9.8310003 -5.9970002 0.90899998 1
9.8299999 -6.0489998 0.79100001 1
9.8310003 -6.1500001 0.92299998 1
9.8299999 -6.1810002 0.80400002 1
9.8310003 -6.0489998 0.87199998 1
9.8319998 -6.1220002 0.96399999 1
9.8299999 -5.9889998 0.82300001 1
9.8290005 -6.0229998 0.73500001 1
9.8299999 -6.2410002 0.824 1
9.8290005 -5.961 0.69999999 1
9.8299999 -6.0799999 0.82700002 1
9.8299999 -6.1059999 0.84299999 1
9.8310003 -6.1430001 0.91000003 1
9.8330002 -6.0320001 1.048 1
9.8310003 -6.1589999 0.88099998 1
9.8299999 -6.0250001 0.76700002 1
9.8310003 -6.0949998 0.92699999 1
9.8290005 -6.1079998 0.72399998 1
9.8290005 -6.2090001 0.77600002 1
9.8319998 -6.119 1.003 1
9.8310003 -6.0380001 0.87400001 1
9.8310003 -6.1739998 0.94700003 1
9.8310003 -6.0630002 0.87699997 1
9.8299999 -6.007 0.83200002 1
9.8310003 -6.039 0.87099999 1
9.8330002 -6.1110001 1.0650001 1
9.8290005 -6.119 0.73000002 1
9.8319998 -6.046 0.96399999 1
9.8319998 -6.0799999 1.024 1
9.8290005 -6.0949998 0.75099999 1
9.8299999 -6.2389998 0.86799997 1
9.8299999 -5.9660001 0.79400003 1
9.8299999 -6.1700001 0.847 1
9.8310003 -6.1490002 0.88599998 1
9.8299999 -6.1139998 0.81800002 1
9.8299999 -6.0450001 0.787 1
9.8330002 -6.0539999 1.124 1
9.8310003 -6.1789999 0.93599999 1
9.8290005 -5.9860001 0.71399999 1
9.8310003 -6.1589999 0.93199998 1
9.8319998 -6.0809999 1.03 1
9.8299999 -5.9819999 0.74900001 1
9.8299999 -6.1659999 0.85299999 1
9.8299999 -6.132 0.829 1
9.8310003 -6.1929998 0.92799997 1
9.8310003 -6.006 0.85600001 1
9.8310003 -6.1009998 0.86500001 1
9.8319998 -6.1560001 0.97600001 1
9.8290005 -5.987 0.71700001 1
9.8330002 -6.0739999 1.059 1
9.8299999 -6.204 0.78200001 1
9.8310003 -6.0240002 0.92900002 1
9.8310003 -6.1700001 0.93900001 1
9.8310003 -6.098 0.88599998 1
9.8310003 -6.0939999 0.93900001 1
9.8319998 -6.0339999 1.025 1
9.8299999 -6.0279999 0.76599997 1
9.8290005 -6.0510001 0.70099998 1
9.8310003 -6.0970001 0.89399999 1
9.8290005 -6.0419998 0.713 1
9.8299999 -6.0040002 0.78600001 1
9.8299999 -5.9809999 0.792 1
9.8330002 -6.0890002 1.054 1
9.8290005 -6.099 0.72500002 1
9.8290005 -5.9499998 0.68099999 1
9.8319998 -6.027 0.98900002 1
9.8310003 -6.0760002 0.88300002 1
9.8310003 -5.9780002 0.83999997 1
9.8319998 -6.0450001 0.98100001 1
9.8330002 -6.0640001 1.046 1
9.8299999 -6.1500001 0.79699999 1
9.8290005 -6.1230001 0.75 1
9.8330002 -6.0469999 1.115 1
9.8319998 -6.1170001 1.0039999 1
9.8299999 -5.9860001 0.75800002 1
9.8299999 -6.191 0.833 1
9.8299999 -5.9829998 0.76700002 1
9.8290005 -6.0229998 0.71899998 1
9.8310003 -6.1259999 0.88300002 1
9.8290005 -6.1129999 0.74800003 1
9.8299999 -5.9829998 0.74900001 1
9.8299999 -6.099 0.77499998 1
9.8330002 -6.0650001 1.122 1
