# .PCD v0.7 - Point Cloud Data file format
VERSION 0.7
FIELDS x y z label
SIZE 4 4 4 4
TYPE F F F U
COUNT 1 1 1 1
WIDTH 1758
HEIGHT 1
VIEWPOINT 0 0 0 1 0 0 0
POINTS 1758
DATA ascii
10.008 -5.6570001 2.2739999 1
10.008 -5.6389999 2.2520001 1
10.005 -5.5609999 2.266 1
10.007 -5.6269999 2.2479999 1
10.005 -5.5760002 2.2679999 1
10.009 -5.6729999 2.2550001 1
10.011 -5.7360001 2.233 1
10.004 -5.5380001 2.276 1
10.011 -5.7189999 2.2409999 1
10.014 -5.796 2.2249999 1
10.006 -5.5929999 2.253 1
10.014 -5.7880001 2.24 1
10.009 -5.6799998 2.2449999 1
10.007 -5.6329999 2.2709999 1
10.013 -5.777 2.2060001 1
10.012 -5.7519999 2.2249999 1
10.013 -5.7729998 2.21 1
10.008 -5.652 2.2780001 1
10.007 -5.027 2.198 1
9.9989996 -4.7649999 2.276 1
10.01 -4.8930001 2.1559999 1
10.005 -5.0609999 2.2130001 1
10.004 -4.8930001 2.2249999 1
10.003 -5.0619998 2.24 1
10.001 -4.777 2.2479999 1
10.006 -5.0819998 2.204 1
9.9989996 -4.8940001 2.276 1
10.006 -5.1719999 2.21 1
10.006 -5.1729999 2.2090001 1
10.004 -4.9450002 2.2190001 1
10.009 -4.9089999 2.1619999 1
10.008 -4.9949999 2.178 1
10.006 -4.9180002 2.204 1
10.003 -4.9099998 2.234 1
10.007 -4.9380002 2.1860001 1
10.006 -5.0359998 2.2030001 1
10.002 -4.8130002 2.244 1
10.001 -4.9070001 2.256 1
10.006 -4.9029999 2.201 1
10.007 -4.927 2.191 1
10.002 -4.9530001 2.2479999 1
10.001 -4.73 2.2509999 1
10.002 -5.2839999 2.2639999 1
10.004 -4.8200002 2.221 1
10.006 -4.9699998 2.2 1
10.004 -4.7740002 2.2130001 1
10 -5.0170002 2.276 1
10.005 -4.9349999 2.2079999 1
10 -5.0430002 2.2709999 1
10.001 -4.7649999 2.253 1
9.9989996 -4.8590002 2.2780001 1
10.004 -4.8600001 2.217 1
10.008 -5.0139999 2.1800001 1
10.003 -5.1529999 2.247 1
10.002 -5.165 2.2550001 1
10 -4.7280002 2.2620001 1
10.003 -5.0359998 2.2360001 1
10 -5.085 2.2750001 1
10.001 -5.151 2.2679999 1
10.001 -4.9260001 2.2579999 1
10.002 -5.3340001 2.2579999 1
10.002 -5.1030002 2.2509999 1
10.005 -4.9299998 2.211 1
10.006 -4.974 2.197 1
10.01 -4.888 2.151 1
10.003 -4.8210001 2.2360001 1
10.004 -5.2659998 2.233 1
10.008 -5.027 2.1789999 1
10.009 -4.9060001 2.1619999 1
9.9989996 -4.7280002 2.2780001 1
10.004 -5.2280002 2.23 1
10.001 -5.1989999 2.2639999 1
10.001 -4.9970002 2.26 1
10.001 -5.2789998 2.267 1
10.004 -5.2420001 2.2349999 1
10.001 -4.8130002 2.253 1
10.009 -4.9520001 2.171 1
10.003 -5.0149999 2.2390001 1
10.004 -5.2270002 2.2390001 1
10.002 -4.757 2.2409999 1
9.9989996 -4.8460002 2.2780001 1
10.005 -4.9039998 2.2079999 1
10.006 -4.96 2.1960001 1
10.004 -5.2649999 2.234 1
10.006 -5.0819998 2.21 1
10.008 -4.9759998 2.178 1
10.01 -4.9099998 2.152 1
10 -4.7859998 2.2679999 1
10.001 -5.2779999 2.267 1
10.006 -5.105 2.2090001 1
10 -4.9169998 2.27 1
10.002 -4.796 2.2479999 1
10.003 -4.9580002 2.24 1
10.001 -5.085 2.263 1
10 -4.8860002 2.2650001 1
10.001 -4.8280001 2.2590001 1
10.006 -4.9219999 2.2 1
10.003 -5.2309999 2.25 1
10.002 -4.8610001 2.2479999 1
10.003 -5.336 2.2539999 1
10.007 -4.9400001 2.1849999 1
10.002 -5.0190001 2.2550001 1
10.006 -5.165 2.21 1
10.003 -5.0250001 2.2379999 1
10.005 -5.1149998 2.2149999 1
10.003 -4.8769999 2.2379999 1
10.002 -4.757 2.2420001 1
10.01 -4.8909998 2.155 1
10.002 -5.1999998 2.2609999 1
10.007 -4.8330002 2.187 1
10.002 -4.9369998 2.2509999 1
10 -4.848 2.2720001 1
10 -5 2.267 1
10.002 -4.8369999 2.2490001 1
10.006 -4.9629998 2.2 1
10.006 -4.954 2.2030001 1
10.008 -4.9640002 2.178 1
10.007 -5.0159998 2.1930001 1
10.001 -4.8470001 2.2550001 1
10.007 -5.132 2.201 1
10.002 -4.8200002 2.24 1
10.003 -5.1529999 2.244 1
10.001 -4.9229999 2.2590001 1
10.007 -4.8920002 2.1830001 1
10.002 -4.7550001 2.24 1
10.001 -5.1279998 2.263 1
10 -4.7589998 2.2690001 1
10 -4.8829999 2.273 1
10.009 -4.8889999 2.165 1
10.002 -5.0089998 2.253 1
10.003 -5.3439999 2.253 1
10.002 -5.3070002 2.267 1
9.9989996 -4.7870002 2.2750001 1
10 -4.8109999 2.2709999 1
10.005 -4.98 2.2090001 1
10.003 -5.0209999 2.243 1
10.005 -5.0739999 2.2190001 1
10 -4.9190001 2.267 1
10.002 -5.316 2.263 1
10.007 -4.9559999 2.1919999 1
10.004 -5.052 2.2320001 1
10.006 -5.0349998 2.201 1
10.006 -4.8520002 2.204 1
10.006 -5.1570001 2.207 1
10.001 -4.9060001 2.2620001 1
10.006 -4.9180002 2.204 1
10.003 -5.2779999 2.247 1
10.007 -4.881 2.1930001 1
10.003 -5.0209999 2.2349999 1
10.003 -4.8439999 2.233 1
10.004 -5.1690001 2.2309999 1
10.007 -4.8140001 2.184 1
10.009 -5 2.171 1
9.9989996 -4.73 2.2750001 1
10.007 -5.132 2.1989999 1
10.004 -5.0770001 2.2309999 1
10.003 -4.994 2.2360001 1
10.003 -5.3099999 2.2479999 1
10.004 -5.1409998 2.233 1
10.006 -5.158 2.2119999 1
10 -4.921 2.2679999 1
10.002 -5.3639998 2.267 1
10.001 -4.8010001 2.2509999 1
10.003 -4.7989998 2.227 1
10.001 -4.8540001 2.2609999 1
10.004 -5.125 2.234 1
10.002 -5.2719998 2.2590001 1
10.008 -5.0830002 2.1889999 1
10.002 -5.3309999 2.257 1
10.004 -4.9829998 2.2249999 1
10.006 -5.0739999 2.21 1
10.001 -5.2919998 2.276 1
10.004 -4.8569999 2.2160001 1
10.008 -5.0190001 2.1789999 1
10.008 -4.9809999 2.181 1
10.008 -5.0120001 2.1800001 1
10.001 -5.0949998 2.26 1
10.001 -5.4070001 2.2739999 1
10.004 -5.1669998 2.2379999 1
10.003 -5.3010001 2.2539999 1
10 -4.927 2.27 1
10.005 -5.2090001 2.2279999 1
10.002 -5.0710001 2.2479999 1
10.004 -5.072 2.234 1
10.003 -4.9770002 2.2379999 1
10.002 -5.3319998 2.2609999 1
10.001 -5.0469999 2.2620001 1
10.008 -5.053 2.1849999 1
10.003 -4.855 2.2279999 1
10.001 -4.809 2.2590001 1
10.001 -5.3940001 2.273 1
10.006 -5.0700002 2.2090001 1
10.006 -5.1020002 2.2090001 1
10.007 -4.8759999 2.191 1
10.007 -5.0780001 2.191 1
10.003 -5.3099999 2.253 1
10 -5.0609999 2.2720001 1
10.001 -4.9359999 2.2609999 1
10.003 -5.2610002 2.247 1
10.005 -5.243 2.2279999 1
10 -5.0250001 2.2750001 1
10.006 -4.9089999 2.2019999 1
10.007 -5.1090002 2.2 1
10.005 -4.835 2.2060001 1
10.001 -4.9299998 2.2620001 1
10.005 -4.882 2.211 1
10.002 -5.263 2.2620001 1
10 -4.8249998 2.2609999 1
10.003 -4.7600002 2.2249999 1
10 -4.9660001 2.2679999 1
10.001 -5.0359998 2.263 1
10.005 -4.8709998 2.2119999 1
10.002 -5.2280002 2.26 1
10.004 -4.8769999 2.2260001 1
10.001 -4.8509998 2.2539999 1
10.006 -4.9650002 2.2019999 1
10.009 -4.8449998 2.168 1
10.003 -4.993 2.2420001 1
10.003 -5.0560002 2.2379999 1
10.002 -4.8140001 2.2479999 1
10.008 -5.0279999 2.1860001 1
10.004 -4.901 2.221 1
10.001 -4.947 2.263 1
10 -5.1129999 2.2720001 1
10.002 -4.9990001 2.2479999 1
9.9989996 -4.7340002 2.2739999 1
10.003 -5.0209999 2.233 1
10 -4.8909998 2.2690001 1
10.007 -4.816 2.1819999 1
10.002 -5.2859998 2.26 1
10.001 -5.2820001 2.2709999 1
10.006 -5.1799998 2.211 1
10 -4.7729998 2.2650001 1
10.004 -5.2319999 2.233 1
10.004 -4.9099998 2.2260001 1
10.007 -4.9840002 2.1949999 1
10.003 -4.8540001 2.2290001 1
10.005 -4.9749999 2.2090001 1
10.004 -4.9239998 2.2290001 1
10.007 -4.9530001 2.1900001 1
10.001 -4.8330002 2.2579999 1
10.004 -4.7969999 2.221 1
10.007 -4.822 2.184 1
10.005 -4.9959998 2.217 1
10.005 -5.052 2.2149999 1
10 -4.9920001 2.2709999 1
10.009 -5.0050001 2.1700001 1
10.007 -4.914 2.1919999 1
10.002 -4.9910002 2.247 1
10.007 -5.1170001 2.198 1
10.002 -4.9439998 2.247 1
10 -4.8740001 2.27 1
10.002 -4.823 2.2449999 1
10.004 -5.1100001 2.2260001 1
10.005 -4.8920002 2.2079999 1
10.005 -5.0679998 2.217 1
10.005 -4.9790001 2.22 1
10.001 -5.027 2.2590001 1
10.003 -5.1479998 2.247 1
10.008 -5.0630002 2.1819999 1
10.008 -4.9840002 2.184 1
10.003 -5.0999999 2.2360001 1
10.005 -4.9520001 2.211 1
10.006 -4.8010001 2.197 1
10.001 -4.763 2.2539999 1
10.001 -4.895 2.2539999 1
10.008 -4.9060001 2.1760001 1
10.002 -5.3070002 2.2639999 1
10.002 -5.0300002 2.2550001 1
10.004 -5.184 2.23 1
10.002 -4.8109999 2.2379999 1
10.004 -5.2189999 2.237 1
10.002 -4.8769999 2.243 1
10.005 -4.9590001 2.2190001 1
10.003 -4.7909999 2.2309999 1
10.005 -5.0710001 2.221 1
10.001 -4.987 2.2650001 1
10.005 -4.934 2.2149999 1
10.001 -4.835 2.2590001 1
10.003 -5.0019999 2.2379999 1
10.006 -5.1529999 2.211 1
10.007 -4.8600001 2.1889999 1
10.009 -4.9510002 2.171 1
10.002 -5.1110001 2.2509999 1
10.003 -5.0650001 2.243 1
10.005 -5.1630001 2.2190001 1
10.009 -4.954 2.164 1
10.002 -4.7870002 2.2360001 1
9.9989996 -4.8499999 2.273 1
10.001 -5.2119999 2.267 1
10.005 -5.0279999 2.2160001 1
10.006 -4.8969998 2.2030001 1
10.004 -5.2150002 2.2309999 1
10.005 -5.1859999 2.2190001 1
10.005 -4.9629998 2.2079999 1
10 -5.0879998 2.2780001 1
10.004 -5.0180001 2.233 1
10.003 -4.9109998 2.2390001 1
10.001 -4.9299998 2.263 1
10.01 -4.8759999 2.151 1
10.001 -4.8790002 2.2520001 1
10.002 -4.954 2.2520001 1
10.008 -5.086 2.1889999 1
10.002 -5.0440001 2.2509999 1
10.001 -5.3119998 2.267 1
10.004 -4.9130001 2.2219999 1
10.004 -5.2020001 2.24 1
10.005 -4.9109998 2.211 1
10.004 -5.2319999 2.2390001 1
10.002 -5.0289998 2.253 1
10.001 -4.9359999 2.2590001 1
10.005 -4.8099999 2.2030001 1
10.007 -4.8379998 2.1900001 1
10 -4.776 2.263 1
9.9989996 -4.79 2.2780001 1
10.002 -5.302 2.2639999 1
10.008 -4.9980001 2.1800001 1
10.005 -5.2080002 2.2179999 1
10 -4.9710002 2.2739999 1
10.004 -4.8179998 2.214 1
10.002 -5.0100002 2.2509999 1
10.007 -4.948 2.191 1
10.005 -5.1989999 2.224 1
10.003 -5.2140002 2.2460001 1
10.001 -4.8740001 2.257 1
10 -4.914 2.2720001 1
10.002 -5.191 2.26 1
9.9989996 -4.8140001 2.276 1
10 -5.1929998 2.276 1
10.003 -5.0890002 2.2420001 1
10.003 -5.1560001 2.2449999 1
10.001 -5.0029998 2.2579999 1
10 -4.868 2.266 1
10.009 -5.0229998 2.175 1
10 -4.888 2.263 1
10.003 -4.9790001 2.2420001 1
10.007 -5.0110002 2.1949999 1
10.007 -4.9239998 2.184 1
10.004 -5.2579999 2.2390001 1
10 -4.9380002 2.266 1
10.005 -5.1539998 2.2179999 1
10.002 -5.1820002 2.2590001 1
10.001 -4.881 2.2579999 1
10 -4.9629998 2.27 1
10.003 -5.2490001 2.2490001 1
10.006 -4.9660001 2.2019999 1
10 -5.2600002 2.2780001 1
10.008 -4.9039998 2.1760001 1
10.008 -4.9089999 2.1719999 1
10.006 -5.0739999 2.204 1
10.009 -4.9679999 2.165 1
10.008 -4.829 2.1760001 1
10.005 -4.9349999 2.2119999 1
10.008 -4.915 2.177 1
10.003 -4.8010001 2.2320001 1
10.001 -4.7610002 2.2479999 1
10.005 -4.8699999 2.207 1
10.005 -5.1409998 2.2160001 1
10.002 -5.2820001 2.2550001 1
10.003 -5.1110001 2.24 1
10.002 -5.2519999 2.2590001 1
10.008 -4.9349999 2.181 1
10.001 -5.0279999 2.2650001 1
10.001 -5.3660002 2.276 1
10.006 -4.8000002 2.201 1
10.001 -5.145 2.2609999 1
10.005 -5.1500001 2.2179999 1
10.009 -5.0110002 2.1719999 1
10.002 -4.7540002 2.2409999 1
10.002 -4.9970002 2.247 1
10.002 -5.0549998 2.257 1
10.002 -5.1209998 2.2590001 1
9.9989996 -4.908 2.2780001 1
10.002 -5.1960001 2.2520001 1
10.001 -5.4120002 2.2750001 1
10.004 -4.9920001 2.2249999 1
10.01 -4.9390001 2.158 1
10 -4.8699999 2.266 1
10.004 -4.973 2.2290001 1
10 -5.0079999 2.276 1
10.001 -4.96 2.2609999 1
10.005 -4.8400002 2.214 1
10 -5.0650001 2.273 1
10.002 -4.8299999 2.2379999 1
10.006 -4.8369999 2.198 1
10.004 -5.2220001 2.2309999 1
9.9989996 -4.947 2.2780001 1
10.003 -5.2340002 2.2520001 1
10.001 -4.8639998 2.26 1
10 -4.8299999 2.263 1
10.001 -5.3039999 2.2780001 1
10.003 -5.0320001 2.2449999 1
10.006 -4.9390001 2.1989999 1
10.005 -4.8959999 2.211 1
10.007 -4.9429998 2.1930001 1
10.004 -5.1110001 2.227 1
10.001 -5.0339999 2.2609999 1
10.004 -4.9899998 2.224 1
10 -4.855 2.2709999 1
10.004 -5.2979999 2.24 1
10.008 -4.8639998 2.177 1
10.005 -4.9530001 2.21 1
10.006 -4.8579998 2.197 1
10.001 -4.8990002 2.257 1
10.007 -4.9790001 2.194 1
10.004 -4.855 2.217 1
10 -4.7940001 2.2690001 1
10.004 -5.2309999 2.237 1
10.006 -5.0469999 2.204 1
10.005 -4.9159999 2.2160001 1
10.003 -5.0019999 2.2349999 1
10.002 -4.7859998 2.24 1
10.002 -4.9239998 2.2490001 1
10.003 -5.1030002 2.2379999 1
10.01 -4.9320002 2.1589999 1
10.005 -5.2150002 2.2249999 1
10.005 -4.9439998 2.2119999 1
10.002 -4.756 2.244 1
10.003 -4.7849998 2.234 1
10.003 -5.2849998 2.2449999 1
10.009 -4.9200001 2.1670001 1
10.002 -5.3600001 2.2679999 1
10.005 -4.8509998 2.207 1
10.003 -4.8839998 2.233 1
10.008 -4.9699998 2.174 1
10.005 -4.7979999 2.2019999 1
10.005 -5.125 2.2149999 1
10.003 -5.2490001 2.25 1
10.004 -5.2480001 2.2349999 1
10.001 -5.3899999 2.2780001 1
10.002 -5.2449999 2.2539999 1
10.001 -5.3720002 2.276 1
10.004 -5.1919999 2.233 1
10.005 -5.073 2.2160001 1
10 -5.0560002 2.276 1
10 -4.9489999 2.273 1
10.004 -4.9640002 2.2279999 1
10 -5.23 2.277 1
10 -4.7059999 2.266 1
10.005 -4.8899999 2.2160001 1
10.01 -4.8590002 2.158 1
10.001 -4.7870002 2.2520001 1
10.002 -4.8039999 2.243 1
10 -5.0279999 2.2720001 1
10.004 -5.2589998 2.2379999 1
10.007 -4.8379998 2.1819999 1
10.01 -4.9829998 2.1619999 1
10.003 -5.191 2.2420001 1
10.004 -5.131 2.2360001 1
10 -4.9790001 2.2709999 1
10.005 -5.1890001 2.221 1
10.002 -5.368 2.2609999 1
10.002 -5.3660002 2.2609999 1
10 -5.0700002 2.277 1
10.003 -5.29 2.2460001 1
10.003 -5.151 2.2460001 1
10.001 -5.1700001 2.2720001 1
10 -5.1160002 2.277 1
10.005 -4.987 2.211 1
10 -5.2579999 2.277 1
10.006 -5.0040002 2.2 1
10.006 -5.0739999 2.2090001 1
10.002 -5.119 2.2490001 1
10.007 -5.0159998 2.191 1
9.9989996 -4.9000001 2.277 1
10.002 -5.0320001 2.2490001 1
10.005 -5.21 2.2279999 1
10.002 -4.9590001 2.2449999 1
10.001 -4.9369998 2.2639999 1
10 -5.1230001 2.2739999 1
10.002 -5.2810001 2.2579999 1
10.003 -5.2849998 2.25 1
10.001 -5.342 2.2690001 1
10.006 -5.1139998 2.207 1
10.003 -5.3200002 2.2520001 1
10.002 -5.0300002 2.2479999 1
10 -4.875 2.273 1
10.004 -5.0479999 2.224 1
10.001 -4.9060001 2.2579999 1
10.006 -5.0549998 2.201 1
10.008 -4.8860002 2.1719999 1
10.006 -4.8119998 2.197 1
10.004 -5.04 2.2279999 1
10.003 -4.8010001 2.233 1
10.007 -4.8730001 2.191 1
10.002 -4.823 2.247 1
10.001 -5.0370002 2.2609999 1
10.003 -5.1360002 2.2420001 1
10 -5.1420002 2.273 1
10.006 -5.1370001 2.2079999 1
10 -4.7709999 2.263 1
10.009 -4.9790001 2.164 1
10.01 -4.927 2.155 1
10 -4.947 2.266 1
10.007 -5.1139998 2.2 1
10 -4.9180002 2.2690001 1
10 -5.237 2.2780001 1
10.006 -5.1350002 2.21 1
10.007 -4.8369999 2.1800001 1
10.001 -5.21 2.2639999 1
10.005 -4.8590002 2.21 1
10.003 -4.9169998 2.2390001 1
10.01 -4.914 2.1570001 1
10.007 -5.1389999 2.201 1
10.001 -5.033 2.267 1
10.01 -4.9650002 2.1600001 1
10.006 -5.1820002 2.214 1
10.006 -4.9320002 2.201 1
10.004 -5.1110001 2.23 1
10.003 -4.9770002 2.2409999 1
10.004 -4.8049998 2.22 1
10.009 -4.9250002 2.1630001 1
10.002 -5.0599999 2.257 1
10.001 -4.9489999 2.256 1
10.005 -5.1220002 2.2190001 1
10.001 -4.9429998 2.257 1
10.003 -5.178 2.2409999 1
10.004 -5.2470002 2.2409999 1
10.004 -5.006 2.23 1
10.003 -5.0359998 2.237 1
10.004 -4.9180002 2.223 1
10.002 -5.1300001 2.257 1
10.003 -5.1830001 2.2449999 1
10.006 -4.895 2.197 1
10.008 -5.02 2.181 1
10.001 -5.1040001 2.2620001 1
10.002 -5.336 2.267 1
10.001 -4.7930002 2.2590001 1
10.004 -5.2340002 2.2360001 1
10.001 -4.8119998 2.2590001 1
10.003 -4.7849998 2.2290001 1
10.001 -4.9369998 2.2620001 1
10.007 -5.052 2.1889999 1
10.001 -5.2140002 2.2650001 1
10.005 -4.8210001 2.2130001 1
10.005 -4.8340001 2.2130001 1
10.001 -4.8369999 2.257 1
10 -4.803 2.267 1
10 -4.8670001 2.2679999 1
10.001 -4.8520002 2.253 1
10.006 -5.1059999 2.21 1
10.004 -4.868 2.2160001 1
10.009 -4.8990002 2.168 1
10.007 -5.0770001 2.198 1
10.002 -5.2270002 2.253 1
10.006 -4.9260001 2.2060001 1
9.9989996 -4.8439999 2.277 1
10.004 -5.1859999 2.23 1
10.007 -5.0240002 2.194 1
10.002 -4.914 2.2490001 1
10.009 -4.9660001 2.1659999 1
10.002 -4.7919998 2.2460001 1
10.007 -5.0009999 2.191 1
10.005 -5.046 2.217 1
10.004 -4.9689999 2.2249999 1
10.006 -5.02 2.2090001 1
10.003 -5.1009998 2.2390001 1
10.004 -4.9840002 2.2290001 1
10.003 -5.2399998 2.243 1
10.002 -5.1620002 2.2590001 1
10.005 -5.027 2.2160001 1
10.001 -5.2249999 2.2679999 1
10.001 -4.9819999 2.256 1
10.005 -4.8119998 2.2090001 1
10.004 -4.8600001 2.223 1
9.9989996 -4.868 2.2739999 1
10.009 -4.9510002 2.1700001 1
10.003 -4.9780002 2.2349999 1
10.002 -4.9780002 2.2509999 1
10 -4.777 2.263 1
10.003 -4.9790001 2.2360001 1
10.007 -4.849 2.181 1
10.002 -5.0599999 2.2479999 1
10.006 -4.9580002 2.2 1
10.002 -5.0630002 2.253 1
10.009 -4.8829999 2.168 1
10.004 -4.9320002 2.221 1
10.01 -4.8070002 2.152 1
10.005 -4.6170001 2.2049999 1
10.003 -4.572 2.2290001 1
10.01 -4.4689999 2.1500001 1
10.01 -4.7309999 2.1570001 1
10.008 -4.506 2.171 1
10.004 -4.3629999 2.2149999 1
10.004 -4.6849999 2.2219999 1
10.008 -4.5539999 2.175 1
10.009 -4.2810001 2.1659999 1
10.006 -4.6929998 2.197 1
10.01 -4.335 2.1600001 1
10.008 -4.3829999 2.175 1
10.002 -4.7199998 2.237 1
10.009 -4.579 2.1630001 1
10.007 -4.5650001 2.188 1
10.005 -4.48 2.2060001 1
10.01 -4.5320001 2.1559999 1
10.009 -4.671 2.1670001 1
10.008 -4.7649999 2.1800001 1
10.002 -4.6360002 2.2409999 1
10.007 -4.3569999 2.187 1
10.004 -4.5139999 2.2249999 1
10.008 -4.7540002 2.174 1
10 -4.539 2.2609999 1
10.004 -4.5419998 2.2190001 1
10.01 -4.7379999 2.151 1
10.008 -4.5279999 2.171 1
10 -4.671 2.257 1
10.005 -4.3979998 2.2090001 1
10.007 -4.79 2.184 1
10.001 -4.6479998 2.253 1
10.005 -4.7480001 2.21 1
10.008 -4.5300002 2.1719999 1
10.008 -4.29 2.1719999 1
10.004 -4.6729999 2.2149999 1
10.008 -4.3060002 2.1800001 1
10.001 -4.6620002 2.253 1
10.004 -4.4640002 2.221 1
9.9989996 -4.599 2.2709999 1
10.002 -4.5710001 2.237 1
10.004 -4.4510002 2.2249999 1
10.008 -4.8140001 2.1700001 1
10.007 -4.6810002 2.184 1
10.006 -4.777 2.197 1
10.007 -4.7620001 2.1830001 1
10.002 -4.5009999 2.2360001 1
10.003 -4.573 2.2260001 1
10.01 -4.349 2.158 1
10.009 -4.1820002 2.1630001 1
10.007 -4.7360001 2.184 1
10.009 -4.4850001 2.1619999 1
10.008 -4.2940001 2.178 1
10.005 -4.368 2.207 1
10.008 -4.6789999 2.174 1
10.008 -4.6399999 2.1760001 1
10.006 -4.6409998 2.197 1
10.001 -4.671 2.2509999 1
9.9989996 -4.6799998 2.277 1
10.005 -4.6820002 2.2079999 1
10.008 -4.6700001 2.174 1
10.001 -4.6240001 2.2539999 1
10.005 -4.4959998 2.204 1
10.008 -4.2940001 2.1789999 1
10.004 -4.4359999 2.2179999 1
10.008 -4.441 2.1760001 1
10.007 -4.2620001 2.184 1
10.009 -4.7210002 2.1600001 1
10.007 -4.3920002 2.191 1
10.01 -4.2179999 2.1600001 1
10.005 -4.6960001 2.2060001 1
10.007 -4.6989999 2.181 1
10.005 -4.5159998 2.2060001 1
10.009 -4.6989999 2.165 1
10.001 -4.6500001 2.2479999 1
10.005 -4.3600001 2.207 1
10.006 -4.7389998 2.1930001 1
10.002 -4.5560002 2.243 1
10.008 -4.513 2.177 1
10.01 -4.2950001 2.158 1
10.002 -4.6739998 2.2379999 1
10.006 -4.585 2.2 1
10.008 -4.3429999 2.177 1
10.006 -4.572 2.2 1
10.004 -4.4099998 2.2249999 1
10.01 -4.2610002 2.158 1
10.004 -4.6529999 2.2190001 1
10.001 -4.7069998 2.2490001 1
10.009 -4.6789999 2.165 1
10.008 -4.4980001 2.174 1
10.008 -4.4369998 2.174 1
10.01 -4.7800002 2.158 1
10.005 -4.6389999 2.204 1
10.007 -4.3280001 2.1849999 1
10.001 -4.619 2.2539999 1
10.007 -4.5900002 2.187 1
10.01 -4.2059999 2.1530001 1
10.009 -4.211 2.1700001 1
10.009 -4.7919998 2.158 1
10.004 -4.4159999 2.217 1
10.01 -4.5999999 2.158 1
10.002 -4.6929998 2.2420001 1
10.009 -4.5450001 2.1630001 1
10.001 -4.4980001 2.2490001 1
10.001 -4.7150002 2.2509999 1
10.009 -4.6919999 2.168 1
10.009 -4.5229998 2.1659999 1
10.007 -4.4520001 2.1900001 1
10.004 -4.625 2.223 1
10.004 -4.5349998 2.22 1
10.006 -4.7410002 2.2019999 1
10.004 -4.6430001 2.2179999 1
10.002 -4.631 2.243 1
10 -4.6440001 2.2609999 1
10.009 -4.3039999 2.168 1
10.004 -4.5029998 2.217 1
10.001 -4.5900002 2.25 1
10.002 -4.473 2.237 1
10.005 -4.6090002 2.207 1
10 -4.618 2.2650001 1
10.001 -4.5749998 2.257 1
10.003 -4.5100002 2.2309999 1
10.009 -4.2340002 2.1630001 1
10.006 -4.52 2.2019999 1
10.007 -4.421 2.1849999 1
10.01 -4.4310002 2.1500001 1
10.005 -4.6069999 2.2030001 1
10.01 -4.4429998 2.158 1
10.008 -4.237 2.175 1
10.005 -4.5209999 2.2130001 1
10.008 -4.427 2.178 1
10.002 -4.5050001 2.2420001 1
10.009 -4.3660002 2.1700001 1
10.009 -4.2839999 2.1659999 1
10.009 -4.6529999 2.168 1
10.008 -4.7030001 2.1789999 1
10.008 -4.2319999 2.181 1
10.003 -4.4439998 2.227 1
10.003 -4.533 2.2309999 1
10.004 -4.6399999 2.2130001 1
10.009 -4.671 2.165 1
10.01 -4.4580002 2.151 1
10.005 -4.6719999 2.2060001 1
10.006 -4.5240002 2.1930001 1
10.006 -4.585 2.1960001 1
10.003 -4.6919999 2.2279999 1
10.01 -4.276 2.1589999 1
10.007 -4.8039999 2.1830001 1
10.01 -4.382 2.1500001 1
10.01 -4.507 2.1500001 1
10.007 -4.697 2.1860001 1
10.006 -4.4569998 2.197 1
10.009 -4.2849998 2.168 1
10.006 -4.6529999 2.194 1
10.009 -4.382 2.1619999 1
10.01 -4.6560001 2.155 1
10.008 -4.4099998 2.1730001 1
10.008 -4.276 2.177 1
10.005 -4.7550001 2.2019999 1
10.008 -4.8099999 2.1789999 1
10.008 -4.566 2.174 1
10.002 -4.573 2.2420001 1
10.01 -4.5359998 2.152 1
10.01 -4.1420002 2.1530001 1
10.001 -4.631 2.256 1
10.009 -4.388 2.161 1
10.008 -4.7150002 2.1719999 1
10.008 -4.4099998 2.1760001 1
10.004 -4.5929999 2.223 1
10.003 -4.5879998 2.227 1
10.007 -4.5840001 2.191 1
10 -4.6550002 2.2650001 1
10.003 -4.5289998 2.2249999 1
10.004 -4.5190001 2.223 1
10.002 -4.46 2.2379999 1
10.006 -4.6030002 2.198 1
10.01 -4.8189998 2.1489999 1
10.009 -4.4790001 2.161 1
10.002 -4.5630002 2.2379999 1
10.003 -4.4559999 2.23 1
10.004 -4.5869999 2.2149999 1
10.006 -4.5380001 2.2 1
10.009 -4.8189998 2.1619999 1
10.01 -4.8400002 2.1500001 1
10.009 -4.631 2.168 1
10.004 -4.46 2.2190001 1
10.002 -4.6900001 2.2409999 1
10.002 -4.52 2.2360001 1
10.01 -4.5229998 2.1489999 1
10.01 -4.369 2.1570001 1
10.009 -4.7589998 2.1670001 1
10.01 -4.3210001 2.1570001 1
10.007 -4.3649998 2.184 1
10.001 -4.6149998 2.247 1
10.004 -4.5630002 2.221 1
10.007 -4.3649998 2.1889999 1
10.006 -4.4699998 2.1949999 1
10.007 -4.3569999 2.187 1
10.005 -4.6939998 2.2090001 1
10.004 -4.5929999 2.214 1
10.001 -4.6339998 2.2520001 1
10.002 -4.6100001 2.2390001 1
10.002 -4.5110002 2.2460001 1
10.008 -4.6999998 2.1700001 1
10.009 -4.7930002 2.168 1
10.004 -4.4899998 2.221 1
10.003 -4.6090002 2.227 1
10.007 -4.3569999 2.1830001 1
10.007 -4.401 2.187 1
10.004 -4.717 2.22 1
10.001 -4.6100001 2.2539999 1
10.006 -4.3280001 2.2 1
10.009 -4.408 2.1630001 1
10.009 -4.4390001 2.1630001 1
10.008 -4.7410002 2.175 1
10.001 -4.6110001 2.2550001 1
10.004 -4.7540002 2.2219999 1
10.006 -4.7909999 2.194 1
10.01 -4.5180001 2.152 1
10.008 -4.3569999 2.1730001 1
10.009 -4.4039998 2.165 1
10.006 -4.6659999 2.2 1
10.007 -4.4289999 2.1819999 1
10.006 -4.3740001 2.1960001 1
10.004 -4.421 2.22 1
10.01 -4.2839999 2.151 1
10.008 -4.2709999 2.1789999 1
10.007 -4.5050001 2.1889999 1
10.009 -4.2210002 2.164 1
10.004 -4.5840001 2.2190001 1
10 -4.598 2.2639999 1
10.001 -4.5900002 2.2509999 1
10.004 -4.6290002 2.217 1
9.9989996 -4.6830001 2.2709999 1
10.005 -4.5630002 2.2079999 1
10.008 -4.3410001 2.178 1
10 -4.664 2.2650001 1
10.006 -4.5 2.1989999 1
9.9989996 -4.5890002 2.27 1
10.006 -4.5879998 2.1930001 1
10.01 -4.8060002 2.155 1
10.007 -4.4310002 2.1889999 1
10.007 -4.3179998 2.1849999 1
10.005 -4.6750002 2.211 1
10.01 -4.7740002 2.1500001 1
10.001 -4.6370001 2.2520001 1
10.009 -4.7350001 2.1619999 1
10.008 -4.5419998 2.171 1
10.003 -4.5500002 2.2249999 1
10.01 -4.2350001 2.1530001 1
10.001 -4.605 2.2509999 1
10.004 -4.7179999 2.217 1
10 -4.6420002 2.26 1
10.001 -4.5219998 2.2509999 1
10.002 -4.5339999 2.2449999 1
10.008 -4.553 2.171 1
10.006 -4.355 2.201 1
10.005 -4.6810002 2.2049999 1
10.008 -4.6389999 2.1719999 1
10.003 -4.6350002 2.2249999 1
10.009 -4.572 2.164 1
9.9989996 -4.6220002 2.277 1
10.009 -4.3930001 2.165 1
10.009 -4.4400001 2.168 1
10.009 -4.3169999 2.1659999 1
10.001 -4.6929998 2.2460001 1
10.003 -4.4640002 2.233 1
10.005 -4.5100002 2.2049999 1
9.9989996 -4.6129999 2.2709999 1
10.008 -4.5840001 2.177 1
10.004 -4.454 2.2160001 1
10.009 -4.8390002 2.161 1
10.01 -4.2989998 2.1530001 1
10.009 -4.5910001 2.1600001 1
10.002 -4.5120001 2.2460001 1
10.006 -4.6279998 2.2 1
10.005 -4.717 2.211 1
10.005 -4.4990001 2.207 1
10.004 -4.546 2.223 1
10.008 -4.7690001 2.1730001 1
10 -4.6459999 2.2639999 1
10.006 -4.329 2.1989999 1
10.008 -4.7529998 2.177 1
10.005 -4.7540002 2.211 1
10.002 -4.4790001 2.2379999 1
10.008 -4.257 2.175 1
10.007 -4.7639999 2.188 1
10.007 -4.717 2.188 1
10.005 -4.395 2.211 1
10 -4.6869998 2.263 1
10.006 -4.349 2.201 1
10.002 -4.48 2.24 1
10.005 -4.4060001 2.2079999 1
10.006 -4.4400001 2.1960001 1
10.008 -4.75 2.1689999 1
10.006 -4.671 2.1989999 1
9.9989996 -4.6739998 2.2709999 1
10.005 -4.5029998 2.211 1
10.01 -4.8249998 2.151 1
10.009 -4.3740001 2.1689999 1
10.01 -4.6609998 2.1559999 1
10.01 -4.4390001 2.1589999 1
10.01 -4.7870002 2.158 1
10.005 -4.5089998 2.211 1
10 -4.632 2.26 1
10.005 -4.645 2.2079999 1
10.009 -4.4970002 2.168 1
10.004 -4.487 2.2190001 1
10.006 -4.415 2.194 1
10.001 -4.5380001 2.2520001 1
10.004 -4.4879999 2.2179999 1
10.009 -4.3559999 2.164 1
10.007 -4.4899998 2.1900001 1
10.008 -4.6389999 2.1800001 1
10.004 -4.5430002 2.22 1
10.005 -4.3920002 2.2119999 1
10.007 -4.6599998 2.184 1
10 -4.6329999 2.2679999 1
10.003 -4.4959998 2.2360001 1
10.005 -4.599 2.2130001 1
10.007 -4.4590001 2.187 1
10.01 -4.3709998 2.1530001 1
10.003 -4.6570001 2.233 1
10.007 -4.5549998 2.1860001 1
10.008 -4.4429998 2.181 1
10.007 -4.3899999 2.1830001 1
10.004 -4.7290001 2.221 1
10.01 -4.8340001 2.1500001 1
10.008 -4.6999998 2.1800001 1
10.008 -4.6820002 2.175 1
10.008 -4.803 2.1700001 1
10.007 -4.4169998 2.1930001 1
10.002 -4.6240001 2.2449999 1
10.01 -4.4219999 2.1589999 1
10.01 -4.6170001 2.1500001 1
10.01 -4.5539999 2.155 1
10.01 -4.3049998 2.1570001 1
10.008 -4.6739998 2.1800001 1
10.001 -4.5180001 2.2479999 1
10.008 -4.2449999 2.1819999 1
10.008 -4.4159999 2.178 1
10.001 -4.559 2.2509999 1
10.009 -4.197 2.1619999 1
10.002 -4.4970002 2.2449999 1
10.007 -4.7490001 2.187 1
10.007 -4.579 2.187 1
10.007 -4.4190001 2.1930001 1
10.009 -4.467 2.1619999 1
10.01 -4.6599998 2.158 1
10.006 -4.7909999 2.1949999 1
10.009 -4.6880002 2.1659999 1
10.007 -4.3239999 2.1930001 1
10.006 -4.5300002 2.2 1
10.002 -4.5279999 2.247 1
10.01 -4.4450002 2.152 1
10.006 -4.756 2.1989999 1
10.01 -4.4990001 2.1559999 1
10.008 -4.2399998 2.174 1
10.007 -4.2690001 2.1889999 1
10.004 -4.5700002 2.2219999 1
10.009 -4.2690001 2.164 1
10.009 -4.4050002 2.1700001 1
10 -4.6500001 2.266 1
10.005 -4.4489999 2.2130001 1
10.007 -4.4840002 2.184 1
10.008 -4.493 2.1730001 1
9.9989996 -4.6430001 2.2780001 1
10.009 -4.3410001 2.1659999 1
10.006 -4.6259999 2.1960001 1
10.006 -4.5710001 2.198 1
10.008 -4.3109999 2.181 1
10.003 -4.4489999 2.2279999 1
10 -4.6149998 2.266 1
10.007 -4.4899998 2.1889999 1
10.001 -4.5570002 2.253 1
10.005 -4.6290002 2.2049999 1
10.002 -4.7270002 2.2390001 1
10.008 -4.2820001 2.174 1
10 -4.6570001 2.2650001 1
10.004 -4.5640001 2.214 1
10.007 -4.724 2.187 1
10.008 -4.7389998 2.177 1
10.01 -4.572 2.1489999 1
10.009 -4.5380001 2.1600001 1
10.009 -4.5380001 2.164 1
10.008 -4.5359998 2.1789999 1
10.007 -4.7150002 2.1900001 1
10.004 -4.6560001 2.217 1
10.005 -4.4190001 2.214 1
10.008 -4.4180002 2.1819999 1
10.002 -4.5019999 2.244 1
10.009 -4.7519999 2.1689999 1
10.009 -4.2979999 2.1670001 1
10.006 -4.737 2.198 1
10.01 -4.3899999 2.152 1
10.006 -4.3390002 2.1960001 1
10.006 -4.5170002 2.1949999 1
10.008 -4.303 2.178 1
10.01 -4.6869998 2.1500001 1
10.005 -4.4229999 2.214 1
10.008 -4.401 2.181 1
10.01 -4.8200002 2.152 1
10.007 -4.369 2.191 1
10.007 -4.4109998 2.191 1
10.001 -4.6160002 2.2490001 1
10.009 -4.3899999 2.171 1
10.011 -4.3249998 2.1489999 1
10.005 -4.4029999 2.2079999 1
10.008 -4.5939999 2.1800001 1
10.002 -4.711 2.2379999 1
10.008 -4.6040001 2.1719999 1
10.008 -4.6420002 2.1730001 1
10.003 -4.5430002 2.2309999 1
10.006 -4.4910002 2.1989999 1
10.01 -4.2719998 2.152 1
10.003 -4.553 2.2309999 1
10.001 -4.7280002 2.247 1
10 -4.5599999 2.2579999 1
10.004 -4.7620001 2.2160001 1
10.004 -4.711 2.2219999 1
10.01 -4.2010002 2.154 1
10.009 -4.4850001 2.1600001 1
10.006 -4.5780001 2.197 1
10.001 -4.5770001 2.2520001 1
10.006 -4.6659999 2.2 1
10.009 -4.52 2.1630001 1
10.009 -4.276 2.1630001 1
10.008 -4.29 2.178 1
10.001 -4.7179999 2.2490001 1
10.007 -4.677 2.184 1
10.009 -4.638 2.165 1
10.01 -4.447 2.1600001 1
10.009 -4.198 2.1619999 1
10.003 -4.645 2.2249999 1
10 -4.645 2.263 1
10.003 -4.6069999 2.2290001 1
10.007 -4.4239998 2.1900001 1
10.005 -4.5700002 2.2130001 1
10.006 -4.4549999 2.198 1
10.005 -4.6680002 2.21 1
10.009 -4.3470001 2.1700001 1
10.005 -4.4790001 2.2130001 1
10.01 -4.7810001 2.154 1
10.004 -4.507 2.2160001 1
10.01 -4.2979999 2.1600001 1
10.01 -4.6609998 2.1570001 1
10.009 -4.809 2.1600001 1
10.009 -4.4130001 2.161 1
10.005 -4.4530001 2.2119999 1
10.006 -4.3169999 2.2019999 1
10.009 -4.316 2.1689999 1
10.008 -4.5970001 2.175 1
10.01 -4.7589998 2.1530001 1
10.006 -4.4239998 2.197 1
10.008 -4.5830002 2.1760001 1
10.005 -4.7020001 2.2119999 1
10.006 -4.4289999 2.1989999 1
10.003 -4.6220002 2.23 1
10.003 -4.7410002 2.234 1
10.002 -4.5110002 2.24 1
10.008 -4.7249999 2.178 1
10.009 -4.4070001 2.168 1
10.002 -4.48 2.2460001 1
10.007 -4.71 2.1830001 1
10.001 -4.6209998 2.2520001 1
10.006 -4.7779999 2.1930001 1
10.009 -4.7519999 2.164 1
10.004 -4.428 2.2219999 1
10.008 -4.723 2.171 1
10.009 -4.3649998 2.1619999 1
10 -4.6490002 2.2579999 1
10.006 -4.3979998 2.1960001 1
10.008 -4.7509999 2.1719999 1
10.009 -4.2709999 2.171 1
10.009 -4.7259998 2.1630001 1
10.006 -4.7379999 2.2 1
10.01 -4.395 2.152 1
10.007 -4.7579999 2.187 1
10.007 -4.4980001 2.184 1
10.004 -4.4359999 2.223 1
10.008 -4.5669999 2.175 1
10.007 -4.7069998 2.1830001 1
10.003 -4.691 2.224 1
10.004 -4.7049999 2.214 1
10.01 -4.296 2.152 1
10.008 -4.2859998 2.1819999 1
10.009 -4.48 2.161 1
10.01 -4.5040002 2.1500001 1
10.001 -4.5349998 2.256 1
10.002 -4.5500002 2.2449999 1
10.005 -4.6269999 2.207 1
9.9989996 -4.618 2.2679999 1
10.01 -4.4970002 2.152 1
9.9989996 -4.6669998 2.276 1
10.009 -4.27 2.1700001 1
10.009 -4.2690001 2.164 1
10.003 -4.6399999 2.233 1
10 -4.6859999 2.2609999 1
10.008 -4.7280002 2.1800001 1
10.01 -4.434 2.155 1
10.008 -4.6820002 2.175 1
10.01 -4.1750002 2.152 1
10.006 -4.6799998 2.201 1
10.005 -4.5 2.2079999 1
10.01 -4.684 2.1500001 1
10.006 -4.5419998 2.201 1
10.007 -4.789 2.1819999 1
10.002 -4.5799999 2.244 1
10.01 -4.1630001 2.158 1
10.01 -4.4780002 2.1489999 1
10.002 -4.652 2.2460001 1
10.01 -4.6719999 2.154 1
10.007 -4.664 2.1819999 1
10.01 -4.4910002 2.154 1
10.01 -4.2849998 2.1589999 1
10 -4.645 2.2650001 1
10.009 -4.6469998 2.1670001 1
10.009 -4.2119999 2.164 1
10.01 -4.527 2.151 1
10.011 -4.414 2.1489999 1
10.006 -4.592 2.1949999 1
10.01 -4.6550002 2.158 1
10.002 -4.539 2.2379999 1
10 -4.6500001 2.266 1
10.006 -4.737 2.197 1
10.005 -4.5300002 2.211 1
10.008 -4.2470002 2.181 1
10.009 -4.2849998 2.171 1
10.003 -4.5190001 2.2320001 1
10.003 -4.4829998 2.2349999 1
10.01 -4.5310001 2.1489999 1
10.003 -4.6960001 2.224 1
9.9989996 -4.6220002 2.276 1
10.004 -4.7150002 2.2130001 1
10 -4.6539998 2.2620001 1
10.01 -4.2979999 2.1600001 1
10.01 -4.5209999 2.151 1
10.002 -4.4819999 2.2390001 1
10.008 -4.7059999 2.1700001 1
10.003 -4.6269999 2.2290001 1
10.007 -4.5479999 2.1849999 1
10.006 -4.46 2.2 1
10.007 -4.6149998 2.181 1
10.005 -4.4780002 2.2119999 1
10.003 -4.612 2.2279999 1
10.009 -4.2979999 2.1700001 1
10.002 -4.704 2.24 1
10.006 -4.5549998 2.2 1
10.003 -4.5489998 2.2349999 1
10.01 -4.2909999 2.161 1
10.004 -4.4499998 2.221 1
10 -4.5440001 2.2609999 1
10.004 -4.2290001 2.2149999 1
9.9989996 -4.1079998 2.2449999 1
10.005 -4.2639999 2.2049999 1
9.9969997 -4.177 2.2679999 1
10.003 -4.4310002 2.234 1
9.9969997 -4.2049999 2.27 1
10 -4.2550001 2.2479999 1
10.001 -4.0799999 2.23 1
10.001 -4.119 2.2290001 1
9.9989996 -4.3509998 2.2609999 1
9.9989996 -4.3600001 2.2590001 1
10.007 -4.243 2.1860001 1
10.002 -4.27 2.23 1
10.002 -4.3670001 2.2390001 1
9.9989996 -4.302 2.256 1
10.005 -4.2080002 2.2060001 1
10 -4.224 2.2490001 1
9.9980001 -4.3429999 2.2709999 1
9.9969997 -4.1500001 2.27 1
10.006 -4.2509999 2.1930001 1
10.003 -4.402 2.2279999 1
9.9969997 -4.0939999 2.2639999 1
10.002 -4.3610001 2.237 1
10.006 -4.1750002 2.1949999 1
10 -4.1110001 2.243 1
10.007 -4.118 2.1819999 1
10.001 -4.125 2.2290001 1
10.006 -4.1230001 2.1930001 1
10.009 -4.1599998 2.168 1
9.9989996 -4.1739998 2.2539999 1
9.9969997 -4.1389999 2.263 1
10.009 -4.1750002 2.171 1
10.002 -4.2600002 2.233 1
9.9989996 -4.4629998 2.263 1
9.9969997 -4.177 2.2690001 1
10.005 -4.2680001 2.2049999 1
10.002 -4.428 2.237 1
9.9980001 -4.4369998 2.2720001 1
10.003 -4.184 2.22 1
10.005 -4.152 2.198 1
9.9980001 -4.2600002 2.263 1
10.008 -4.1799998 2.177 1
10.004 -4.2519999 2.2160001 1
10.006 -4.2779999 2.201 1
10 -4.4829998 2.26 1
9.9980001 -4.4710002 2.2750001 1
10.005 -4.1589999 2.2030001 1
10.006 -4.1859999 2.194 1
10.004 -4.2449999 2.21 1
10.007 -4.177 2.184 1
10.004 -4.3400002 2.221 1
10.002 -4.3449998 2.2390001 1
9.9989996 -4.3330002 2.257 1
10.001 -4.4250002 2.2460001 1
9.9989996 -4.119 2.2479999 1
10.003 -4.2080002 2.2179999 1
9.9980001 -4.2540002 2.2620001 1
9.9989996 -4.151 2.2479999 1
10.001 -4.4460001 2.253 1
9.9980001 -4.1269999 2.26 1
10 -4.4029999 2.2520001 1
10.008 -4.1960001 2.1800001 1
10.005 -4.2010002 2.2019999 1
10 -4.1300001 2.2390001 1
10.005 -4.098 2.1989999 1
10.001 -4.3410001 2.244 1
9.9989996 -4.3909998 2.263 1
10 -4.4029999 2.253 1
9.9980001 -4.1560001 2.2590001 1
10.007 -4.2350001 2.1860001 1
10.001 -4.4759998 2.2479999 1
9.9989996 -4.3439999 2.2650001 1
10.007 -4.1209998 2.1819999 1
10.005 -4.2389998 2.2030001 1
10.005 -4.2150002 2.2049999 1
9.9989996 -4.493 2.27 1
10.001 -4.2090001 2.237 1
10.003 -4.2249999 2.2179999 1
9.9969997 -4.2969999 2.276 1
9.9969997 -4.1490002 2.2690001 1
10.006 -4.092 2.1889999 1
10.008 -4.1799998 2.177 1
9.9989996 -4.5380001 2.2679999 1
9.9980001 -4.1859999 2.257 1
10 -4.1669998 2.24 1
10.005 -4.1630001 2.201 1
10.007 -4.2620001 2.1919999 1
9.9969997 -4.1849999 2.2690001 1
9.9989996 -4.2249999 2.2550001 1
9.9960003 -4.0630002 2.2709999 1
10.001 -4.2740002 2.2379999 1
9.9980001 -4.507 2.2750001 1
9.9980001 -4.454 2.277 1
9.9980001 -4.4429998 2.273 1
9.9969997 -4.3530002 2.2780001 1
10.003 -4.4159999 2.2309999 1
10.004 -4.355 2.2219999 1
10.004 -4.0970001 2.2079999 1
9.9969997 -4.2550001 2.2720001 1
10.007 -4.1399999 2.184 1
9.9989996 -4.2589998 2.2539999 1
10 -4.362 2.2520001 1
10.003 -4.1069999 2.2179999 1
9.9969997 -4.3769999 2.276 1
10.005 -4.1020002 2.1930001 1
10 -4.2979999 2.2490001 1
9.9980001 -4.0960002 2.26 1
10.004 -4.2600002 2.2119999 1
10.003 -4.395 2.2260001 1
10.001 -4.2519999 2.243 1
10.003 -4.3039999 2.223 1
10.002 -4.1420002 2.221 1
10.006 -4.1170001 2.191 1
9.9989996 -4.5380001 2.27 1
9.9980001 -4.5100002 2.2750001 1
10.005 -4.197 2.2 1
10 -4.5170002 2.2639999 1
10.004 -4.2280002 2.2090001 1
10.002 -4.329 2.237 1
10.001 -4.0970001 2.234 1
10.008 -4.1849999 2.177 1
10.007 -4.2140002 2.1830001 1
10.005 -4.0869999 2.1919999 1
10.005 -4.1020002 2.194 1
9.9989996 -4.3060002 2.2609999 1
10.005 -4.3070002 2.204 1
10.003 -4.2519999 2.224 1
10.002 -4.3070002 2.234 1
10.006 -4.191 2.194 1
9.9989996 -4.4949999 2.2720001 1
10 -4.4419999 2.2550001 1
9.9980001 -4.4429998 2.2739999 1
10.001 -4.2820001 2.2409999 1
10 -4.1550002 2.244 1
10 -4.2350001 2.2449999 1
9.9969997 -4.2909999 2.2720001 1
10.002 -4.2020001 2.224 1
10 -4.1890001 2.2449999 1
9.9980001 -4.487 2.2739999 1
9.9960003 -4.171 2.2739999 1
9.9980001 -4.3280001 2.27 1
9.9989996 -4.3769999 2.26 1
10 -4.4770002 2.2590001 1
9.9980001 -4.3930001 2.2690001 1
9.9980001 -4.2340002 2.2650001 1
10.004 -4.2789998 2.214 1
10.007 -4.2459998 2.1849999 1
10.001 -4.224 2.237 1
9.9969997 -4.152 2.2650001 1
10.001 -4.4260001 2.2490001 1
10 -4.2729998 2.2509999 1
10 -4.527 2.26 1
10.003 -4.223 2.2249999 1
10.001 -4.368 2.2420001 1
10.005 -4.25 2.207 1
10.001 -4.1690001 2.23 1
9.9969997 -4.2470002 2.2690001 1
9.9960003 -4.0640001 2.2690001 1
10.008 -4.1729999 2.1789999 1
9.9989996 -4.592 2.277 1
10.005 -4.1240001 2.1960001 1
10.004 -4.2849998 2.2119999 1
10 -4.1209998 2.24 1
10.001 -4.494 2.2520001 1
10.001 -4.3790002 2.2449999 1
9.9980001 -4.3759999 2.27 1
10.004 -4.2979999 2.22 1
10.002 -4.1040001 2.2249999 1
9.9980001 -4.3779998 2.2679999 1
9.9989996 -4.2600002 2.2579999 1
9.9989996 -4.224 2.2509999 1
10.007 -4.1599998 2.184 1
10.002 -4.3439999 2.2390001 1
10 -4.4689999 2.2579999 1
10.001 -4.0960002 2.23 1
10.005 -4.3559999 2.214 1
10.002 -4.1040001 2.223 1
10.002 -4.3000002 2.2349999 1
10 -4.3260002 2.2479999 1
10 -4.3189998 2.2479999 1
9.9969997 -4.2639999 2.277 1
10.006 -4.1040001 2.1860001 1
10.006 -4.2249999 2.1989999 1
10 -4.4879999 2.26 1
10.007 -4.145 2.181 1
10.007 -4.1170001 2.184 1
9.9980001 -4.4369998 2.273 1
10.002 -4.3870001 2.2360001 1
10 -4.348 2.253 1
10.007 -4.2509999 2.191 1
10.009 -4.1469998 2.1670001 1
9.9980001 -4.3860002 2.273 1
10.004 -4.3660002 2.2190001 1
9.9980001 -4.3940001 2.2720001 1
9.9969997 -4.2309999 2.276 1
9.9980001 -4.1220002 2.2609999 1
10.003 -4.1960001 2.2179999 1
10 -4.4980001 2.263 1
10.004 -4.1560001 2.2049999 1
10.01 -4.1170001 2.154 1
10.007 -4.165 2.187 1
10.001 -4.289 2.2379999 1
10 -4.2360001 2.243 1
9.9989996 -4.2509999 2.2590001 1
10.009 -4.1810002 2.1700001 1
9.9989996 -4.21 2.257 1
10.006 -4.1620002 2.1960001 1
10.002 -4.1350002 2.2290001 1
10.002 -4.369 2.24 1
10.005 -4.1799998 2.1989999 1
10.001 -4.1989999 2.2349999 1
10.006 -4.1040001 2.187 1
9.9989996 -4.0999999 2.2460001 1
9.9980001 -4.381 2.2690001 1
10.001 -4.1360002 2.23 1
10.007 -4.145 2.1789999 1
9.9980001 -4.4590001 2.2720001 1
10.002 -4.402 2.2409999 1
10.002 -4.23 2.2260001 1
10.004 -4.2989998 2.2149999 1
9.9989996 -4.487 2.27 1
10.005 -4.289 2.2060001 1
10 -4.191 2.243 1
9.9980001 -4.1919999 2.2620001 1
10.005 -4.2940001 2.2049999 1
9.9960003 -4.2160001 2.276 1
10 -4.165 2.2420001 1
10.001 -4.0949998 2.2279999 1
9.9969997 -4.1999998 2.2739999 1
10.001 -4.2309999 2.2360001 1
10.001 -4.2940001 2.243 1
10.004 -4.2509999 2.217 1
10.009 -4.1220002 2.161 1
10.002 -4.4510002 2.24 1
10.006 -4.0939999 2.1860001 1
9.9980001 -4.4790001 2.2750001 1
10 -4.0689998 2.2379999 1
10.005 -4.211 2.201 1
9.9969997 -4.1490002 2.2650001 1
10 -4.1589999 2.2390001 1
10 -4.3410001 2.2539999 1
9.9989996 -4.3470001 2.2639999 1
10.003 -4.184 2.223 1
10.002 -4.388 2.2349999 1
9.9989996 -4.54 2.2739999 1
9.9980001 -4.0819998 2.2520001 1
9.9989996 -4.3790002 2.267 1
10.005 -4.2979999 2.211 1
9.9969997 -4.1500001 2.2650001 1
9.9989996 -4.3790002 2.26 1
9.9960003 -4.1030002 2.2720001 1
10.005 -4.2480001 2.2030001 1
10.002 -4.3940001 2.2349999 1
10.009 -4.1459999 2.1689999 1
10.008 -4.1869998 2.175 1
9.9969997 -4.0640001 2.263 1
10.007 -4.1030002 2.1789999 1
9.9989996 -4.4219999 2.2609999 1
10.007 -4.2420001 2.1889999 1
10.005 -4.2160001 2.2060001 1
10.001 -4.204 2.233 1
10.006 -4.2670002 2.1989999 1
9.9980001 -4.3779998 2.2679999 1
10 -4.5240002 2.2650001 1
10 -4.2529998 2.2479999 1
10.006 -4.099 2.1919999 1
10.002 -4.1059999 2.2219999 1
10.003 -4.3340001 2.2260001 1
10 -4.217 2.2490001 1
9.9980001 -4.3130002 2.267 1
10 -4.2319999 2.2460001 1
10.003 -4.0949998 2.217 1
10.004 -4.2839999 2.214 1
10.003 -4.1069999 2.211 1
10.008 -4.1700001 2.1760001 1
10 -4.066 2.2409999 1
10.004 -4.3569999 2.22 1
10.003 -4.29 2.224 1
9.9980001 -4.1500001 2.26 1
10.005 -4.145 2.2019999 1
10.003 -4.283 2.22 1
10.002 -4.4320002 2.24 1
9.9980001 -4.25 2.2639999 1
10.001 -4.2589998 2.2390001 1
9.9980001 -4.4920001 2.277 1
10.002 -4.4710002 2.2460001 1
9.9989996 -4.1609998 2.2539999 1
9.9989996 -4.5440001 2.2720001 1
9.9969997 -4.059 2.2590001 1
10.006 -4.1100001 2.191 1
10.003 -4.2839999 2.223 1
10.003 -4.23 2.22 1
10 -4.2059999 2.2460001 1
10.005 -4.152 2.2030001 1
10.003 -4.1760001 2.2219999 1
10.001 -4.3189998 2.2390001 1
10.004 -4.3460002 2.2160001 1
10 -4.1300001 2.2420001 1
10.005 -4.2150002 2.2060001 1
10.003 -4.1100001 2.2160001 1
10.003 -4.1719999 2.221 1
9.9980001 -4.4650002 2.2739999 1
10.004 -4.2340002 2.211 1
10.005 -4.1609998 2.201 1
10.002 -4.349 2.2320001 1
10.002 -4.447 2.244 1
10 -4.4070001 2.2590001 1
9.9980001 -4.1700001 2.263 1
10 -4.1030002 2.2390001 1
9.9989996 -4.527 2.2720001 1
9.9969997 -4.085 2.266 1
10.001 -4.494 2.253 1
10.003 -4.3940001 2.227 1
10.002 -4.3639998 2.2360001 1
10.001 -4.145 2.2349999 1
10.003 -4.3860002 2.233 1
10 -4.2459998 2.2449999 1
10.001 -4.4549999 2.253 1
10.009 -4.1300001 2.1659999 1
10.001 -4.4060001 2.2460001 1
10 -4.4359999 2.257 1
10.001 -4.4429998 2.2520001 1
9.9980001 -4.3410001 2.266 1
9.9969997 -4.3010001 2.2780001 1
9.9989996 -4.1090002 2.247 1
10.004 -4.0840001 2.204 1
10.001 -4.3559999 2.2420001 1
10.003 -4.092 2.217 1
10.003 -4.2579999 2.2219999 1
9.9980001 -4.217 2.2650001 1
10.004 -4.3699999 2.221 1
10.001 -4.3369999 2.244 1
10 -4.3709998 2.2550001 1
9.9989996 -4.4239998 2.2679999 1
10.006 -4.2740002 2.2 1
10 -4.2449999 2.244 1
10.004 -4.3839998 2.221 1
10.005 -4.2610002 2.2090001 1
10.001 -4.2839999 2.243 1
10.006 -4.25 2.194 1
10.002 -4.1939998 2.224 1
10.001 -4.1300001 2.23 1
10.003 -4.2919998 2.2249999 1
10.002 -4.415 2.237 1
10.001 -4.1240001 2.2309999 1
9.9989996 -4.4260001 2.266 1
9.9980001 -4.4689999 2.276 1
10.004 -4.3379998 2.221 1
10.002 -4.2080002 2.2309999 1
9.9969997 -4.3860002 2.2780001 1
10.001 -4.3400002 2.2420001 1
9.9989996 -4.0770001 2.25 1
10.003 -4.3249998 2.227 1
10.001 -4.1680002 2.234 1
10.005 -4.1999998 2.201 1
10.006 -4.2600002 2.1930001 1
10.015 -5.8709998 2.154 1
10.016 -5.8460002 2.1500001 1
10.016 -5.842 2.151 1
10.014 -5.5380001 2.1489999 1
10.016 -5.8150001 2.1670001 1
10.015 -5.7519999 2.1489999 1
10.015 -5.7010002 2.1489999 1
10.015 -5.7389998 2.1600001 1
10.015 -5.8000002 2.1500001 1
10.016 -5.7600002 2.158 1
10.014 -5.6009998 2.1500001 1
10.016 -5.7800002 2.1600001 1
10.015 -5.6529999 2.1500001 1
10.015 -5.7810001 2.1500001 1
10.014 -5.6300001 2.1500001 1
10.016 -5.8590002 2.1630001 1
10.016 -5.7649999 2.1589999 1
10.015 -5.7410002 2.1559999 1
10.015 -5.777 2.154 1
10.015 -5.6469998 2.1559999 1
10.015 -5.6269999 2.155 1
10.016 -5.8439999 2.155 1
10.016 -5.8369999 2.1500001 1
10.015 -5.7150002 2.1500001 1
10.015 -5.6929998 2.152 1
10.015 -5.671 2.1559999 1
10.016 -5.8509998 2.1659999 1
10.014 -5.6139998 2.1489999 1
10.015 -5.724 2.1500001 1
10.016 -5.822 2.161 1
10.015 -5.7480001 2.1489999 1
10.015 -5.7789998 2.1489999 1
10.015 -5.7350001 2.1489999 1
10.015 -5.6290002 2.152 1
10.008 -5.586 2.224 1
10.005 -5.3600001 2.22 1
10.01 -5.4660001 2.1819999 1
10.006 -5.3590002 2.207 1
10.004 -5.4330001 2.2379999 1
10.015 -5.7950001 2.1730001 1
10.016 -5.8309999 2.1719999 1
10.011 -5.401 2.1659999 1
10.006 -5.5929999 2.243 1
10.012 -5.6810002 2.1889999 1
10.012 -5.4770002 2.161 1
10.012 -5.612 2.1830001 1
10.008 -5.4099998 2.197 1
10.006 -5.5079999 2.23 1
10.011 -5.6630001 2.1960001 1
10.008 -5.5830002 2.2190001 1
10.014 -5.6950002 2.1700001 1
10.011 -5.6490002 2.2 1
10.006 -5.506 2.2309999 1
10.012 -5.4549999 2.1630001 1
10.016 -5.8579998 2.174 1
10.01 -5.6659999 2.2079999 1
10.011 -5.4050002 2.161 1
10.015 -5.8410001 2.178 1
10.014 -5.6550002 2.1700001 1
10.007 -5.3720002 2.2049999 1
10.014 -5.7059999 2.1719999 1
10.014 -5.6669998 2.164 1
10.011 -5.506 2.1789999 1
10.011 -5.2740002 2.1500001 1
10.01 -5.5939999 2.1989999 1
10.01 -5.4289999 2.1819999 1
10.011 -5.5479999 2.181 1
10.013 -5.7059999 2.1849999 1
10.004 -5.4180002 2.2379999 1
10.012 -5.6020002 2.181 1
10.005 -5.5760002 2.25 1
10.012 -5.4510002 2.1619999 1
10.01 -5.2659998 2.158 1
10.004 -5.4749999 2.244 1
10.006 -5.5419998 2.2390001 1
10.008 -5.4809999 2.204 1
10.007 -5.3130002 2.1919999 1
10.014 -5.5879998 2.1619999 1
10.014 -5.6020002 2.161 1
10.009 -5.494 2.1989999 1
10.011 -5.6139998 2.1889999 1
10.004 -5.3920002 2.2409999 1
10.009 -5.5580001 2.2090001 1
10.013 -5.743 2.194 1
10.013 -5.7459998 2.1860001 1
10.014 -5.7059999 2.1730001 1
10.009 -5.3099999 2.1689999 1
10.006 -5.4120002 2.2179999 1
10.009 -5.4759998 2.1930001 1
10.015 -5.7309999 2.1670001 1
10.015 -5.7839999 2.1760001 1
10.007 -5.5679998 2.2279999 1
10.013 -5.6290002 2.171 1
10.003 -5.46 2.253 1
10.015 -5.7329998 2.1670001 1
10.007 -5.4860001 2.2130001 1
10.008 -5.322 2.1819999 1
10.011 -5.4660001 2.1700001 1
10.013 -5.724 2.1889999 1
10.007 -5.4349999 2.21 1
10.012 -5.599 2.184 1
10.011 -5.454 2.1719999 1
10.008 -5.3470001 2.1900001 1
10.012 -5.632 2.1900001 1
10.004 -5.447 2.2409999 1
10.009 -5.598 2.2090001 1
10.015 -5.7550001 2.1659999 1
10.011 -5.4590001 2.1689999 1
10.011 -5.4749999 2.174 1
10.008 -5.5279999 2.2130001 1
10.014 -5.6399999 2.168 1
10.008 -5.6370001 2.2290001 1
10.011 -5.5580001 2.1860001 1
10.011 -5.585 2.184 1
10.008 -5.5159998 2.2149999 1
10.016 -5.8379998 2.177 1
10.013 -5.7220001 2.1819999 1
10.01 -5.4000001 2.1689999 1
10.009 -5.3239999 2.1730001 1
10.012 -5.3590002 2.152 1
10.007 -5.6139998 2.2379999 1
10.008 -5.6079998 2.2219999 1
10.014 -5.6789999 2.175 1
10.01 -5.4980001 2.184 1
10.012 -5.487 2.165 1
10.004 -5.5110002 2.2579999 1
10.009 -5.6129999 2.211 1
10.016 -5.7519999 2.164 1
10.011 -5.5830002 2.191 1
10.011 -5.4180002 2.1619999 1
10.007 -5.4640002 2.2130001 1
10.011 -5.4949999 2.177 1
10.004 -5.395 2.2379999 1
10.009 -5.3309999 2.178 1
10.005 -5.5450001 2.2449999 1
10.008 -5.4310002 2.1989999 1
10.008 -5.4450002 2.2060001 1
10.014 -5.796 2.1849999 1
10.008 -5.4029999 2.191 1
10.01 -5.257 2.152 1
10.009 -5.6399999 2.2160001 1
10.007 -5.618 2.2390001 1
10.01 -5.4809999 2.187 1
10.008 -5.277 2.1789999 1
10.014 -5.7020001 2.175 1
10.012 -5.5089998 2.1670001 1
10.005 -5.5219998 2.2420001 1
10.009 -5.6609998 2.2260001 1
10.01 -5.348 2.1689999 1
10.01 -5.2519999 2.1559999 1
10.014 -5.6160002 2.165 1
10.005 -5.5650001 2.253 1
10.009 -5.5479999 2.2019999 1
10.007 -5.5599999 2.2260001 1
10.002 -5.4949999 2.273 1
10.002 -5.4689999 2.267 1
10.012 -5.586 2.181 1
10.009 -5.6890001 2.22 1
10.013 -5.7709999 2.1919999 1
10.013 -5.7389998 2.191 1
10.004 -5.4349999 2.2409999 1
10.009 -5.6430001 2.221 1
10.006 -5.4770002 2.2219999 1
10.01 -5.5120001 2.1849999 1
10.008 -5.4920001 2.204 1
10.006 -5.4920001 2.2260001 1
10.007 -5.4759998 2.2149999 1
10.011 -5.6760001 2.2060001 1
10.01 -5.4109998 2.1789999 1
10.007 -5.4190001 2.214 1
10.002 -5.4419999 2.27 1
10.013 -5.5599999 2.1630001 1
10.003 -5.4050002 2.2490001 1
10.007 -5.5370002 2.2279999 1
10.01 -5.4400001 2.1760001 1
10.008 -5.4749999 2.204 1
10.007 -5.5250001 2.2219999 1
10.007 -5.4380002 2.2130001 1
10.013 -5.6810002 2.184 1
10.011 -5.4809999 2.177 1
10.004 -5.5419998 2.256 1
10.011 -5.4749999 2.171 1
10.014 -5.618 2.161 1
10.005 -5.4050002 2.2309999 1
10.006 -5.3909998 2.22 1
10.006 -5.3470001 2.2079999 1
10.012 -5.4679999 2.1589999 1
10.009 -5.5689998 2.2130001 1
10.009 -5.316 2.1730001 1
10.008 -5.2870002 2.175 1
10.012 -5.6009998 2.181 1
10.004 -5.3940001 2.2379999 1
10.01 -5.6849999 2.217 1
10.01 -5.2950001 2.1619999 1
10.011 -5.3179998 2.1530001 1
10.007 -5.506 2.217 1
10.012 -5.724 2.1930001 1
10.012 -5.4369998 2.1589999 1
10.005 -5.5079999 2.2460001 1
10.008 -5.6430001 2.2309999 1
10.007 -5.3179998 2.197 1
10.01 -5.323 2.165 1
10.006 -5.3870001 2.2119999 1
10.011 -5.6360002 2.194 1
10.01 -5.296 2.1600001 1
10.005 -5.5190001 2.2449999 1
10.012 -5.5040002 2.1730001 1
10.016 -5.7550001 2.164 1
10.008 -5.6100001 2.2290001 1
10.008 -5.5380001 2.22 1
10.008 -5.5500002 2.2130001 1
10.004 -5.5149999 2.257 1
10.012 -5.6030002 2.1819999 1
10.009 -5.645 2.2179999 1
10.003 -5.4949999 2.2620001 1
10.011 -5.2880001 2.151 1
10.009 -5.6459999 2.223 1
10.005 -5.4489999 2.2390001 1
10.013 -5.717 2.187 1
10.004 -5.5409999 2.2579999 1
10.01 -5.3010001 2.1559999 1
10.005 -5.3909998 2.2249999 1
10.007 -5.5890002 2.233 1
10.011 -5.559 2.188 1
10.015 -5.6869998 2.1630001 1
10.013 -5.5250001 2.155 1
10.011 -5.6729999 2.2049999 1
10.001 -5.4749999 2.276 1
10.01 -5.277 2.1600001 1
10.013 -5.7529998 2.1900001 1
10.013 -5.526 2.158 1
10.013 -5.7059999 2.1849999 1
10.007 -5.4190001 2.2049999 1
10.008 -5.355 2.187 1
10.004 -5.5370002 2.257 1
10.01 -5.6279998 2.204 1
10.015 -5.7740002 2.174 1
10.008 -5.3540001 2.1900001 1
10.009 -5.6690001 2.2219999 1
10.006 -5.4499998 2.224 1
10.01 -5.5999999 2.198 1
10.008 -5.3330002 2.1900001 1
10.016 -5.8449998 2.177 1
10.013 -5.724 2.184 1
10.012 -5.6739998 2.1860001 1
10.014 -5.7379999 2.1760001 1
10.013 -5.6960001 2.188 1
10.002 -5.4949999 2.27 1
10.008 -5.2789998 2.177 1
10.009 -5.3499999 2.1819999 1
10.016 -5.809 2.1719999 1
10.014 -5.7049999 2.175 1
10.013 -5.5840001 2.1700001 1
10.006 -5.4029999 2.221 1
10.006 -5.362 2.2160001 1
10.01 -5.4180002 2.177 1
10.008 -5.368 2.194 1
10.015 -5.6339998 2.1589999 1
10.012 -5.6680002 2.1860001 1
10.009 -5.6339998 2.2219999 1
10.01 -5.513 2.188 1
10.012 -5.6399999 2.1900001 1
10.007 -5.303 2.187 1
10.003 -5.4510002 2.257 1
10.01 -5.2940001 2.158 1
10.013 -5.4580002 2.151 1
10.014 -5.6030002 2.161 1
10.008 -5.5640001 2.2179999 1
10.014 -5.651 2.1670001 1
10.005 -5.3860002 2.227 1
10.008 -5.48 2.2060001 1
10.009 -5.6199999 2.22 1
10.007 -5.309 2.1960001 1
