# .PCD v0.7 - Point Cloud Data file format
VERSION 0.7
FIELDS x y z label
SIZE 4 4 4 4
TYPE F F F U
COUNT 1 1 1 1
WIDTH 1784
HEIGHT 1
VIEWPOINT 0 0 0 1 0 0 0
POINTS 1784
DATA ascii
10.623 -4.0380001 1.421 1
10.568 -4.0370002 1.469 1
10.753 -4.0349998 1.73 1
10.734 -4.0349998 1.728 1
10.698 -4.0349998 1.7690001 1
10.656 -4.0359998 1.63 1
10.736 -4.0370002 1.54 1
10.567 -4.0370002 1.4809999 1
10.474 -4.0380001 1.3789999 1
10.703 -4.0370002 1.501 1
10.646 -4.0380001 1.42 1
10.644 -4.0359998 1.626 1
10.413 -4.039 1.3279999 1
10.536 -4.0370002 1.473 1
10.563 -4.0380001 1.383 1
10.649 -4.0359998 1.64 1
10.681 -4.0359998 1.618 1
10.517 -4.0380001 1.3660001 1
10.753 -4.0339999 1.874 1
10.696 -4.0359998 1.679 1
10.759 -4.0359998 1.6569999 1
10.725 -4.0349998 1.727 1
10.704 -4.0370002 1.569 1
10.704 -4.0370002 1.472 1
10.448 -4.039 1.33 1
10.627 -4.0359998 1.674 1
10.412 -4.0380001 1.339 1
10.706 -4.0349998 1.7460001 1
10.696 -4.0370002 1.521 1
10.761 -4.0359998 1.591 1
10.641 -4.0359998 1.655 1
10.692 -4.0370002 1.459 1
10.651 -4.0380001 1.4450001 1
10.69 -4.0349998 1.74 1
10.73 -4.0349998 1.807 1
10.525 -4.0380001 1.362 1
10.587 -4.0370002 1.5 1
10.484 -4.0380001 1.367 1
10.543 -4.0380001 1.378 1
10.66 -4.0370002 1.475 1
10.532 -4.0380001 1.399 1
10.517 -4.0370002 1.497 1
10.633 -4.0370002 1.539 1
10.703 -4.0370002 1.549 1
10.628 -4.0370002 1.561 1
10.634 -4.0380001 1.45 1
10.564 -4.0380001 1.427 1
10.532 -4.0370002 1.473 1
10.649 -4.0370002 1.461 1
10.624 -4.0380001 1.415 1
10.769 -4.0370002 1.554 1
10.718 -4.0349998 1.757 1
10.614 -4.0370002 1.575 1
10.72 -4.0349998 1.8200001 1
10.59 -4.0380001 1.385 1
10.561 -4.0370002 1.499 1
10.466 -4.0380001 1.386 1
10.633 -4.0370002 1.587 1
10.673 -4.0370002 1.461 1
10.673 -4.0370002 1.573 1
10.542 -4.0370002 1.492 1
10.567 -4.0370002 1.5089999 1
10.754 -4.0359998 1.59 1
10.516 -4.0370002 1.5 1
10.589 -4.0370002 1.528 1
10.635 -4.0359998 1.625 1
10.712 -4.0370002 1.4960001 1
10.594 -4.0370002 1.479 1
10.743 -4.0349998 1.7640001 1
10.613 -4.0380001 1.423 1
10.562 -4.0380001 1.404 1
10.644 -4.0359998 1.633 1
10.539 -4.0380001 1.365 1
10.759 -4.0370002 1.515 1
10.683 -4.0359998 1.63 1
10.525 -4.0380001 1.406 1
10.752 -4.0349998 1.796 1
10.652 -4.0359998 1.6 1
10.754 -4.0359998 1.638 1
10.731 -4.0370002 1.502 1
10.548 -4.0370002 1.545 1
10.636 -4.0370002 1.556 1
10.685 -4.0359998 1.618 1
10.511 -4.0380001 1.401 1
10.636 -4.0359998 1.607 1
10.524 -4.0370002 1.503 1
10.687 -4.0370002 1.5420001 1
10.65 -4.0370002 1.494 1
10.622 -4.0370002 1.488 1
10.648 -4.0359998 1.615 1
10.67 -4.0359998 1.59 1
10.724 -4.0370002 1.459 1
10.707 -4.0370002 1.557 1
10.752 -4.0359998 1.6109999 1
10.521 -4.0380001 1.369 1
10.742 -4.0359998 1.65 1
10.73 -4.0359998 1.659 1
10.702 -4.0370002 1.559 1
10.668 -4.0380001 1.441 1
10.607 -4.0380001 1.4 1
10.45 -4.039 1.325 1
10.668 -4.0359998 1.628 1
10.696 -4.0359998 1.666 1
10.568 -4.0370002 1.5190001 1
10.6 -4.0380001 1.408 1
10.672 -4.0359998 1.638 1
10.621 -4.0370002 1.529 1
10.714 -4.0359998 1.694 1
10.613 -4.0370002 1.572 1
10.674 -4.0370002 1.572 1
10.662 -4.0359998 1.656 1
10.747 -4.0370002 1.5829999 1
10.554 -4.0380001 1.42 1
10.552 -4.0370002 1.548 1
10.431 -4.0380001 1.3559999 1
10.67 -4.0380001 1.449 1
10.563 -4.0370002 1.5599999 1
10.762 -4.0359998 1.625 1
10.715 -4.0370002 1.505 1
10.747 -4.0349998 1.727 1
10.685 -4.0370002 1.552 1
10.446 -4.039 1.323 1
10.572 -4.0370002 1.516 1
10.723 -4.0359998 1.67 1
10.653 -4.0370002 1.4809999 1
10.487 -4.0380001 1.4299999 1
10.719 -4.0349998 1.728 1
10.728 -4.0370002 1.5829999 1
10.58 -4.0380001 1.416 1
10.572 -4.0370002 1.47 1
10.698 -4.0359998 1.615 1
10.615 -4.0359998 1.607 1
10.74 -4.0370002 1.502 1
10.765 -4.0370002 1.557 1
10.557 -4.0380001 1.382 1
10.492 -4.0380001 1.397 1
10.492 -4.0380001 1.358 1
10.713 -4.0370002 1.5599999 1
10.721 -4.0349998 1.721 1
10.737 -4.0349998 1.728 1
10.741 -4.0370002 1.4910001 1
10.686 -4.0359998 1.6440001 1
10.598 -4.0380001 1.3890001 1
10.742 -4.0359998 1.623 1
10.536 -4.0380001 1.426 1
10.575 -4.0370002 1.534 1
10.729 -4.0349998 1.826 1
10.703 -4.0359998 1.653 1
10.703 -4.0370002 1.461 1
10.717 -4.0370002 1.554 1
10.672 -4.0359998 1.6160001 1
10.733 -4.0349998 1.808 1
10.394 -4.039 1.307 1
10.734 -4.0349998 1.7970001 1
10.731 -4.0370002 1.477 1
10.739 -4.0349998 1.819 1
10.756 -4.0370002 1.5319999 1
10.662 -4.0380001 1.437 1
10.756 -4.0370002 1.51 1
10.635 -4.0380001 1.416 1
10.691 -4.0370002 1.561 1
10.751 -4.0349998 1.825 1
10.656 -4.0370002 1.524 1
10.72 -4.0359998 1.689 1
10.686 -4.0359998 1.651 1
10.591 -4.0370002 1.587 1
10.618 -4.0359998 1.6210001 1
10.657 -4.0370002 1.494 1
10.46 -4.0380001 1.3559999 1
10.507 -4.0380001 1.392 1
10.749 -4.0339999 1.862 1
10.704 -4.0370002 1.511 1
10.723 -4.0359998 1.612 1
10.735 -4.0349998 1.819 1
10.46 -4.0380001 1.348 1
10.597 -4.0380001 1.4579999 1
10.668 -4.0359998 1.663 1
10.52 -4.0380001 1.401 1
10.735 -4.0370002 1.4680001 1
10.559 -4.0370002 1.5700001 1
10.714 -4.0359998 1.602 1
10.68 -4.0370002 1.5140001 1
10.499 -4.0380001 1.452 1
10.748 -4.0349998 1.842 1
10.698 -4.0370002 1.472 1
10.446 -4.0380001 1.3839999 1
10.623 -4.0359998 1.602 1
10.682 -4.0380001 1.444 1
10.76 -4.0349998 1.753 1
10.582 -4.0370002 1.477 1
10.663 -4.0359998 1.65 1
10.55 -4.0380001 1.387 1
10.531 -4.0380001 1.447 1
10.701 -4.0359998 1.649 1
10.612 -4.0380001 1.396 1
10.594 -4.0370002 1.473 1
10.631 -4.0380001 1.446 1
10.587 -4.0380001 1.397 1
10.498 -4.0380001 1.406 1
10.73 -4.0359998 1.605 1
10.568 -4.0380001 1.388 1
10.67 -4.0349998 1.7410001 1
10.762 -4.0370002 1.4910001 1
10.754 -4.0370002 1.494 1
10.641 -4.0359998 1.594 1
10.525 -4.0380001 1.418 1
10.611 -4.0370002 1.467 1
10.742 -4.0349998 1.7640001 1
10.573 -4.0370002 1.5700001 1
10.692 -4.0349998 1.728 1
10.672 -4.0370002 1.536 1
10.554 -4.0370002 1.485 1
10.478 -4.0380001 1.3890001 1
10.755 -4.0349998 1.8200001 1
10.608 -4.0370002 1.462 1
10.621 -4.0359998 1.599 1
10.675 -4.0380001 1.4579999 1
10.677 -4.0370002 1.507 1
10.503 -4.0380001 1.4450001 1
10.68 -4.0359998 1.6670001 1
10.741 -4.0370002 1.52 1
10.724 -4.0359998 1.612 1
10.611 -4.0370002 1.569 1
10.585 -4.0370002 1.549 1
10.729 -4.0370002 1.518 1
10.604 -4.0370002 1.474 1
10.705 -4.0359998 1.59 1
10.767 -4.0370002 1.502 1
10.751 -4.0359998 1.604 1
10.585 -4.0380001 1.454 1
10.765 -4.0359998 1.586 1
10.4 -4.039 1.295 1
10.708 -4.0359998 1.62 1
10.673 -4.0370002 1.503 1
10.762 -4.0359998 1.648 1
10.729 -4.0349998 1.775 1
10.728 -4.0370002 1.484 1
10.584 -4.0380001 1.4170001 1
10.507 -4.0380001 1.444 1
10.717 -4.0349998 1.771 1
10.76 -4.0370002 1.527 1
10.621 -4.0380001 1.401 1
10.608 -4.0370002 1.535 1
10.397 -4.039 1.303 1
10.726 -4.0349998 1.794 1
10.709 -4.0359998 1.669 1
10.758 -4.0370002 1.494 1
10.559 -4.0370002 1.48 1
10.671 -4.0370002 1.528 1
10.558 -4.0370002 1.482 1
10.603 -4.0380001 1.436 1
10.725 -4.0349998 1.725 1
10.664 -4.0370002 1.527 1
10.615 -4.0370002 1.511 1
10.449 -4.039 1.324 1
10.545 -4.0370002 1.494 1
10.736 -4.0370002 1.54 1
10.571 -4.0380001 1.386 1
10.725 -4.0370002 1.4859999 1
10.652 -4.0359998 1.613 1
10.718 -4.0349998 1.729 1
10.616 -4.0380001 1.399 1
10.693 -4.0370002 1.476 1
10.473 -4.0380001 1.4220001 1
10.644 -4.0370002 1.54 1
10.692 -4.0370002 1.55 1
10.563 -4.0370002 1.489 1
10.674 -4.0359998 1.628 1
10.748 -4.0349998 1.8380001 1
10.508 -4.0370002 1.464 1
10.673 -4.0359998 1.591 1
10.503 -4.0370002 1.472 1
10.625 -4.0380001 1.4529999 1
10.755 -4.0359998 1.647 1
10.667 -4.0359998 1.62 1
10.694 -4.0370002 1.53 1
10.566 -4.0380001 1.452 1
10.624 -4.0370002 1.495 1
10.747 -4.0339999 1.853 1
10.684 -4.0370002 1.528 1
10.583 -4.0380001 1.385 1
10.713 -4.0359998 1.613 1
10.711 -4.0359998 1.711 1
10.449 -4.0380001 1.362 1
10.541 -4.0370002 1.5319999 1
10.65 -4.0380001 1.431 1
10.643 -4.0359998 1.599 1
10.622 -4.0370002 1.505 1
10.587 -4.0370002 1.5319999 1
10.58 -4.0380001 1.452 1
10.619 -4.0359998 1.655 1
10.708 -4.0359998 1.6059999 1
10.76 -4.0370002 1.5319999 1
10.715 -4.0349998 1.788 1
10.569 -4.0370002 1.487 1
10.602 -4.0370002 1.52 1
10.613 -4.0359998 1.617 1
10.475 -4.0380001 1.437 1
10.661 -4.0359998 1.7029999 1
10.645 -4.0380001 1.4299999 1
10.703 -4.0370002 1.534 1
10.761 -4.0359998 1.6 1
10.652 -4.0359998 1.646 1
10.702 -4.0359998 1.715 1
10.73 -4.0359998 1.647 1
10.478 -4.0380001 1.405 1
10.752 -4.0339999 1.847 1
10.397 -4.039 1.3099999 1
10.691 -4.0349998 1.771 1
10.684 -4.0349998 1.744 1
10.655 -4.0370002 1.459 1
10.681 -4.0349998 1.761 1
10.586 -4.0380001 1.449 1
10.727 -4.0370002 1.4960001 1
10.765 -4.0370002 1.508 1
10.662 -4.0370002 1.493 1
10.733 -4.0359998 1.677 1
10.468 -4.039 1.329 1
10.717 -4.0370002 1.489 1
10.634 -4.0370002 1.571 1
10.741 -4.0359998 1.686 1
10.715 -4.0359998 1.626 1
10.512 -4.0380001 1.386 1
10.652 -4.0359998 1.619 1
10.539 -4.0380001 1.413 1
10.584 -4.0370002 1.544 1
10.695 -4.0359998 1.652 1
10.759 -4.0370002 1.561 1
10.658 -4.0359998 1.592 1
10.62 -4.0359998 1.663 1
10.486 -4.0380001 1.368 1
10.562 -4.0370002 1.485 1
10.633 -4.0370002 1.492 1
10.673 -4.0370002 1.546 1
10.737 -4.0349998 1.78 1
10.624 -4.0370002 1.527 1
10.568 -4.0380001 1.386 1
10.58 -4.0370002 1.58 1
10.47 -4.0380001 1.397 1
10.677 -4.0349998 1.744 1
10.618 -4.0380001 1.433 1
10.632 -4.0380001 1.443 1
10.692 -4.0380001 1.446 1
10.651 -4.0370002 1.4680001 1
10.74 -4.0370002 1.4680001 1
10.623 -4.0370002 1.4859999 1
10.585 -4.0380001 1.392 1
10.667 -4.0359998 1.666 1
10.7 -4.0359998 1.6569999 1
10.523 -4.0380001 1.392 1
10.466 -4.0380001 1.3609999 1
10.528 -4.0380001 1.4450001 1
10.699 -4.0370002 1.507 1
10.629 -4.0359998 1.637 1
10.508 -4.0380001 1.421 1
10.541 -4.0370002 1.483 1
10.679 -4.0380001 1.4349999 1
10.691 -4.0370002 1.459 1
10.623 -4.0370002 1.464 1
10.641 -4.0359998 1.679 1
10.548 -4.0370002 1.477 1
10.608 -4.0370002 1.4960001 1
10.709 -4.0359998 1.638 1
10.407 -4.039 1.2970001 1
10.648 -4.0359998 1.618 1
10.753 -4.0359998 1.707 1
10.579 -4.0370002 1.503 1
10.749 -4.0359998 1.614 1
10.65 -4.0370002 1.4960001 1
10.585 -4.0370002 1.5829999 1
10.547 -4.0380001 1.447 1
10.698 -4.0359998 1.617 1
10.464 -4.0380001 1.346 1
10.608 -4.0370002 1.5089999 1
10.694 -4.0359998 1.706 1
10.539 -4.0370002 1.465 1
10.692 -4.0370002 1.5 1
10.728 -4.0359998 1.615 1
10.626 -4.0359998 1.65 1
10.68 -4.0359998 1.638 1
10.605 -4.0370002 1.554 1
10.71 -4.0359998 1.6160001 1
10.53 -4.0370002 1.5140001 1
10.546 -4.0380001 1.368 1
10.74 -4.0359998 1.601 1
10.466 -4.0380001 1.408 1
10.416 -4.039 1.318 1
10.73 -4.0349998 1.778 1
10.623 -4.0380001 1.452 1
10.66 -4.0380001 1.4579999 1
10.572 -4.0380001 1.423 1
10.682 -4.0380001 1.433 1
10.634 -4.0359998 1.6670001 1
10.486 -4.0380001 1.4299999 1
10.697 -4.0349998 1.733 1
10.701 -4.0359998 1.647 1
10.713 -4.0349998 1.771 1
10.421 -4.0380001 1.351 1
10.677 -4.0349998 1.727 1
10.742 -4.0359998 1.653 1
10.73 -4.0370002 1.4579999 1
10.575 -4.0380001 1.38 1
10.644 -4.0359998 1.632 1
10.676 -4.0370002 1.466 1
10.61 -4.0370002 1.553 1
10.748 -4.0370002 1.472 1
10.435 -4.039 1.318 1
10.645 -4.0359998 1.6619999 1
10.673 -4.0370002 1.487 1
10.712 -4.0349998 1.779 1
10.654 -4.0370002 1.541 1
10.727 -4.0349998 1.803 1
10.755 -4.0370002 1.472 1
10.564 -4.0370002 1.567 1
10.519 -4.0380001 1.4069999 1
10.679 -4.0370002 1.482 1
10.713 -4.0359998 1.5930001 1
10.457 -4.0380001 1.3710001 1
10.625 -4.0380001 1.449 1
10.558 -4.0370002 1.518 1
10.561 -4.0380001 1.38 1
10.624 -4.0370002 1.558 1
10.683 -4.0359998 1.623 1
10.571 -4.0370002 1.512 1
10.522 -4.0380001 1.459 1
10.647 -4.0359998 1.594 1
10.528 -4.0380001 1.429 1
10.719 -4.0359998 1.71 1
10.691 -4.0349998 1.735 1
10.64 -4.0380001 1.442 1
10.553 -4.0380001 1.438 1
10.682 -4.0359998 1.673 1
10.74 -4.0370002 1.4859999 1
10.647 -4.0370002 1.499 1
10.603 -4.0370002 1.48 1
10.606 -4.0370002 1.471 1
10.507 -4.0370002 1.49 1
10.762 -4.0370002 1.505 1
10.549 -4.0370002 1.479 1
10.748 -4.0349998 1.757 1
10.641 -4.0359998 1.622 1
10.624 -4.0359998 1.647 1
10.69 -4.0359998 1.686 1
10.76 -4.0359998 1.636 1
10.423 -4.039 1.318 1
10.75 -4.0359998 1.59 1
10.684 -4.0359998 1.702 1
10.719 -4.0370002 1.502 1
10.58 -4.0370002 1.558 1
10.743 -4.0359998 1.671 1
10.455 -4.039 1.329 1
10.679 -4.0359998 1.589 1
10.728 -4.0359998 1.698 1
10.613 -4.0370002 1.4680001 1
10.525 -4.0370002 1.4809999 1
10.6 -4.0370002 1.5140001 1
10.653 -4.0359998 1.647 1
10.673 -4.0380001 1.454 1
10.737 -4.0349998 1.8 1
10.446 -4.039 1.3329999 1
10.635 -4.0359998 1.666 1
10.758 -4.0359998 1.663 1
10.691 -4.0359998 1.628 1
10.635 -4.0359998 1.632 1
10.504 -4.0380001 1.349 1
10.761 -4.0370002 1.502 1
10.501 -4.0380001 1.4 1
10.425 -4.0380001 1.359 1
10.592 -4.0370002 1.563 1
10.594 -4.0370002 1.549 1
10.753 -4.0370002 1.465 1
10.625 -4.0380001 1.444 1
10.454 -4.039 1.332 1
10.696 -4.0359998 1.701 1
10.709 -4.0349998 1.7589999 1
10.714 -4.0370002 1.568 1
10.542 -4.0370002 1.499 1
10.6 -4.0370002 1.533 1
10.639 -4.0370002 1.553 1
10.572 -4.0370002 1.564 1
10.749 -4.0370002 1.554 1
10.514 -4.0380001 1.455 1
10.559 -4.0370002 1.539 1
10.697 -4.0370002 1.485 1
10.708 -4.0370002 1.477 1
10.629 -4.0370002 1.543 1
10.537 -4.0370002 1.501 1
10.691 -4.0359998 1.617 1
10.619 -4.0359998 1.596 1
10.724 -4.0370002 1.465 1
10.662 -4.0359998 1.6390001 1
10.72 -4.0349998 1.812 1
10.679 -4.0359998 1.619 1
10.513 -4.0380001 1.4 1
10.714 -4.0349998 1.765 1
10.501 -4.0380001 1.3559999 1
10.515 -4.0380001 1.436 1
10.432 -4.0380001 1.365 1
10.752 -4.0370002 1.493 1
10.735 -4.0370002 1.501 1
10.767 -4.0359998 1.641 1
10.574 -4.0380001 1.4069999 1
10.726 -4.0349998 1.727 1
10.648 -4.0359998 1.6569999 1
10.61 -4.0370002 1.5599999 1
10.488 -4.0380001 1.452 1
10.732 -4.0359998 1.651 1
10.64 -4.0370002 1.582 1
10.737 -4.0359998 1.701 1
10.53 -4.0380001 1.3839999 1
10.688 -4.0359998 1.669 1
10.597 -4.0370002 1.465 1
10.758 -4.0349998 1.761 1
10.582 -4.0370002 1.55 1
10.636 -4.0380001 1.443 1
10.528 -4.0380001 1.4119999 1
10.601 -4.0370002 1.566 1
10.732 -4.0349998 1.755 1
10.745 -4.0359998 1.688 1
10.617 -4.0370002 1.5369999 1
10.693 -4.0349998 1.752 1
10.756 -4.0349998 1.779 1
10.54 -4.0380001 1.447 1
10.748 -4.0370002 1.485 1
10.611 -4.0380001 1.4170001 1
10.643 -4.0380001 1.45 1
10.649 -4.0380001 1.4349999 1
10.671 -4.0359998 1.673 1
10.474 -4.0380001 1.341 1
10.706 -4.0359998 1.701 1
10.739 -4.0370002 1.5779999 1
10.718 -4.0370002 1.559 1
10.603 -4.0370002 1.541 1
10.614 -4.0380001 1.397 1
10.631 -4.0370002 1.531 1
10.629 -4.0370002 1.5140001 1
10.671 -4.0359998 1.628 1
10.612 -4.0370002 1.4910001 1
10.691 -4.0370002 1.499 1
10.6 -4.0370002 1.5039999 1
10.711 -4.0359998 1.599 1
10.611 -4.0370002 1.493 1
10.623 -4.0370002 1.533 1
10.615 -4.0359998 1.646 1
10.674 -4.0359998 1.618 1
10.734 -4.0349998 1.8380001 1
10.702 -4.0370002 1.549 1
10.657 -4.0370002 1.5420001 1
10.518 -4.0370002 1.5 1
10.767 -4.0370002 1.545 1
10.54 -4.0380001 1.391 1
10.429 -4.0380001 1.337 1
10.756 -4.0370002 1.495 1
10.599 -4.0380001 1.438 1
10.601 -4.0380001 1.46 1
10.611 -4.0359998 1.63 1
10.677 -4.0370002 1.47 1
10.513 -4.0380001 1.38 1
10.7 -4.0370002 1.483 1
10.686 -4.0370002 1.493 1
10.604 -4.0380001 1.391 1
10.642 -4.0359998 1.6210001 1
10.727 -4.0359998 1.627 1
10.574 -4.0370002 1.497 1
10.685 -4.0380001 1.451 1
10.683 -4.0359998 1.658 1
10.538 -4.0370002 1.47 1
10.694 -4.0380001 1.439 1
10.535 -4.0380001 1.3660001 1
10.804 -4.0370002 1.295 1
10.722 -4.0370002 1.1849999 1
10.835 -4.0370002 1.191 1
10.823 -4.0370002 1.233 1
10.658 -4.0380001 0.917 1
10.784 -4.0370002 1.29 1
10.811 -4.0370002 1.363 1
10.637 -4.0380001 0.91399997 1
10.743 -4.0370002 1.266 1
10.626 -4.0380001 0.91100001 1
10.809 -4.0370002 1.08 1
10.706 -4.0380001 1.031 1
10.76 -4.0370002 1.334 1
10.802 -4.0370002 1.168 1
10.692 -4.0380001 0.91100001 1
10.649 -4.0380001 0.88499999 1
10.638 -4.0380001 0.90600002 1
10.75 -4.0370002 1.2309999 1
10.621 -4.0380001 0.83200002 1
10.658 -4.0380001 0.96399999 1
10.816 -4.0370002 1.26 1
10.842 -4.0370002 1.201 1
10.722 -4.0370002 1.1849999 1
10.7 -4.0380001 1.0140001 1
10.625 -4.0380001 0.92000002 1
10.736 -4.0370002 1.283 1
10.776 -4.0370002 1.303 1
10.793 -4.0370002 1.148 1
10.784 -4.0370002 1.178 1
10.74 -4.0370002 1.309 1
10.813 -4.0370002 1.2029999 1
10.768 -4.0370002 1.046 1
10.774 -4.0370002 1.381 1
10.74 -4.0370002 1.177 1
10.634 -4.0380001 0.85799998 1
10.694 -4.0380001 0.96100003 1
10.788 -4.0370002 1.136 1
10.702 -4.0380001 1.073 1
10.65 -4.0380001 0.97100002 1
10.728 -4.0370002 1.211 1
10.782 -4.0370002 1.219 1
10.65 -4.0380001 0.95700002 1
10.735 -4.0380001 0.96799999 1
10.865 -4.0370002 1.13 1
10.669 -4.0380001 1.012 1
10.679 -4.0380001 0.898 1
10.72 -4.0380001 0.94 1
10.66 -4.0380001 0.89300001 1
10.772 -4.0370002 1.069 1
10.779 -4.0370002 1.41 1
10.739 -4.0370002 1.2690001 1
10.664 -4.0380001 0.86299998 1
10.635 -4.0380001 0.829 1
10.713 -4.0380001 1.0039999 1
10.721 -4.0370002 1.122 1
10.864 -4.0370002 1.198 1
10.822 -4.0370002 1.141 1
10.756 -4.0370002 1.38 1
10.651 -4.0380001 0.97500002 1
10.593 -4.0380001 0.82200003 1
10.708 -4.0380001 1.126 1
10.876 -4.0370002 1.173 1
10.797 -4.0370002 1.072 1
10.739 -4.0370002 1.2029999 1
10.691 -4.0380001 1.056 1
10.708 -4.0380001 1.094 1
10.757 -4.0370002 1.278 1
10.794 -4.0370002 1.304 1
10.788 -4.0370002 1.3839999 1
10.621 -4.0380001 0.89600003 1
10.679 -4.0380001 1.025 1
10.684 -4.0380001 0.99699998 1
10.721 -4.0380001 1.09 1
10.783 -4.0370002 1.108 1
10.708 -4.0380001 1.021 1
10.848 -4.0370002 1.158 1
10.766 -4.0370002 1.066 1
10.634 -4.0380001 0.833 1
10.621 -4.0380001 0.91299999 1
10.621 -4.0380001 0.84899998 1
10.75 -4.0370002 1.346 1
10.862 -4.0370002 1.179 1
10.8 -4.0370002 1.027 1
10.684 -4.0380001 1.006 1
10.756 -4.0370002 1.054 1
10.812 -4.0370002 1.36 1
10.745 -4.0370002 0.97500002 1
10.647 -4.0380001 0.84100002 1
10.592 -4.0380001 0.80400002 1
10.876 -4.0370002 1.152 1
10.849 -4.0370002 1.2309999 1
10.783 -4.0370002 1.061 1
10.849 -4.0370002 1.15 1
10.787 -4.0370002 1.395 1
10.8 -4.0370002 1.402 1
10.795 -4.0370002 1.416 1
10.783 -4.0370002 1.0140001 1
10.825 -4.0370002 1.1569999 1
10.681 -4.0380001 1.113 1
10.755 -4.0370002 1.095 1
10.774 -4.0370002 1.3279999 1
10.846 -4.0370002 1.205 1
10.619 -4.0380001 0.80599999 1
10.737 -4.0370002 1.118 1
10.724 -4.0370002 1.118 1
10.601 -4.0380001 0.82700002 1
10.639 -4.0380001 0.93199998 1
10.767 -4.0370002 1.207 1
10.708 -4.0380001 0.95899999 1
10.655 -4.0380001 0.87900001 1
10.754 -4.0370002 0.97100002 1
10.753 -4.0370002 1.307 1
10.743 -4.0370002 1.2920001 1
10.867 -4.0370002 1.186 1
10.743 -4.0370002 1.1900001 1
10.73 -4.0380001 0.99900001 1
10.573 -4.0380001 0.76300001 1
10.733 -4.0370002 1.15 1
10.789 -4.0370002 1.0650001 1
10.832 -4.0370002 1.281 1
10.676 -4.0380001 1.122 1
10.751 -4.0370002 1.142 1
10.724 -4.0370002 1.178 1
10.756 -4.0370002 1.307 1
10.827 -4.0370002 1.061 1
10.73 -4.0370002 1.251 1
10.803 -4.0370002 1.281 1
10.721 -4.0370002 1.276 1
10.683 -4.0380001 0.93599999 1
10.681 -4.0380001 1.045 1
10.625 -4.0380001 0.82800001 1
10.84 -4.0370002 1.159 1
10.856 -4.0370002 1.173 1
10.824 -4.0370002 1.23 1
10.795 -4.0370002 1.4170001 1
10.805 -4.0370002 1.186 1
10.759 -4.0370002 1.225 1
10.841 -4.0370002 1.089 1
10.747 -4.0370002 1.161 1
10.701 -4.0380001 1.03 1
10.821 -4.0370002 1.143 1
10.823 -4.0370002 1.237 1
10.703 -4.0380001 0.98000002 1
10.781 -4.0370002 1.0470001 1
10.82 -4.0370002 1.327 1
10.776 -4.0370002 1.391 1
10.84 -4.0370002 1.261 1
10.87 -4.0370002 1.137 1
10.686 -4.0380001 1.007 1
10.745 -4.0370002 1.212 1
10.834 -4.0370002 1.242 1
10.753 -4.0370002 0.99400002 1
10.626 -4.0380001 0.94599998 1
10.66 -4.0380001 0.95999998 1
10.836 -4.0370002 1.089 1
10.741 -4.0370002 1.169 1
10.743 -4.0370002 1.201 1
10.797 -4.0370002 1.166 1
10.802 -4.0370002 1.251 1
10.872 -4.0370002 1.166 1
10.735 -4.0370002 1.29 1
10.763 -4.0370002 1.1670001 1
10.75 -4.0370002 1.0369999 1
10.819 -4.0370002 1.098 1
10.77 -4.0370002 1.209 1
10.693 -4.0380001 1.105 1
10.67 -4.0380001 0.87 1
10.828 -4.0370002 1.0700001 1
10.723 -4.0380001 0.96399999 1
10.705 -4.0380001 0.94199997 1
10.703 -4.0380001 1.158 1
10.781 -4.0370002 1.048 1
10.807 -4.0370002 1.274 1
10.797 -4.0370002 1.142 1
10.725 -4.0370002 1.11 1
10.615 -4.0380001 0.91100001 1
10.701 -4.0380001 1.036 1
10.827 -4.0370002 1.295 1
10.705 -4.0370002 1.199 1
10.768 -4.0370002 1.159 1
10.651 -4.0380001 0.96799999 1
10.777 -4.0370002 1.1799999 1
10.781 -4.0370002 1.079 1
10.778 -4.0370002 1.411 1
10.746 -4.0370002 1.146 1
10.793 -4.0370002 1.0829999 1
10.679 -4.0380001 1.058 1
10.717 -4.0380001 1.007 1
10.659 -4.0380001 1.012 1
10.818 -4.0370002 1.239 1
10.742 -4.0370002 1.0420001 1
10.634 -4.0380001 0.89099997 1
10.708 -4.0380001 1.1619999 1
10.71 -4.0380001 0.96399999 1
10.687 -4.0380001 1.159 1
10.765 -4.0370002 0.986 1
10.84 -4.0370002 1.101 1
10.764 -4.0370002 1.378 1
10.702 -4.0380001 0.98100001 1
10.811 -4.0370002 1.209 1
10.787 -4.0370002 1.439 1
10.772 -4.0370002 1.163 1
10.846 -4.0370002 1.1390001 1
10.795 -4.0370002 1.3890001 1
10.851 -4.0370002 1.101 1
10.66 -4.0380001 0.87300003 1
10.733 -4.0380001 0.97100002 1
10.852 -4.0370002 1.141 1
10.711 -4.0380001 1.0190001 1
10.677 -4.0380001 1.087 1
10.703 -4.0380001 1.039 1
10.79 -4.0370002 1.372 1
10.774 -4.0370002 1.011 1
10.802 -4.0370002 1.303 1
10.738 -4.0380001 0.958 1
10.859 -4.0370002 1.181 1
10.669 -4.0380001 1.023 1
10.801 -4.0370002 1.2460001 1
10.799 -4.0370002 1.0829999 1
10.768 -4.0370002 1.066 1
10.877 -4.0370002 1.173 1
10.872 -4.0370002 1.1289999 1
10.813 -4.0370002 1.24 1
10.832 -4.0370002 1.153 1
10.819 -4.0370002 1.15 1
10.781 -4.0370002 1.212 1
10.642 -4.0380001 0.83499998 1
10.671 -4.0380001 0.98500001 1
10.806 -4.0370002 1.173 1
10.621 -4.0380001 0.91500002 1
10.615 -4.0380001 0.88599998 1
10.707 -4.0380001 1.122 1
10.83 -4.0370002 1.163 1
10.823 -4.0370002 1.128 1
10.771 -4.0370002 1.277 1
10.848 -4.0370002 1.244 1
10.785 -4.0370002 1.043 1
10.815 -4.0370002 1.342 1
10.827 -4.0370002 1.272 1
10.714 -4.0370002 1.145 1
10.652 -4.0380001 0.92900002 1
10.696 -4.0380001 0.96200001 1
10.792 -4.0370002 1.179 1
10.784 -4.0370002 1.118 1
10.649 -4.0380001 1.0039999 1
10.813 -4.0370002 1.186 1
10.76 -4.0370002 1.013 1
10.863 -4.0370002 1.147 1
10.694 -4.0380001 1.148 1
10.792 -4.0370002 1.143 1
10.789 -4.0370002 1.104 1
10.717 -4.0380001 0.935 1
10.806 -4.0370002 1.1619999 1
10.771 -4.0370002 1.216 1
10.832 -4.0370002 1.2589999 1
10.77 -4.0370002 1.206 1
10.791 -4.0370002 1.288 1
10.8 -4.0370002 1.178 1
10.715 -4.0370002 1.244 1
10.816 -4.0370002 1.171 1
10.708 -4.0380001 1.11 1
10.729 -4.0370002 1.212 1
10.796 -4.0370002 1.392 1
10.609 -4.0380001 0.87400001 1
10.701 -4.0380001 1.127 1
10.815 -4.0370002 1.073 1
10.812 -4.0370002 1.265 1
10.762 -4.0370002 1.274 1
10.825 -4.0370002 1.261 1
10.731 -4.0370002 1.171 1
10.876 -4.0370002 1.153 1
10.774 -4.0370002 1.398 1
10.77 -4.0370002 1.105 1
10.658 -4.0380001 1.041 1
10.725 -4.0370002 1.1210001 1
10.772 -4.0370002 1.3430001 1
10.612 -4.0380001 0.84100002 1
10.719 -4.0380001 0.95899999 1
10.782 -4.0370002 1.168 1
10.815 -4.0370002 1.164 1
10.595 -4.0380001 0.81199998 1
10.806 -4.0370002 1.096 1
10.774 -4.0370002 1.181 1
10.663 -4.0380001 0.94099998 1
10.592 -4.0380001 0.80599999 1
10.774 -4.0370002 1.415 1
10.86 -4.0370002 1.21 1
10.709 -4.0380001 1.043 1
10.777 -4.0370002 1.181 1
10.712 -4.0380001 0.92500001 1
10.845 -4.0370002 1.103 1
10.66 -4.0380001 0.93599999 1
10.65 -4.0380001 0.93300003 1
10.718 -4.0370002 1.224 1
10.669 -4.0380001 1.039 1
10.671 -4.0380001 1.075 1
10.849 -4.0370002 1.0930001 1
10.774 -4.0370002 1.205 1
10.643 -4.0380001 0.97399998 1
10.713 -4.0380001 0.991 1
10.785 -4.0370002 1.3789999 1
10.74 -4.0370002 1.283 1
10.829 -4.0370002 1.301 1
10.729 -4.0370002 1.0829999 1
10.861 -4.0370002 1.191 1
10.816 -4.0370002 1.233 1
10.853 -4.0370002 1.1849999 1
10.817 -4.0370002 1.329 1
10.801 -4.0370002 1.16 1
10.767 -4.0370002 1.216 1
10.689 -4.0380001 1.005 1
10.655 -4.0380001 0.926 1
10.653 -4.0380001 1.041 1
10.799 -4.0370002 1.295 1
10.664 -4.0380001 1.008 1
10.752 -4.0370002 1.211 1
10.794 -4.0370002 1.215 1
10.874 -4.0370002 1.151 1
10.707 -4.0380001 1.062 1
10.732 -4.0370002 1.052 1
10.619 -4.0380001 0.917 1
10.789 -4.0370002 1.397 1
10.83 -4.0370002 1.0650001 1
10.678 -4.0380001 0.89600003 1
10.813 -4.0370002 1.263 1
10.732 -4.0370002 1.064 1
10.838 -4.0370002 1.232 1
10.852 -4.0370002 1.132 1
10.77 -4.0370002 1.285 1
10.854 -4.0370002 1.198 1
10.77 -4.0370002 1.0039999 1
10.821 -4.0370002 1.339 1
10.692 -4.0380001 1.166 1
10.663 -4.0380001 0.99199998 1
10.799 -4.0370002 1.119 1
10.714 -4.0370002 1.175 1
10.708 -4.0380001 1.092 1
10.842 -4.0370002 1.223 1
10.671 -4.0380001 0.949 1
10.832 -4.0370002 1.247 1
10.587 -4.0380001 0.81400001 1
10.616 -4.0380001 0.84200001 1
10.713 -4.0370002 1.2130001 1
10.648 -4.0380001 0.89499998 1
10.686 -4.0380001 0.89600003 1
10.778 -4.0370002 1.41 1
10.802 -4.0370002 1.197 1
10.734 -4.0370002 1.136 1
10.735 -4.0370002 1.0880001 1
10.745 -4.0370002 1.2180001 1
10.62 -4.0380001 0.824 1
10.749 -4.0370002 1.1440001 1
10.819 -4.0370002 1.115 1
10.623 -4.0380001 0.903 1
10.641 -4.0380001 0.88700002 1
10.669 -4.0380001 0.99599999 1
10.68 -4.0380001 1.028 1
10.719 -4.0380001 1.048 1
10.839 -4.0370002 1.0930001 1
10.808 -4.0370002 1.074 1
10.746 -4.0370002 1.13 1
10.861 -4.0370002 1.189 1
10.747 -4.0370002 1.152 1
10.767 -4.0370002 1.169 1
10.625 -4.0380001 0.917 1
10.661 -4.0380001 1.028 1
10.791 -4.0370002 1.084 1
10.814 -4.0370002 1.267 1
10.722 -4.0370002 1.2309999 1
10.736 -4.0370002 1.028 1
10.738 -4.0370002 1.076 1
10.749 -4.0370002 1.127 1
10.782 -4.0370002 1.148 1
10.731 -4.0380001 0.986 1
10.727 -4.0370002 1.132 1
10.67 -4.0380001 1.027 1
10.801 -4.0370002 1.242 1
10.651 -4.0380001 0.89600003 1
10.751 -4.0370002 1.209 1
10.813 -4.0370002 1.308 1
10.678 -4.0380001 1.09 1
10.77 -4.0370002 1.197 1
10.689 -4.0380001 1.161 1
10.759 -4.0370002 1.0369999 1
10.793 -4.0370002 1.137 1
10.73 -4.0380001 1.022 1
10.776 -4.0370002 1.184 1
10.753 -4.0370002 1.007 1
10.703 -4.0380001 1.087 1
10.67 -4.0380001 0.94700003 1
10.7 -4.0380001 1.051 1
10.729 -4.0380001 1.003 1
10.651 -4.0380001 0.94599998 1
10.619 -4.0380001 0.82300001 1
10.702 -4.0380001 1.011 1
10.721 -4.0370002 1.202 1
10.769 -4.0370002 1.2539999 1
10.682 -4.0380001 1.013 1
10.773 -4.0370002 0.99400002 1
10.572 -4.0380001 0.75300002 1
10.865 -4.0370002 1.1569999 1
10.746 -4.0370002 1.313 1
10.834 -4.0370002 1.285 1
10.708 -4.0380001 1.1339999 1
10.724 -4.0380001 1.003 1
10.719 -4.0380001 1.035 1
10.646 -4.0380001 0.84299999 1
10.662 -4.0380001 1.068 1
10.616 -4.0380001 0.84399998 1
10.767 -4.0370002 1.314 1
10.731 -4.0370002 1.1799999 1
10.728 -4.0370002 1.289 1
10.683 -4.0380001 0.90799999 1
10.692 -4.0380001 0.95499998 1
10.865 -4.0370002 1.128 1
10.756 -4.0370002 1.063 1
10.837 -4.0370002 1.123 1
10.86 -4.0370002 1.108 1
10.764 -4.0370002 1.0930001 1
10.789 -4.0370002 1.2 1
10.791 -4.0370002 1.228 1
10.776 -4.0370002 1.273 1
10.773 -4.0370002 1.075 1
10.678 -4.0380001 0.954 1
10.781 -4.0370002 1.176 1
10.801 -4.0370002 1.399 1
10.763 -4.0370002 1.312 1
10.872 -4.0370002 1.1569999 1
10.718 -4.0370002 1.1339999 1
10.731 -4.0380001 0.98000002 1
10.815 -4.0370002 1.347 1
10.744 -4.0370002 1.057 1
10.658 -4.0380001 1.043 1
10.744 -4.0370002 0.98400003 1
10.765 -4.0370002 1.145 1
10.727 -4.0370002 1.224 1
10.713 -4.0370002 1.211 1
10.876 -4.0370002 1.154 1
10.813 -4.0370002 1.289 1
10.75 -4.0370002 1.115 1
10.733 -4.0370002 1.308 1
10.83 -4.0370002 1.258 1
10.881 -4.0370002 1.13 1
10.88 -4.0370002 1.149 1
10.801 -4.0370002 1.364 1
10.756 -4.0370002 1.031 1
10.683 -4.0380001 1.132 1
10.775 -4.0370002 1.174 1
10.811 -4.0370002 1.275 1
10.829 -4.0370002 1.3 1
10.746 -4.0370002 1.206 1
10.647 -4.0380001 0.96399999 1
10.715 -4.0380001 1.099 1
10.726 -4.0370002 1.0829999 1
10.832 -4.0370002 1.189 1
10.876 -4.0370002 1.151 1
10.772 -4.0370002 1.3 1
10.749 -4.0370002 1.061 1
10.818 -4.0370002 1.056 1
10.754 -4.0370002 1.3940001 1
10.809 -4.0370002 1.155 1
10.726 -4.0370002 1.068 1
10.798 -4.0370002 1.174 1
10.727 -4.0370002 1.143 1
10.756 -4.0370002 1.071 1
10.658 -4.0380001 0.921 1
10.646 -4.0380001 0.85699999 1
10.582 -4.0380001 0.77399999 1
10.802 -4.0370002 1.181 1
10.759 -4.0370002 1.114 1
10.793 -4.0370002 1.16 1
10.789 -4.0370002 1.285 1
10.664 -4.0380001 1.0700001 1
10.689 -4.0380001 0.89700001 1
10.59 -4.0380001 0.79500002 1
10.836 -4.0370002 1.247 1
10.684 -4.0380001 0.93699998 1
10.712 -4.0380001 0.96700001 1
10.796 -4.0370002 1.176 1
10.638 -4.0380001 0.97600001 1
10.641 -4.0380001 0.97000003 1
10.796 -4.0370002 1.224 1
10.695 -4.0380001 1.072 1
10.855 -4.0370002 1.223 1
10.688 -4.0380001 0.88999999 1
10.594 -4.0380001 0.81699997 1
10.668 -4.0380001 0.87 1
10.714 -4.0380001 1.094 1
10.7 -4.0380001 1.044 1
10.733 -4.0370002 1.296 1
10.659 -4.0380001 0.99000001 1
10.698 -4.0380001 1.0779999 1
10.807 -4.0370002 1.101 1
10.644 -4.0380001 0.83499998 1
10.806 -4.0370002 1.207 1
10.786 -4.0370002 1.443 1
10.711 -4.0380001 1.097 1
10.77 -4.0370002 1.272 1
10.855 -4.0370002 1.1799999 1
10.678 -4.0380001 1.1109999 1
10.689 -4.0380001 0.91799998 1
10.631 -4.0380001 0.90100002 1
10.827 -4.0370002 1.263 1
10.683 -4.0380001 1.101 1
10.758 -4.0370002 1.005 1
10.682 -4.0380001 1.016 1
10.746 -4.0370002 1.312 1
10.812 -4.0370002 1.092 1
10.831 -4.0370002 1.24 1
10.839 -4.0370002 1.262 1
10.687 -4.0380001 0.90200001 1
10.786 -4.0370002 1.161 1
10.762 -4.0370002 1.415 1
10.685 -4.0380001 0.95899999 1
10.641 -4.0380001 0.833 1
10.781 -4.0370002 1.228 1
10.776 -4.0370002 1.087 1
10.768 -4.0370002 1.211 1
10.624 -4.0380001 0.93900001 1
10.654 -4.0380001 1.007 1
10.8 -4.0370002 1.183 1
10.716 -4.0380001 1.04 1
10.788 -4.0370002 1.114 1
10.765 -4.0370002 1.178 1
10.716 -4.0380001 1.123 1
10.677 -4.0380001 0.90600002 1
10.687 -4.0380001 1.117 1
10.783 -4.0370002 1.416 1
10.667 -4.0380001 1.0700001 1
10.768 -4.0370002 1.276 1
10.685 -4.0380001 1.0369999 1
10.859 -4.0370002 1.118 1
10.842 -4.0370002 1.1160001 1
10.654 -4.0380001 1.012 1
10.678 -4.0380001 1.074 1
10.792 -4.0370002 1.202 1
10.701 -4.0380001 1.12 1
10.81 -4.0370002 1.171 1
10.779 -4.0370002 1.184 1
10.77 -4.0370002 1.322 1
10.789 -4.0370002 1.377 1
10.746 -4.0370002 1.2079999 1
10.642 -4.0380001 0.90799999 1
10.84 -4.0370002 1.086 1
10.764 -4.0370002 1.2130001 1
10.73 -4.0370002 1.226 1
10.757 -4.0370002 1.2130001 1
10.764 -4.0370002 1.1569999 1
10.832 -4.0370002 1.2 1
10.691 -4.0380001 0.95700002 1
10.718 -4.0370002 1.1440001 1
10.742 -4.0370002 1.01 1
10.782 -4.0370002 1.4450001 1
10.823 -4.0370002 1.3150001 1
10.833 -4.0370002 1.075 1
10.857 -4.0370002 1.165 1
10.669 -4.0380001 0.96899998 1
10.788 -4.0370002 1.149 1
10.854 -4.0370002 1.094 1
10.808 -4.0370002 1.1720001 1
10.844 -4.0370002 1.1059999 1
10.734 -4.0370002 1.24 1
10.63 -4.0380001 0.94 1
10.79 -4.0370002 1.247 1
10.841 -4.0370002 1.177 1
10.828 -4.0370002 1.126 1
10.813 -4.0370002 1.242 1
10.717 -4.0370002 1.152 1
10.743 -4.0370002 1.1390001 1
10.747 -4.0370002 1.013 1
10.698 -4.0380001 1.115 1
10.778 -4.0370002 1.2079999 1
10.794 -4.0370002 1.161 1
10.696 -4.0380001 0.93699998 1
10.834 -4.0370002 1.272 1
10.685 -4.0380001 0.95599997 1
10.872 -4.0370002 1.152 1
10.716 -4.0380001 0.94400001 1
10.823 -4.0370002 1.127 1
10.848 -4.0370002 1.0880001 1
10.814 -4.0370002 1.198 1
10.624 -4.0380001 0.86500001 1
10.671 -4.0380001 1.035 1
10.785 -4.0370002 1.226 1
10.793 -4.0370002 1.199 1
10.802 -4.0370002 1.104 1
10.712 -4.0380001 1.027 1
10.711 -4.0380001 1.1289999 1
10.778 -4.0370002 1.056 1
10.624 -4.0380001 0.88499999 1
10.81 -4.0370002 1.3380001 1
10.682 -4.0380001 1.0420001 1
10.764 -4.0370002 1.345 1
10.807 -4.0370002 1.222 1
10.867 -4.0370002 1.1109999 1
10.773 -4.0370002 1.382 1
10.636 -4.0380001 0.85799998 1
10.759 -4.0370002 1.375 1
10.665 -4.0380001 0.92400002 1
10.61 -4.0380001 0.80500001 1
10.81 -4.0370002 1.181 1
10.85 -4.0370002 1.252 1
10.687 -4.0380001 0.935 1
10.755 -4.0370002 1.0700001 1
10.644 -4.0380001 0.96700001 1
10.719 -4.0380001 0.94400001 1
10.631 -4.0380001 0.91100001 1
10.835 -4.0370002 1.209 1
10.806 -4.0370002 1.193 1
10.701 -4.0380001 0.91299999 1
10.664 -4.0380001 1.049 1
10.782 -4.0370002 1.214 1
10.741 -4.0370002 1.0089999 1
10.664 -4.0380001 1.079 1
10.689 -4.0380001 1.126 1
10.843 -4.0370002 1.145 1
10.751 -4.0370002 1.29 1
10.713 -4.0370002 1.1900001 1
10.72 -4.0380001 1.0420001 1
10.707 -4.0380001 1.018 1
10.61 -4.0380001 0.82999998 1
10.784 -4.0370002 1.306 1
10.773 -4.0370002 1.049 1
10.733 -4.0370002 1.062 1
10.636 -4.0380001 0.83999997 1
10.692 -4.0380001 1.08 1
10.702 -4.0380001 1.123 1
10.738 -4.0370002 1.205 1
10.761 -4.0370002 1.3609999 1
10.78 -4.0370002 1.299 1
10.847 -4.0370002 1.137 1
10.629 -4.0380001 0.82099998 1
10.785 -4.0370002 1.367 1
10.751 -4.0370002 1.031 1
10.727 -4.0370002 1.145 1
10.845 -4.0370002 1.155 1
10.673 -4.0380001 1.002 1
10.761 -4.0370002 1.413 1
10.806 -4.0370002 1.3049999 1
10.818 -4.0370002 1.255 1
10.728 -4.0380001 1.049 1
10.776 -4.0370002 1.225 1
10.79 -4.0370002 1.243 1
10.776 -4.0370002 1.377 1
10.713 -4.0370002 1.188 1
10.766 -4.0370002 1.251 1
10.799 -4.0370002 1.216 1
10.74 -4.0370002 1.107 1
10.731 -4.0370002 1.067 1
10.73 -4.0380001 0.97399998 1
10.862 -4.0370002 1.155 1
10.805 -4.0370002 1.0420001 1
10.734 -4.0370002 1.14 1
10.76 -4.0370002 1.416 1
10.786 -4.0370002 1.147 1
10.752 -4.0370002 1.061 1
10.847 -4.0370002 1.099 1
10.804 -4.0370002 1.035 1
10.709 -4.0380001 0.98500001 1
10.797 -4.0370002 1.2920001 1
10.606 -4.0380001 0.83899999 1
10.832 -4.0370002 1.249 1
10.686 -4.0380001 1.0650001 1
10.723 -4.0370002 1.177 1
10.734 -4.0380001 1.0089999 1
10.723 -4.0380001 1.0599999 1
10.67 -4.0380001 0.91000003 1
10.804 -4.0370002 1.156 1
10.831 -4.0370002 1.1390001 1
10.725 -4.0370002 1.098 1
10.868 -4.0370002 1.17 1
10.69 -4.0380001 0.91900003 1
10.775 -4.0370002 1.4450001 1
10.767 -4.0370002 1.015 1
10.676 -4.0380001 1.0319999 1
10.647 -4.0380001 0.86799997 1
10.862 -4.0370002 1.127 1
10.742 -4.0370002 1.175 1
10.852 -4.0370002 1.177 1
10.749 -4.0370002 1.062 1
10.798 -4.0370002 1.033 1
10.726 -4.0370002 1.268 1
10.737 -4.0370002 1.192 1
10.81 -4.0370002 1.324 1
10.787 -4.0370002 1.4299999 1
10.638 -4.0380001 0.90899998 1
10.712 -4.0380001 1.117 1
10.777 -4.0370002 1.199 1
10.797 -4.0370002 1.376 1
10.771 -4.0370002 1.335 1
10.771 -4.0370002 1.37 1
10.833 -4.0370002 1.108 1
10.754 -4.0370002 1.2079999 1
10.683 -4.0380001 1.063 1
10.791 -4.0370002 1.265 1
10.696 -4.0380001 1.128 1
10.662 -4.0380001 0.88599998 1
10.636 -4.0380001 0.921 1
10.769 -4.0370002 1.067 1
10.754 -4.0370002 1.299 1
10.639 -4.0380001 0.89399999 1
10.788 -4.0370002 1.293 1
10.696 -4.0380001 1.181 1
10.784 -4.0370002 1.198 1
10.799 -4.0370002 1.346 1
10.672 -4.0380001 1.03 1
10.821 -4.0370002 1.214 1
10.727 -4.0380001 0.97899997 1
10.753 -4.0370002 1.256 1
10.854 -4.0370002 1.169 1
10.72 -4.0370002 1.118 1
10.753 -4.0370002 1.329 1
10.689 -4.0380001 1.147 1
10.646 -4.0380001 0.91000003 1
10.721 -4.0380001 0.95099998 1
10.775 -4.0370002 1.2130001 1
10.741 -4.0370002 1.272 1
10.814 -4.0370002 1.136 1
10.701 -4.0380001 1.017 1
10.746 -4.0370002 1.298 1
10.809 -4.0370002 1.126 1
10.726 -4.0370002 1.136 1
10.752 -4.0370002 1.2130001 1
10.794 -4.0370002 1.072 1
10.789 -4.0370002 1.274 1
10.837 -4.0370002 1.174 1
10.769 -4.0370002 1.115 1
10.629 -4.0380001 0.92900002 1
10.751 -4.0370002 1.2460001 1
10.728 -4.0370002 1.084 1
10.762 -4.0370002 1.1849999 1
10.797 -4.0370002 1.227 1
10.653 -4.0380001 0.93400002 1
10.752 -4.0370002 1.1059999 1
10.781 -4.0370002 1.119 1
10.789 -4.0370002 1.373 1
10.711 -4.0370002 1.198 1
10.728 -4.0370002 1.303 1
10.779 -4.0370002 1.4349999 1
10.765 -4.0370002 1.409 1
10.82 -4.0370002 1.293 1
10.807 -4.0370002 1.249 1
10.638 -4.0380001 0.91399997 1
10.73 -4.0370002 1.2819999 1
10.774 -4.0370002 1.15 1
10.774 -4.0370002 1.403 1
10.734 -4.0380001 0.94700003 1
10.62 -4.0380001 0.898 1
10.835 -4.0370002 1.1059999 1
10.758 -4.0370002 1.069 1
10.709 -4.0380001 0.986 1
10.612 -4.0380001 0.83700001 1
10.742 -4.0370002 1.097 1
10.791 -4.0370002 1.304 1
10.814 -4.0370002 1.278 1
10.723 -4.0370002 1.244 1
10.728 -4.0380001 1.017 1
10.744 -4.0370002 0.963 1
10.764 -4.0370002 1.2920001 1
10.825 -4.0370002 1.077 1
10.774 -4.0370002 1.102 1
10.751 -4.0370002 1.072 1
10.803 -4.0370002 1.245 1
10.646 -4.0380001 0.935 1
10.657 -4.0380001 0.917 1
10.659 -4.0380001 0.89399999 1
10.625 -4.0380001 0.91900003 1
10.593 -4.0380001 0.78600001 1
10.811 -4.0370002 1.1160001 1
10.814 -4.0370002 1.327 1
10.747 -4.0370002 1.0880001 1
10.508 -4.0370002 1.8099999 1
10.658 -4.0339999 1.913 1
10.791 -4.0320001 2.0079999 1
10.619 -4.0349998 1.881 1
10.654 -4.0349998 1.852 1
10.802 -4.033 1.943 1
10.778 -4.033 1.973 1
10.746 -4.0339999 1.934 1
10.616 -4.0349998 1.8789999 1
10.905 -4.0300002 2.105 1
10.681 -4.0339999 1.921 1
10.786 -4.0320001 1.998 1
10.744 -4.033 1.946 1
10.639 -4.0349998 1.854 1
10.789 -4.033 1.972 1
10.525 -4.0370002 1.807 1
10.86 -4.0310001 2.029 1
10.63 -4.0349998 1.868 1
10.798 -4.033 1.957 1
10.614 -4.0359998 1.831 1
10.551 -4.0359998 1.834 1
10.868 -4.0310001 2.0450001 1
10.764 -4.0339999 1.9069999 1
10.684 -4.0349998 1.8839999 1
10.794 -4.033 1.988 1
10.775 -4.0320001 2.0079999 1
10.912 -4.0300002 2.109 1
10.76 -4.033 1.994 1
10.598 -4.0359998 1.831 1
10.769 -4.033 1.9529999 1
10.765 -4.0339999 1.904 1
10.87 -4.0310001 2.056 1
10.636 -4.0349998 1.893 1
10.729 -4.033 1.96 1
10.597 -4.0359998 1.836 1
10.536 -4.0370002 1.809 1
10.739 -4.033 1.956 1
10.774 -4.033 1.927 1
10.562 -4.0359998 1.829 1
10.721 -4.033 1.967 1
10.673 -4.0349998 1.88 1
10.764 -4.033 1.949 1
10.819 -4.0320001 2.0309999 1
10.696 -4.0339999 1.936 1
10.732 -4.0339999 1.898 1
10.708 -4.0339999 1.899 1
10.606 -4.0349998 1.878 1
10.826 -4.0320001 2.0450001 1
10.561 -4.0359998 1.818 1
10.523 -4.0370002 1.817 1
10.558 -4.0359998 1.846 1
10.917 -4.0300002 2.1059999 1
10.706 -4.0349998 1.864 1
10.81 -4.033 1.959 1
10.716 -4.0349998 1.877 1
10.688 -4.0349998 1.872 1
10.873 -4.0310001 2.062 1
10.501 -4.0370002 1.795 1
10.896 -4.0310001 2.079 1
10.637 -4.0349998 1.898 1
10.837 -4.0320001 2.0039999 1
10.649 -4.0349998 1.872 1
10.659 -4.0349998 1.892 1
10.726 -4.0339999 1.919 1
10.641 -4.0349998 1.905 1
10.732 -4.033 1.9630001 1
10.666 -4.0349998 1.895 1
10.621 -4.0349998 1.859 1
10.655 -4.0349998 1.8789999 1
10.772 -4.033 1.974 1
10.895 -4.0310001 2.072 1
10.706 -4.0339999 1.909 1
10.816 -4.033 1.973 1
10.622 -4.0349998 1.865 1
10.727 -4.0339999 1.906 1
10.784 -4.033 1.927 1
10.768 -4.033 1.957 1
10.772 -4.033 1.954 1
10.614 -4.0359998 1.8559999 1
10.564 -4.0359998 1.8559999 1
10.751 -4.0339999 1.903 1
10.681 -4.0339999 1.939 1
10.627 -4.0349998 1.8609999 1
10.752 -4.033 1.952 1
10.725 -4.033 1.971 1
10.742 -4.0339999 1.8789999 1
10.711 -4.0339999 1.9349999 1
10.837 -4.0320001 1.99 1
10.823 -4.0320001 2.006 1
10.793 -4.0320001 2.0239999 1
10.626 -4.0349998 1.885 1
10.715 -4.0339999 1.931 1
10.718 -4.0349998 1.877 1
10.761 -4.0339999 1.905 1
10.64 -4.0349998 1.851 1
10.734 -4.0339999 1.943 1
10.472 -4.0370002 1.783 1
10.787 -4.033 1.955 1
10.532 -4.0359998 1.834 1
10.832 -4.0310001 2.043 1
10.624 -4.0349998 1.888 1
10.734 -4.0339999 1.938 1
10.691 -4.0349998 1.863 1
10.755 -4.0339999 1.933 1
10.732 -4.033 1.946 1
10.607 -4.0359998 1.842 1
10.492 -4.0370002 1.791 1
10.768 -4.033 1.979 1
10.624 -4.0359998 1.84 1
10.831 -4.0320001 2.0220001 1
10.733 -4.0339999 1.906 1
10.741 -4.0339999 1.8890001 1
10.744 -4.0339999 1.888 1
10.538 -4.0370002 1.811 1
10.761 -4.033 1.997 1
10.726 -4.0339999 1.942 1
10.706 -4.0339999 1.9 1
10.818 -4.0320001 2.0150001 1
10.795 -4.033 1.964 1
10.573 -4.0359998 1.848 1
10.787 -4.0320001 2.006 1
10.654 -4.0349998 1.8890001 1
10.854 -4.0310001 2.05 1
10.584 -4.0359998 1.852 1
10.843 -4.0320001 2.007 1
10.72 -4.0339999 1.938 1
10.745 -4.033 1.959 1
10.658 -4.0349998 1.862 1
10.889 -4.0310001 2.0680001 1
10.705 -4.0349998 1.875 1
10.547 -4.0370002 1.814 1
10.65 -4.0349998 1.877 1
10.696 -4.0339999 1.932 1
10.814 -4.0320001 2.0220001 1
10.602 -4.0359998 1.839 1
10.632 -4.0349998 1.858 1
10.748 -4.033 1.947 1
10.757 -4.0339999 1.8940001 1
10.55 -4.0359998 1.845 1
10.476 -4.0370002 1.788 1
10.682 -4.0339999 1.902 1
10.77 -4.0339999 1.915 1
10.529 -4.0370002 1.818 1
10.614 -4.0359998 1.841 1
10.851 -4.0320001 2.0179999 1
10.534 -4.0370002 1.804 1
10.581 -4.0359998 1.823 1
10.67 -4.0349998 1.855 1
10.556 -4.0359998 1.822 1
10.798 -4.033 1.952 1
10.604 -4.0359998 1.846 1
10.782 -4.033 1.956 1
10.734 -4.033 1.964 1
10.879 -4.0310001 2.05 1
10.515 -4.0370002 1.816 1
10.566 -4.0359998 1.814 1
10.558 -4.0359998 1.819 1
10.556 -4.0359998 1.851 1
10.675 -4.0339999 1.933 1
10.682 -4.0349998 1.888 1
10.657 -4.0349998 1.8789999 1
10.752 -4.0339999 1.916 1
10.705 -4.0339999 1.886 1
10.834 -4.0320001 2.0380001 1
10.706 -4.0339999 1.951 1
10.766 -4.0339999 1.897 1
10.67 -4.0339999 1.927 1
10.603 -4.0349998 1.873 1
10.697 -4.0339999 1.901 1
10.581 -4.0359998 1.845 1
10.772 -4.033 1.979 1
10.561 -4.0359998 1.812 1
10.722 -4.0339999 1.9299999 1
10.687 -4.0339999 1.913 1
10.757 -4.033 1.957 1
10.514 -4.0370002 1.809 1
10.624 -4.0359998 1.847 1
10.807 -4.033 1.9529999 1
10.569 -4.0359998 1.83 1
10.631 -4.0359998 1.839 1
10.685 -4.0339999 1.9299999 1
10.565 -4.0359998 1.8380001 1
10.672 -4.0339999 1.905 1
10.612 -4.0359998 1.8559999 1
10.663 -4.0349998 1.8940001 1
10.708 -4.0339999 1.9069999 1
10.782 -4.0320001 2.0020001 1
10.752 -4.0339999 1.924 1
10.486 -4.0370002 1.801 1
10.701 -4.0339999 1.9349999 1
10.724 -4.0339999 1.933 1
10.556 -4.0359998 1.83 1
10.526 -4.0370002 1.801 1
10.771 -4.0339999 1.914 1
10.57 -4.0359998 1.826 1
10.716 -4.0339999 1.8940001 1
10.689 -4.0349998 1.87 1
10.779 -4.0320001 2.007 1
10.707 -4.0339999 1.9119999 1
10.713 -4.0339999 1.909 1
10.86 -4.0310001 2.043 1
10.844 -4.0320001 2.003 1
10.734 -4.033 1.967 1
10.691 -4.0339999 1.925 1
10.721 -4.0339999 1.9 1
10.492 -4.0370002 1.79 1
10.652 -4.0349998 1.905 1
10.735 -4.0339999 1.888 1
10.783 -4.033 1.919 1
10.777 -4.0320001 1.999 1
10.721 -4.0349998 1.876 1
10.897 -4.0310001 2.0780001 1
10.777 -4.033 1.951 1
10.772 -4.033 1.994 1
10.625 -4.0349998 1.887 1
10.822 -4.0320001 1.978 1
10.675 -4.0349998 1.8660001 1
10.89 -4.0310001 2.0639999 1
10.823 -4.0320001 1.9910001 1
10.878 -4.0310001 2.0680001 1
10.609 -4.0359998 1.839 1
10.757 -4.033 1.977 1
10.832 -4.0320001 2.016 1
10.895 -4.0300002 2.086 1
10.707 -4.0349998 1.8710001 1
10.662 -4.0339999 1.925 1
10.575 -4.0359998 1.826 1
10.697 -4.0349998 1.876 1
10.659 -4.0339999 1.924 1
10.853 -4.0320001 2.03 1
10.898 -4.0300002 2.0880001 1
10.648 -4.0349998 1.847 1
10.589 -4.0349998 1.87 1
10.579 -4.0359998 1.846 1
10.781 -4.033 1.9809999 1
10.821 -4.0320001 2 1
10.893 -4.0310001 2.0669999 1
10.767 -4.033 1.944 1
10.922 -4.0300002 2.118 1
10.507 -4.0370002 1.799 1
10.672 -4.0339999 1.914 1
10.624 -4.0359998 1.837 1
10.743 -4.033 1.982 1
10.809 -4.0320001 2.0250001 1
10.637 -4.0349998 1.882 1
10.801 -4.0320001 2.0309999 1
10.692 -4.0339999 1.9170001 1
10.714 -4.0339999 1.927 1
10.729 -4.0339999 1.878 1
10.785 -4.0320001 2.0009999 1
10.712 -4.0349998 1.869 1
10.625 -4.0349998 1.892 1
10.609 -4.0359998 1.847 1
10.713 -4.0339999 1.926 1
10.567 -4.0359998 1.849 1
10.821 -4.0320001 2.026 1
10.753 -4.0339999 1.9 1
10.749 -4.0339999 1.881 1
10.86 -4.0310001 2.059 1
10.794 -4.0320001 2.0090001 1
10.815 -4.0320001 2.033 1
10.804 -4.033 1.961 1
10.771 -4.033 1.992 1
10.775 -4.033 1.947 1
10.844 -4.0320001 2.0339999 1
10.696 -4.0339999 1.896 1
10.766 -4.0339999 1.903 1
10.83 -4.0320001 2.0079999 1
10.862 -4.0310001 2.033 1
10.857 -4.0310001 2.0480001 1
10.553 -4.0359998 1.827 1
10.735 -4.033 1.959 1
10.856 -4.0310001 2.04 1
10.727 -4.0339999 1.906 1
10.803 -4.0320001 1.999 1
10.605 -4.0349998 1.863 1
10.851 -4.0310001 2.039 1
10.831 -4.0320001 2.0239999 1
10.548 -4.0370002 1.813 1
10.679 -4.0349998 1.854 1
10.459 -4.0380001 1.779 1
10.76 -4.033 1.979 1
10.763 -4.0339999 1.9 1
10.809 -4.0320001 2.0239999 1
10.808 -4.0320001 2.0139999 1
10.887 -4.0310001 2.0610001 1
10.529 -4.0359998 1.826 1
10.797 -4.0320001 2.006 1
10.687 -4.0349998 1.858 1
10.641 -4.0349998 1.857 1
10.722 -4.0339999 1.938 1
10.799 -4.0320001 2.0209999 1
10.723 -4.0339999 1.9349999 1
10.517 -4.0450001 2.263 1
10.359 -4.0469999 2.2550001 1
10.726 -4.0510001 2.211 1
10.348 -4.0549998 2.1989999 1
10.604 -4.0469999 2.2390001 1
10.197 -4.0539999 2.2130001 1
10.621 -4.0510001 2.2160001 1
10.315 -4.0560002 2.1889999 1
10.632 -4.0500002 2.2179999 1
10.471 -4.0440001 2.27 1
10.355 -4.053 2.214 1
10.157 -4.0560002 2.201 1
10.487 -4.0539999 2.198 1
10.786 -4.052 2.198 1
10.55 -4.0500002 2.2249999 1
10.314 -4.0560002 2.191 1
10.25 -4.0570002 2.187 1
10.678 -4.0539999 2.194 1
10.197 -4.0560002 2.2 1
10.672 -4.0500002 2.2179999 1
10.388 -4.0500002 2.2320001 1
10.527 -4.0510001 2.2160001 1
10.291 -4.0560002 2.1900001 1
10.706 -4.0500002 2.2190001 1
10.266 -4.0510001 2.227 1
10.411 -4.0510001 2.2219999 1
10.524 -4.0500002 2.227 1
10.494 -4.0479999 2.2379999 1
10.292 -4.0539999 2.2090001 1
10.568 -4.052 2.2090001 1
10.459 -4.052 2.217 1
10.244 -4.0560002 2.1960001 1
10.404 -4.053 2.2079999 1
10.675 -4.0500002 2.2160001 1
10.375 -4.0489998 2.2349999 1
10.15 -4.0560002 2.197 1
10.366 -4.0560002 2.194 1
10.636 -4.0479999 2.237 1
10.301 -4.052 2.223 1
10.217 -4.053 2.2160001 1
10.823 -4.052 2.2 1
10.465 -4.0479999 2.2420001 1
10.203 -4.053 2.2160001 1
10.446 -4.052 2.2119999 1
10.724 -4.0500002 2.22 1
10.477 -4.0440001 2.266 1
10.308 -4.0549998 2.197 1
10.181 -4.0560002 2.198 1
10.239 -4.053 2.2179999 1
10.702 -4.0500002 2.2160001 1
10.403 -4.0539999 2.2 1
10.377 -4.0469999 2.2509999 1
10.248 -4.0549998 2.204 1
10.358 -4.0560002 2.1889999 1
10.466 -4.052 2.214 1
10.621 -4.0500002 2.223 1
10.538 -4.046 2.253 1
10.489 -4.0469999 2.2490001 1
10.689 -4.0510001 2.2119999 1
10.615 -4.0500002 2.2249999 1
10.537 -4.0500002 2.2260001 1
10.552 -4.052 2.2130001 1
10.35 -4.0469999 2.253 1
10.363 -4.0510001 2.227 1
10.528 -4.0479999 2.2409999 1
10.541 -4.052 2.207 1
10.683 -4.0500002 2.2190001 1
10.116 -4.0580001 2.1900001 1
10.704 -4.0500002 2.22 1
10.484 -4.052 2.2119999 1
10.434 -4.0549998 2.197 1
10.475 -4.0440001 2.2709999 1
10.155 -4.0549998 2.2049999 1
10.591 -4.0539999 2.1930001 1
10.303 -4.0510001 2.2309999 1
10.335 -4.0489998 2.2420001 1
10.716 -4.0500002 2.217 1
10.417 -4.053 2.2060001 1
10.377 -4.0510001 2.2260001 1
10.5 -4.0549998 2.1930001 1
10.412 -4.0469999 2.2490001 1
10.413 -4.0539999 2.201 1
10.375 -4.0489998 2.2360001 1
10.355 -4.0469999 2.2550001 1
10.193 -4.0549998 2.204 1
10.4 -4.0489998 2.24 1
10.791 -4.052 2.1989999 1
10.8 -4.0510001 2.204 1
10.57 -4.0479999 2.2360001 1
10.651 -4.0500002 2.2190001 1
10.236 -4.0549998 2.2 1
10.612 -4.0479999 2.2360001 1
10.496 -4.046 2.257 1
10.388 -4.0539999 2.2049999 1
10.507 -4.0539999 2.1960001 1
10.438 -4.053 2.2049999 1
10.509 -4.046 2.253 1
10.54 -4.046 2.2520001 1
10.426 -4.0510001 2.2190001 1
10.534 -4.0500002 2.2249999 1
10.582 -4.0510001 2.2130001 1
10.43 -4.0560002 2.1900001 1
10.74 -4.052 2.201 1
10.705 -4.052 2.2030001 1
10.675 -4.0479999 2.233 1
10.369 -4.0489998 2.2409999 1
10.591 -4.0469999 2.2449999 1
10.535 -4.0489998 2.233 1
10.651 -4.0510001 2.2160001 1
10.322 -4.052 2.2190001 1
10.159 -4.0549998 2.204 1
10.39 -4.0489998 2.24 1
10.455 -4.0489998 2.233 1
10.102 -4.0570002 2.191 1
10.313 -4.0489998 2.2390001 1
10.463 -4.0440001 2.2709999 1
10.25 -4.0560002 2.197 1
10.41 -4.0440001 2.2690001 1
10.19 -4.0549998 2.2079999 1
10.448 -4.0539999 2.2030001 1
10.456 -4.052 2.2160001 1
10.406 -4.0469999 2.25 1
10.382 -4.0549998 2.1930001 1
10.562 -4.0539999 2.1949999 1
10.375 -4.0469999 2.2520001 1
10.376 -4.0560002 2.191 1
10.351 -4.052 2.22 1
10.642 -4.053 2.1989999 1
10.23 -4.0570002 2.1919999 1
10.464 -4.053 2.204 1
10.23 -4.0539999 2.2090001 1
10.364 -4.0489998 2.2409999 1
10.397 -4.0539999 2.2019999 1
10.722 -4.053 2.194 1
10.458 -4.0549998 2.1930001 1
10.567 -4.0500002 2.224 1
10.593 -4.0539999 2.1960001 1
10.419 -4.052 2.217 1
10.448 -4.0549998 2.1960001 1
10.598 -4.052 2.2119999 1
10.677 -4.053 2.1989999 1
10.43 -4.052 2.214 1
10.542 -4.052 2.2130001 1
10.262 -4.0549998 2.2019999 1
10.465 -4.053 2.204 1
10.571 -4.0469999 2.2460001 1
10.464 -4.0489998 2.234 1
10.445 -4.053 2.2090001 1
10.482 -4.0539999 2.2 1
10.309 -4.0500002 2.237 1
10.65 -4.0479999 2.2360001 1
