# .PCD v0.7 - Point Cloud Data file format
VERSION 0.7
FIELDS x y z label
SIZE 4 4 4 4
TYPE F F F U
COUNT 1 1 1 1
WIDTH 1749
HEIGHT 1
VIEWPOINT 0 0 0 1 0 0 0
POINTS 1749
DATA ascii
10.358 -5.8579998 0.228 1
10.402 -5.8590002 0.38100001 1
10.395 -5.8600001 0.47799999 1
10.291 -5.8569999 0.16599999 1
10.522 -5.8600001 0.44 1
10.393 -5.8590002 0.38499999 1
10.467 -5.8579998 0.31099999 1
10.44 -5.8590002 0.396 1
10.271 -5.8579998 0.28200001 1
10.295 -5.8600001 0.45500001 1
10.239 -5.8600001 0.41100001 1
10.283 -5.8569999 0.191 1
10.389 -5.8569999 0.20299999 1
10.509 -5.8610001 0.51599997 1
10.265 -5.8590002 0.30199999 1
10.369 -5.8569999 0.17 1
10.409 -5.8569999 0.214 1
10.335 -5.8579998 0.29300001 1
10.374 -5.8590002 0.38499999 1
10.315 -5.8590002 0.36700001 1
10.494 -5.8600001 0.44600001 1
10.375 -5.8600001 0.403 1
10.487 -5.8600001 0.45699999 1
10.341 -5.8569999 0.132 1
10.257 -5.8600001 0.40599999 1
10.24 -5.8600001 0.38299999 1
10.443 -5.8590002 0.36300001 1
10.36 -5.8600001 0.405 1
10.379 -5.8579998 0.23 1
10.424 -5.8600001 0.46799999 1
10.446 -5.8590002 0.35299999 1
10.362 -5.8600001 0.44299999 1
10.296 -5.8579998 0.20999999 1
10.372 -5.8600001 0.43599999 1
10.243 -5.8590002 0.33399999 1
10.501 -5.8590002 0.40700001 1
10.335 -5.8569999 0.148 1
10.523 -5.8600001 0.50199997 1
10.402 -5.8600001 0.44100001 1
10.249 -5.8610001 0.477 1
10.335 -5.8559999 0.1 1
10.235 -5.8600001 0.44499999 1
10.345 -5.8559999 0.1 1
10.442 -5.8579998 0.30199999 1
10.366 -5.8590002 0.37799999 1
10.406 -5.8579998 0.28299999 1
10.436 -5.8590002 0.352 1
10.291 -5.8579998 0.23899999 1
10.336 -5.8559999 0.075000003 1
10.343 -5.8569999 0.193 1
10.35 -5.8579998 0.235 1
10.327 -5.8600001 0.45100001 1
10.286 -5.8600001 0.44400001 1
10.51 -5.8590002 0.41600001 1
10.358 -5.8579998 0.229 1
10.453 -5.8600001 0.43799999 1
10.382 -5.8610001 0.5 1
10.22 -5.8600001 0.39700001 1
10.315 -5.8600001 0.42199999 1
10.397 -5.8579998 0.26899999 1
10.342 -5.8579998 0.23899999 1
10.297 -5.8590002 0.30399999 1
10.331 -5.8559999 0.059999999 1
10.302 -5.8569999 0.13600001 1
10.353 -5.8579998 0.25 1
10.272 -5.8600001 0.42399999 1
10.432 -5.8600001 0.491 1
10.253 -5.8600001 0.45899999 1
10.392 -5.8590002 0.384 1
10.466 -5.8590002 0.36899999 1
10.334 -5.8569999 0.15800001 1
10.379 -5.8579998 0.237 1
10.234 -5.8590002 0.345 1
10.332 -5.8569999 0.19499999 1
10.369 -5.8579998 0.241 1
10.317 -5.8569999 0.2 1
10.334 -5.8579998 0.252 1
10.469 -5.8590002 0.32100001 1
10.34 -5.8559999 0.112 1
10.452 -5.8579998 0.30700001 1
10.457 -5.8600001 0.493 1
10.3 -5.8569999 0.164 1
10.373 -5.8600001 0.47799999 1
10.34 -5.8600001 0.43099999 1
10.327 -5.8559999 0.046 1
10.262 -5.8590002 0.331 1
10.32 -5.8600001 0.405 1
10.362 -5.8569999 0.20100001 1
10.344 -5.8590002 0.33500001 1
10.379 -5.8600001 0.442 1
10.442 -5.8590002 0.331 1
10.336 -5.8590002 0.31799999 1
10.413 -5.8590002 0.368 1
10.468 -5.8600001 0.5 1
10.499 -5.8590002 0.37099999 1
10.508 -5.8600001 0.46700001 1
10.455 -5.8600001 0.50300002 1
10.321 -5.8559999 0.088 1
10.473 -5.8590002 0.32499999 1
10.208 -5.8600001 0.42699999 1
10.311 -5.8579998 0.21699999 1
10.423 -5.8579998 0.26100001 1
10.277 -5.8579998 0.28299999 1
10.367 -5.8559999 0.106 1
10.351 -5.8569999 0.197 1
10.384 -5.8579998 0.30500001 1
10.501 -5.8590002 0.37900001 1
10.356 -5.8590002 0.30899999 1
10.332 -5.8579998 0.28299999 1
10.224 -5.8610001 0.47099999 1
10.343 -5.8590002 0.36300001 1
10.553 -5.8600001 0.47 1
10.303 -5.8579998 0.248 1
10.399 -5.8600001 0.456 1
10.493 -5.8600001 0.50800002 1
10.294 -5.8579998 0.26300001 1
10.262 -5.8590002 0.31999999 1
10.479 -5.8590002 0.40900001 1
10.395 -5.8600001 0.44400001 1
10.505 -5.8600001 0.493 1
10.558 -5.8600001 0.491 1
10.375 -5.8590002 0.38800001 1
10.224 -5.8600001 0.45100001 1
10.481 -5.8590002 0.33899999 1
10.385 -5.8590002 0.382 1
10.291 -5.8579998 0.25799999 1
10.491 -5.8590002 0.34999999 1
10.392 -5.8600001 0.412 1
10.246 -5.8610001 0.484 1
10.397 -5.8600001 0.484 1
10.508 -5.8590002 0.417 1
10.345 -5.8590002 0.35699999 1
10.369 -5.8579998 0.271 1
10.306 -5.8600001 0.39199999 1
10.431 -5.8590002 0.38499999 1
10.34 -5.8569999 0.19400001 1
10.389 -5.8590002 0.37799999 1
10.349 -5.8559999 0.115 1
10.388 -5.8600001 0.449 1
10.322 -5.8559999 0.090000004 1
10.482 -5.8600001 0.46399999 1
10.535 -5.8600001 0.45500001 1
10.359 -5.8579998 0.278 1
10.34 -5.8590002 0.315 1
10.297 -5.8569999 0.19599999 1
10.407 -5.8590002 0.33000001 1
10.206 -5.8600001 0.43900001 1
10.243 -5.8590002 0.303 1
10.26 -5.8600001 0.38299999 1
10.474 -5.8590002 0.36399999 1
10.308 -5.8559999 0.079999998 1
10.362 -5.8600001 0.48199999 1
10.314 -5.8559999 0.088 1
10.374 -5.8579998 0.214 1
10.262 -5.8590002 0.315 1
10.297 -5.8600001 0.45100001 1
10.326 -5.8559999 0.071999997 1
10.291 -5.8569999 0.18099999 1
10.303 -5.8579998 0.227 1
10.256 -5.8600001 0.433 1
10.443 -5.8600001 0.43000001 1
10.418 -5.8590002 0.32499999 1
10.302 -5.8590002 0.32100001 1
10.378 -5.8610001 0.50400001 1
10.251 -5.8590002 0.308 1
10.365 -5.8590002 0.36399999 1
10.227 -5.8600001 0.40599999 1
10.239 -5.8600001 0.38499999 1
10.345 -5.8569999 0.16599999 1
10.428 -5.8579998 0.28600001 1
10.339 -5.8600001 0.43799999 1
10.341 -5.8559999 0.059999999 1
10.376 -5.8569999 0.13699999 1
10.267 -5.8590002 0.30899999 1
10.443 -5.8600001 0.46399999 1
10.309 -5.8600001 0.41499999 1
10.375 -5.8600001 0.45199999 1
10.406 -5.8569999 0.18000001 1
10.412 -5.8590002 0.36000001 1
10.461 -5.8590002 0.38999999 1
10.293 -5.8569999 0.15899999 1
10.312 -5.8709998 2.2130001 1
10.185 -5.8699999 2.23 1
10.144 -5.8699999 2.2249999 1
10.341 -5.8720002 2.2 1
10.249 -5.8709998 2.2149999 1
10.261 -5.8730001 2.184 1
10.264 -5.8720002 2.2 1
10.29 -5.869 2.2449999 1
10.237 -5.869 2.253 1
10.355 -5.8740001 2.174 1
10.13 -5.8709998 2.2079999 1
10.19 -5.8699999 2.2349999 1
10.26 -5.8699999 2.234 1
10.3 -5.8699999 2.2390001 1
10.339 -5.8720002 2.2 1
10.397 -5.8740001 2.174 1
10.284 -5.868 2.2650001 1
10.425 -5.875 2.161 1
10.279 -5.868 2.263 1
10.164 -5.8730001 2.174 1
10.106 -5.8720002 2.1949999 1
10.371 -5.8730001 2.184 1
10.314 -5.8730001 2.187 1
10.335 -5.8709998 2.2260001 1
10.171 -5.8720002 2.1930001 1
10.218 -5.8699999 2.2349999 1
10.279 -5.8699999 2.23 1
10.244 -5.869 2.2490001 1
10.173 -5.8730001 2.1800001 1
10.196 -5.8720002 2.2019999 1
10.259 -5.8720002 2.2 1
10.278 -5.8740001 2.1700001 1
10.187 -5.8730001 2.177 1
10.244 -5.8699999 2.233 1
10.065 -5.8720002 2.1860001 1
10.362 -5.8730001 2.1900001 1
10.345 -5.8730001 2.188 1
10.265 -5.8730001 2.1730001 1
10.248 -5.8720002 2.2049999 1
10.075 -5.8730001 2.175 1
10.229 -5.8699999 2.2249999 1
10.433 -5.875 2.1630001 1
10.246 -5.869 2.244 1
10.372 -5.8730001 2.1919999 1
10.311 -5.8699999 2.2349999 1
10.161 -5.8709998 2.2019999 1
10.264 -5.868 2.2690001 1
10.153 -5.8709998 2.2030001 1
10.223 -5.8730001 2.181 1
10.293 -5.8699999 2.233 1
10.391 -5.8740001 2.1659999 1
10.297 -5.8709998 2.2190001 1
10.283 -5.869 2.2490001 1
10.369 -5.8720002 2.2049999 1
10.291 -5.8699999 2.2409999 1
10.251 -5.868 2.276 1
10.223 -5.8740001 2.1689999 1
10.202 -5.8730001 2.1700001 1
10.414 -5.8740001 2.178 1
10.238 -5.869 2.2420001 1
10.289 -5.8709998 2.2130001 1
10.216 -5.8720002 2.1919999 1
10.297 -5.868 2.27 1
10.292 -5.8720002 2.198 1
10.195 -5.8730001 2.177 1
10.318 -5.8730001 2.1830001 1
10.168 -5.8730001 2.178 1
10.282 -5.868 2.27 1
10.151 -5.8720002 2.184 1
10.31 -5.8720002 2.2030001 1
10.263 -5.8720002 2.2030001 1
10.265 -5.8740001 2.1689999 1
10.111 -5.8720002 2.194 1
10.41 -5.8740001 2.168 1
10.215 -5.8730001 2.1860001 1
10.264 -5.8720002 2.2030001 1
10.288 -5.8730001 2.177 1
10.233 -5.869 2.2550001 1
10.24 -5.868 2.2609999 1
10.285 -5.8709998 2.2179999 1
10.342 -5.8730001 2.1919999 1
10.198 -5.869 2.2550001 1
10.207 -5.869 2.2449999 1
10.273 -5.8709998 2.217 1
10.07 -5.8730001 2.178 1
10.282 -5.8709998 2.2179999 1
10.262 -5.8720002 2.2060001 1
10.192 -5.8730001 2.171 1
10.271 -5.869 2.2590001 1
10.161 -5.8709998 2.214 1
10.19 -5.8699999 2.2249999 1
10.128 -5.8730001 2.174 1
10.164 -5.8720002 2.1960001 1
10.241 -5.8699999 2.234 1
10.131 -5.8720002 2.1960001 1
10.383 -5.8740001 2.1700001 1
10.346 -5.8720002 2.2119999 1
10.193 -5.868 2.257 1
10.266 -5.8709998 2.214 1
10.117 -5.8709998 2.201 1
10.296 -5.8699999 2.2409999 1
10.118 -5.8720002 2.198 1
10.207 -5.8699999 2.2290001 1
10.353 -5.8730001 2.1900001 1
10.211 -5.8730001 2.1849999 1
10.235 -5.8699999 2.2390001 1
10.337 -5.8730001 2.1830001 1
10.132 -5.8709998 2.2160001 1
10.241 -5.8720002 2.1919999 1
10.084 -5.8720002 2.188 1
10.069 -5.8720002 2.1849999 1
10.311 -5.8709998 2.2130001 1
10.271 -5.8740001 2.1700001 1
10.349 -5.8709998 2.2130001 1
10.136 -5.8699999 2.223 1
10.043 -5.8730001 2.1700001 1
10.358 -5.8709998 2.2219999 1
10.225 -5.8720002 2.1930001 1
10.308 -5.8720002 2.2019999 1
10.275 -5.8699999 2.2320001 1
10.432 -5.875 2.1630001 1
10.397 -5.8740001 2.1700001 1
10.232 -5.8699999 2.2249999 1
10.146 -5.8730001 2.177 1
10.042 -5.8720002 2.1830001 1
10.363 -5.8740001 2.177 1
10.227 -5.868 2.27 1
10.207 -5.8709998 2.2060001 1
10.216 -5.8709998 2.2079999 1
10.298 -5.8699999 2.2290001 1
10.212 -5.868 2.266 1
10.214 -5.8720002 2.1919999 1
10.278 -5.8720002 2.2060001 1
10.252 -5.868 2.2739999 1
10.183 -5.8699999 2.2320001 1
10.102 -5.8730001 2.1730001 1
10.318 -5.8730001 2.1830001 1
10.259 -5.8709998 2.223 1
10.305 -5.8730001 2.1789999 1
10.068 -5.8720002 2.191 1
10.345 -5.8720002 2.2060001 1
10.304 -5.8709998 2.2219999 1
10.377 -5.8720002 2.1989999 1
10.222 -5.8730001 2.1789999 1
10.139 -5.8720002 2.187 1
10.337 -5.8740001 2.1659999 1
10.397 -5.8740001 2.165 1
10.187 -5.8699999 2.233 1
10.362 -5.8730001 2.181 1
10.279 -5.8709998 2.2090001 1
10.066 -5.8720002 2.188 1
10.298 -5.8709998 2.2219999 1
10.15 -5.8699999 2.2349999 1
10.246 -5.8730001 2.177 1
10.22 -5.8699999 2.2309999 1
10.181 -5.8720002 2.201 1
10.281 -5.8699999 2.23 1
10.303 -5.8709998 2.223 1
10.235 -5.8720002 2.197 1
10.073 -5.8720002 2.1800001 1
10.291 -5.8699999 2.233 1
10.189 -5.8720002 2.197 1
10.153 -5.8730001 2.1830001 1
10.17 -5.8699999 2.2219999 1
10.103 -5.8730001 2.1730001 1
10.189 -5.869 2.2490001 1
10.234 -5.868 2.2709999 1
10.31 -5.8730001 2.191 1
10.296 -5.869 2.2579999 1
10.278 -5.8730001 2.1819999 1
10.417 -5.8740001 2.1700001 1
10.183 -5.8720002 2.1860001 1
10.18 -5.8699999 2.224 1
10.195 -5.8730001 2.177 1
10.272 -5.8740001 2.1689999 1
10.172 -5.8730001 2.177 1
10.105 -5.8730001 2.171 1
10.248 -5.8709998 2.21 1
10.174 -5.8699999 2.227 1
10.184 -5.8709998 2.2049999 1
10.19 -5.8720002 2.194 1
10.234 -5.868 2.2639999 1
10.212 -5.8709998 2.2160001 1
10.31 -5.8699999 2.2290001 1
10.134 -5.8730001 2.1789999 1
10.246 -5.8730001 2.1849999 1
10.294 -5.8709998 2.2260001 1
10.116 -5.8730001 2.1719999 1
10.089 -5.8709998 2.2060001 1
10.365 -5.8720002 2.204 1
10.376 -5.8730001 2.188 1
10.291 -5.8699999 2.2290001 1
10.383 -5.8720002 2.197 1
10.388 -5.8740001 2.1760001 1
10.324 -5.8740001 2.1719999 1
10.243 -5.8730001 2.1730001 1
10.074 -5.8709998 2.197 1
10.268 -5.8730001 2.178 1
10.328 -5.8709998 2.217 1
10.288 -5.8709998 2.2249999 1
10.221 -5.8730001 2.1860001 1
10.156 -5.8720002 2.184 1
10.086 -5.8720002 2.1849999 1
10.347 -5.8720002 2.1949999 1
10.14 -5.8699999 2.2249999 1
10.111 -5.8699999 2.217 1
10.106 -5.8730001 2.1760001 1
10.194 -5.8730001 2.1700001 1
10.414 -5.8740001 2.1730001 1
10.137 -5.8699999 2.23 1
10.167 -5.8709998 2.2149999 1
10.315 -5.8709998 2.211 1
10.276 -5.8730001 2.177 1
10.306 -5.869 2.2590001 1
10.141 -5.8730001 2.168 1
10.134 -5.8709998 2.2130001 1
10.41 -5.8740001 2.168 1
10.186 -5.869 2.2539999 1
10.394 -5.8730001 2.194 1
10.365 -5.8720002 2.2030001 1
10.125 -5.8730001 2.1719999 1
10.202 -5.869 2.243 1
10.259 -5.869 2.244 1
10.311 -5.8740001 2.1630001 1
10.403 -5.8730001 2.1819999 1
10.417 -5.8740001 2.165 1
10.356 -5.8709998 2.217 1
10.3 -5.869 2.2609999 1
10.17 -5.869 2.244 1
10.239 -5.868 2.2590001 1
10.042 -5.8720002 2.1800001 1
10.305 -5.8740001 2.164 1
10.266 -5.8730001 2.177 1
10.276 -5.8720002 2.2049999 1
10.21 -5.8709998 2.217 1
10.361 -5.8709998 2.2190001 1
10.307 -5.8720002 2.194 1
10.359 -5.8740001 2.168 1
10.13 -5.8730001 2.1760001 1
10.186 -5.8720002 2.1919999 1
10.3 -5.8699999 2.233 1
10.353 -5.8720002 2.198 1
10.151 -5.8720002 2.201 1
10.176 -5.8720002 2.1949999 1
10.23 -5.8740001 2.1670001 1
10.368 -5.8730001 2.1860001 1
10.31 -5.8720002 2.204 1
10.387 -5.8740001 2.177 1
10.203 -5.8720002 2.2030001 1
10.158 -5.8730001 2.1700001 1
10.203 -5.8699999 2.234 1
10.275 -5.869 2.26 1
10.376 -5.8730001 2.1949999 1
10.368 -5.8730001 2.1830001 1
10.173 -5.8720002 2.1889999 1
10.079 -5.8720002 2.187 1
10.275 -5.8720002 2.194 1
10.366 -5.8720002 2.2090001 1
10.322 -5.8699999 2.2420001 1
10.199 -5.8740001 2.1659999 1
10.309 -5.8720002 2.194 1
10.436 -5.875 2.1600001 1
10.056 -5.8720002 2.1819999 1
10.387 -5.8740001 2.1670001 1
10.345 -5.8709998 2.22 1
10.275 -5.869 2.2490001 1
10.103 -5.8730001 2.1689999 1
10.364 -5.8730001 2.184 1
10.177 -5.8720002 2.1860001 1
10.27 -5.8720002 2.201 1
10.261 -5.869 2.247 1
10.104 -5.8730001 2.1800001 1
10.217 -5.869 2.253 1
10.407 -5.8740001 2.1689999 1
10.369 -5.8730001 2.1860001 1
10.088 -5.8709998 2.2060001 1
10.068 -5.8730001 2.177 1
10.313 -5.8730001 2.177 1
10.055 -5.8730001 2.1719999 1
10.284 -5.868 2.092 1
10.48 -5.8699999 2.1129999 1
10.195 -5.869 2.105 1
10.461 -5.869 2.108 1
10.467 -5.8660002 2.0769999 1
10.416 -5.8660002 2.076 1
10.391 -5.8709998 2.1199999 1
10.025 -5.8670001 2.0910001 1
10.495 -5.868 2.096 1
10.418 -5.8699999 2.1170001 1
10.475 -5.869 2.099 1
10.101 -5.8670001 2.092 1
10.297 -5.868 2.099 1
10.191 -5.869 2.1040001 1
10.441 -5.8670001 2.089 1
10.361 -5.8670001 2.089 1
10.331 -5.868 2.095 1
10.08 -5.868 2.0940001 1
10.18 -5.8670001 2.0840001 1
10.46 -5.868 2.095 1
10.042 -5.8670001 2.092 1
10.404 -5.8699999 2.1099999 1
10.225 -5.868 2.095 1
10.509 -5.8660002 2.0780001 1
10.167 -5.868 2.1010001 1
10.448 -5.8730001 2.142 1
10.447 -5.8709998 2.118 1
10.476 -5.8670001 2.0810001 1
10.106 -5.868 2.1029999 1
10.284 -5.8660002 2.0799999 1
10.416 -5.8740001 2.152 1
10.429 -5.8740001 2.1459999 1
10.331 -5.869 2.1040001 1
10.236 -5.8670001 2.0840001 1
10.279 -5.869 2.1040001 1
10.514 -5.8670001 2.0840001 1
10.45 -5.8740001 2.152 1
10.292 -5.8699999 2.118 1
10.418 -5.8670001 2.0840001 1
10.396 -5.8660002 2.072 1
10.268 -5.869 2.109 1
10.374 -5.8670001 2.0840001 1
10.375 -5.8660002 2.079 1
10.095 -5.868 2.0940001 1
10.373 -5.8699999 2.1170001 1
10.159 -5.869 2.1029999 1
10.512 -5.8660002 2.0739999 1
10.259 -5.868 2.092 1
10.434 -5.8709998 2.1199999 1
10.406 -5.8670001 2.089 1
10.408 -5.869 2.1029999 1
10.449 -5.868 2.095 1
10.191 -5.868 2.0929999 1
10.228 -5.869 2.108 1
10.336 -5.8670001 2.0910001 1
10.437 -5.8720002 2.1340001 1
10.319 -5.8709998 2.125 1
10.348 -5.8709998 2.1229999 1
10.427 -5.869 2.1010001 1
10.394 -5.8699999 2.1159999 1
10.392 -5.8730001 2.145 1
10.531 -5.8649998 2.0669999 1
10.087 -5.868 2.0999999 1
10.289 -5.868 2.092 1
10.193 -5.8670001 2.089 1
10.338 -5.869 2.1070001 1
10.205 -5.8670001 2.0910001 1
10.401 -5.868 2.0940001 1
10.505 -5.8670001 2.082 1
10.468 -5.868 2.0969999 1
10.319 -5.8709998 2.1259999 1
10.17 -5.869 2.108 1
10.328 -5.8670001 2.0910001 1
10.257 -5.8709998 2.1289999 1
10.335 -5.868 2.098 1
10.344 -5.8709998 2.1229999 1
10.172 -5.8670001 2.092 1
10.283 -5.8709998 2.128 1
10.298 -5.8670001 2.089 1
10.413 -5.8720002 2.135 1
10.169 -5.869 2.1029999 1
10.345 -5.8730001 2.138 1
10.464 -5.8709998 2.1259999 1
10.399 -5.8720002 2.1289999 1
10.078 -5.8670001 2.0880001 1
10.339 -5.869 2.1070001 1
10.401 -5.8720002 2.131 1
10.28 -5.8670001 2.0829999 1
10.31 -5.8699999 2.1140001 1
10.389 -5.8699999 2.112 1
10.402 -5.8740001 2.1489999 1
10.325 -5.8720002 2.1370001 1
10.356 -5.869 2.105 1
10.186 -5.8670001 2.0880001 1
10.442 -5.869 2.1059999 1
10.337 -5.8720002 2.135 1
10.234 -5.869 2.109 1
10.377 -5.868 2.098 1
10.437 -5.8709998 2.1210001 1
10.338 -5.8699999 2.118 1
10.475 -5.8649998 2.069 1
10.5 -5.8670001 2.0880001 1
10.43 -5.8740001 2.1500001 1
10.374 -5.8699999 2.118 1
10.473 -5.8670001 2.086 1
10.395 -5.8660002 2.0799999 1
10.071 -5.8670001 2.0940001 1
10.183 -5.868 2.0940001 1
10.306 -5.8720002 2.1340001 1
10.501 -5.8670001 2.0840001 1
10.46 -5.8709998 2.1199999 1
10.353 -5.8730001 2.1440001 1
10.431 -5.869 2.1010001 1
10.183 -5.869 2.1040001 1
10.367 -5.8709998 2.1229999 1
10.2 -5.869 2.1040001 1
10.32 -5.8670001 2.0869999 1
10.396 -5.869 2.1010001 1
10.164 -5.8670001 2.092 1
10.305 -5.8720002 2.132 1
10.283 -5.8699999 2.1129999 1
10.312 -5.8709998 2.1240001 1
10.365 -5.8699999 2.115 1
10.429 -5.869 2.1010001 1
10.282 -5.8660002 2.0810001 1
10.211 -5.869 2.1059999 1
10.098 -5.8670001 2.092 1
10.041 -5.8670001 2.0929999 1
10.359 -5.8660002 2.0799999 1
10.425 -5.8660002 2.0769999 1
10.295 -5.8699999 2.1159999 1
10.443 -5.8660002 2.073 1
10.366 -5.8699999 2.1170001 1
10.09 -5.8670001 2.0869999 1
10.427 -5.8660002 2.079 1
10.465 -5.869 2.1040001 1
10.351 -5.868 2.096 1
10.121 -5.8670001 2.0880001 1
10.492 -5.869 2.1010001 1
10.191 -5.8699999 2.112 1
10.262 -5.8699999 2.1129999 1
10.347 -5.8670001 2.086 1
10.419 -5.8709998 2.122 1
10.484 -5.8699999 2.1110001 1
10.349 -5.8709998 2.1270001 1
10.461 -5.8709998 2.1210001 1
10.273 -5.8699999 2.118 1
10.269 -5.8670001 2.089 1
10.091 -5.868 2.0969999 1
10.372 -5.8660002 2.0810001 1
10.431 -5.868 2.0910001 1
10.344 -5.869 2.108 1
10.329 -5.868 2.099 1
10.463 -5.8699999 2.115 1
10.275 -5.8670001 2.089 1
10.428 -5.868 2.095 1
10.304 -5.8720002 2.1340001 1
10.252 -5.8670001 2.0829999 1
10.252 -5.8709998 2.1270001 1
10.172 -5.8670001 2.085 1
10.405 -5.8720002 2.1289999 1
10.387 -5.8660002 2.075 1
10.094 -5.868 2.1029999 1
10.351 -5.869 2.1040001 1
10.322 -5.8699999 2.119 1
10.342 -5.8730001 2.1389999 1
10.438 -5.8740001 2.152 1
10.489 -5.868 2.089 1
10.319 -5.8660002 2.0780001 1
10.472 -5.869 2.1059999 1
10.231 -5.869 2.1099999 1
10.455 -5.868 2.096 1
10.218 -5.868 2.0969999 1
10.108 -5.8670001 2.086 1
10.362 -5.8709998 2.125 1
10.205 -5.8699999 2.1159999 1
10.078 -5.8670001 2.089 1
10.357 -5.8660002 2.0769999 1
10.414 -5.8720002 2.1340001 1
10.294 -5.8709998 2.1199999 1
10.162 -5.869 2.1110001 1
10.198 -5.8699999 2.119 1
10.368 -5.868 2.095 1
10.509 -5.8660002 2.0780001 1
10.511 -5.868 2.092 1
10.383 -5.8720002 2.1359999 1
10.1 -5.8670001 2.0869999 1
10.424 -5.8730001 2.145 1
10.336 -5.8730001 2.141 1
10.434 -5.8660002 2.0799999 1
10.079 -5.868 2.098 1
10.449 -5.868 2.0899999 1
10.087 -5.868 2.1010001 1
10.297 -5.868 2.099 1
10.313 -5.8670001 2.0869999 1
10.396 -5.868 2.096 1
10.456 -5.8730001 2.1400001 1
10.471 -5.868 2.0899999 1
10.185 -5.8670001 2.0910001 1
10.213 -5.8699999 2.1129999 1
10.331 -5.868 2.0940001 1
10.291 -5.8709998 2.125 1
10.331 -5.869 2.1070001 1
10.462 -5.8670001 2.085 1
10.234 -5.8699999 2.1159999 1
10.427 -5.869 2.0999999 1
10.218 -5.8709998 2.1210001 1
10.487 -5.868 2.098 1
10.361 -5.8709998 2.125 1
10.371 -5.869 2.1070001 1
10.293 -5.8670001 2.0829999 1
10.386 -5.8699999 2.1110001 1
10.176 -5.8670001 2.0899999 1
10.405 -5.8709998 2.1270001 1
10.242 -5.8670001 2.089 1
10.391 -5.8709998 2.118 1
10.232 -5.869 2.1099999 1
10.26 -5.8670001 2.089 1
10.244 -5.868 2.098 1
10.388 -5.868 2.0929999 1
10.436 -5.868 2.098 1
10.351 -5.8720002 2.135 1
10.287 -5.8660002 2.0799999 1
10.415 -5.8670001 2.0840001 1
10.209 -5.868 2.0940001 1
10.279 -5.8699999 2.1170001 1
10.339 -5.8730001 2.1389999 1
10.378 -5.868 2.0999999 1
10.224 -5.868 2.0940001 1
10.101 -5.868 2.098 1
10.529 -5.8660002 2.075 1
10.42 -5.8740001 2.1500001 1
10.484 -5.8699999 2.109 1
10.38 -5.8699999 2.1159999 1
10.26 -5.8709998 2.1270001 1
10.458 -5.868 2.095 1
10.132 -5.8670001 2.0899999 1
10.355 -5.8699999 2.118 1
10.366 -5.8670001 2.086 1
10.217 -5.8660002 1.8430001 1
10.249 -5.8660002 2.0050001 1
10.226 -5.8660002 1.904 1
10.223 -5.8660002 2.04 1
10.191 -5.8660002 1.985 1
10.057 -5.8670001 2.0840001 1
10.032 -5.8670001 2.0780001 1
10.259 -5.8660002 2.0569999 1
10.136 -5.8660002 2.04 1
10.141 -5.8660002 1.974 1
10.254 -5.8660002 1.988 1
10.099 -5.8670001 2.039 1
10.218 -5.8660002 1.8200001 1
10.202 -5.8660002 1.848 1
10.186 -5.8660002 1.984 1
10.108 -5.8670001 2.066 1
10.264 -5.8660002 1.7640001 1
10.2 -5.8660002 1.806 1
10.395 -5.8660002 2.006 1
10.169 -5.8660002 2.0209999 1
10.317 -5.8660002 1.88 1
10.25 -5.8660002 1.951 1
10.213 -5.8660002 1.857 1
10.286 -5.8660002 1.99 1
10.22 -5.8660002 1.777 1
10.149 -5.8660002 1.931 1
10.197 -5.8660002 1.8839999 1
10.212 -5.8660002 1.845 1
10.16 -5.8660002 1.932 1
10.228 -5.8660002 1.873 1
10.511 -5.8649998 2.05 1
10.211 -5.8660002 1.834 1
10.436 -5.8649998 2.0139999 1
10.327 -5.8660002 1.972 1
10.229 -5.8660002 2.0190001 1
10.242 -5.8660002 1.9349999 1
10.269 -5.8660002 1.926 1
10.346 -5.8660002 1.97 1
10.187 -5.8660002 2.079 1
10.368 -5.8660002 1.9809999 1
10.311 -5.8660002 1.9910001 1
10.46 -5.8649998 2.0209999 1
10.434 -5.8649998 2.0050001 1
10.29 -5.8660002 1.951 1
10.514 -5.8649998 2.036 1
10.356 -5.8660002 1.9809999 1
10.204 -5.8660002 1.994 1
10.09 -5.8670001 2.062 1
10.375 -5.8660002 2.03 1
10.319 -5.8660002 1.956 1
10.051 -5.8670001 2.0439999 1
10.205 -5.8660002 1.836 1
10.261 -5.8660002 1.824 1
10.367 -5.8660002 2.0510001 1
10.384 -5.8660002 2.0179999 1
10.176 -5.8660002 1.949 1
10.232 -5.8660002 2.0439999 1
10.193 -5.8660002 2.0780001 1
10.423 -5.8649998 2.0009999 1
10.154 -5.8660002 1.977 1
10.095 -5.8670001 2.0120001 1
10.197 -5.8660002 1.794 1
10.257 -5.8660002 1.939 1
10.436 -5.8649998 2.0580001 1
10.372 -5.8660002 2.0539999 1
10.439 -5.8649998 1.9579999 1
10.176 -5.8660002 1.921 1
10.348 -5.8660002 2.052 1
10.311 -5.8660002 1.8660001 1
10.158 -5.8660002 2.0650001 1
10.23 -5.8660002 2.013 1
10.239 -5.8660002 2.0320001 1
10.065 -5.8670001 2.0179999 1
10.082 -5.8670001 2.0469999 1
10.49 -5.8649998 2.007 1
10.467 -5.8649998 2.056 1
10.325 -5.8660002 1.85 1
10.167 -5.8660002 2.059 1
10.295 -5.8660002 1.9349999 1
10.527 -5.8649998 2.052 1
10.231 -5.8660002 1.9299999 1
10.401 -5.8660002 2.0320001 1
10.152 -5.8660002 1.9859999 1
10.293 -5.8660002 1.972 1
10.232 -5.8660002 1.947 1
10.288 -5.8660002 2.05 1
10.39 -5.8660002 2.01 1
10.153 -5.8660002 1.859 1
10.327 -5.8660002 1.854 1
10.396 -5.8660002 2.003 1
10.204 -5.8660002 2.05 1
10.184 -5.8660002 1.909 1
10.094 -5.8670001 2.076 1
10.298 -5.8660002 1.955 1
10.185 -5.8660002 1.924 1
10.341 -5.8660002 2.029 1
10.298 -5.8660002 2.069 1
10.238 -5.8660002 1.9450001 1
10.259 -5.8660002 1.967 1
10.414 -5.8649998 2.0190001 1
10.238 -5.8660002 1.789 1
10.361 -5.8660002 1.897 1
10.104 -5.8670001 1.987 1
10.301 -5.8660002 1.926 1
10.191 -5.8660002 1.89 1
10.265 -5.8660002 2.0190001 1
10.398 -5.8660002 2.007 1
10.268 -5.8660002 1.85 1
10.215 -5.8660002 1.784 1
10.201 -5.8660002 1.796 1
10.327 -5.8660002 2.0710001 1
10.205 -5.8660002 2.0510001 1
10.245 -5.8660002 2.0420001 1
10.261 -5.8660002 2.0380001 1
10.257 -5.8660002 1.891 1
10.311 -5.8660002 1.868 1
10.168 -5.8660002 1.905 1
10.153 -5.8660002 1.961 1
10.204 -5.8660002 1.8430001 1
10.311 -5.8660002 1.89 1
10.443 -5.8649998 2.0239999 1
10.078 -5.8670001 2.086 1
10.192 -5.8660002 2.03 1
10.036 -5.8670001 2.0569999 1
10.237 -5.8660002 1.942 1
10.129 -5.8670001 2.079 1
10.331 -5.8660002 2.043 1
10.145 -5.8660002 1.946 1
10.211 -5.8660002 1.847 1
10.199 -5.8660002 1.796 1
10.265 -5.8660002 2.013 1
10.336 -5.8660002 1.984 1
10.382 -5.8660002 1.977 1
10.313 -5.8660002 1.83 1
10.33 -5.8660002 1.89 1
10.312 -5.8660002 1.801 1
10.243 -5.8660002 2.0079999 1
10.256 -5.8660002 1.947 1
10.161 -5.8660002 2.073 1
10.053 -5.8670001 2.0639999 1
10.308 -5.8660002 1.857 1
10.404 -5.8649998 1.944 1
10.135 -5.8670001 2.0680001 1
10.263 -5.8660002 1.826 1
10.466 -5.8649998 1.992 1
10.069 -5.8670001 2.0220001 1
10.048 -5.8670001 2.082 1
10.257 -5.8660002 1.859 1
10.381 -5.8660002 2.053 1
10.282 -5.8660002 1.816 1
10.37 -5.8660002 1.948 1
10.086 -5.8670001 2.017 1
10.132 -5.8670001 2.066 1
10.496 -5.8649998 2.043 1
10.299 -5.8660002 1.818 1
10.472 -5.8649998 2.007 1
10.466 -5.8649998 2.0280001 1
10.266 -5.8660002 1.804 1
10.455 -5.8649998 2.0420001 1
10.225 -5.8660002 1.8890001 1
10.297 -5.8660002 1.906 1
10.095 -5.8670001 2.0810001 1
10.329 -5.8660002 1.91 1
10.42 -5.8649998 2.0369999 1
10.116 -5.8660002 1.924 1
10.1 -5.8670001 1.969 1
10.193 -5.8660002 1.885 1
10.218 -5.8660002 1.9910001 1
10.522 -5.8649998 2.05 1
10.361 -5.8660002 1.942 1
10.391 -5.8649998 1.91 1
10.146 -5.8660002 2.0810001 1
10.283 -5.8660002 1.8099999 1
10.386 -5.8660002 1.979 1
10.36 -5.8660002 2.0599999 1
10.253 -5.8660002 2.0090001 1
10.373 -5.8660002 2.0669999 1
10.292 -5.8660002 1.803 1
10.366 -5.8660002 1.859 1
10.383 -5.8660002 2.0339999 1
10.413 -5.8649998 2.0669999 1
10.126 -5.8660002 1.959 1
10.485 -5.8649998 2.027 1
10.403 -5.8649998 2.0020001 1
10.167 -5.8660002 2.013 1
10.511 -5.8649998 2.0569999 1
10.196 -5.8660002 1.906 1
10.366 -5.8660002 1.944 1
10.241 -5.8660002 1.901 1
10.298 -5.8660002 1.863 1
10.25 -5.8660002 2.023 1
10.124 -5.8670001 2.043 1
10.167 -5.8660002 1.9630001 1
10.27 -5.8660002 2.0469999 1
10.423 -5.8649998 2.0610001 1
10.228 -5.8660002 1.74 1
10.265 -5.8660002 1.761 1
10.258 -5.8660002 2.033 1
10.298 -5.8660002 1.99 1
10.434 -5.8649998 2.006 1
10.292 -5.8660002 1.812 1
10.177 -5.8660002 1.971 1
10.272 -5.8660002 2.0450001 1
10.133 -5.8670001 2.082 1
10.364 -5.8660002 2.0639999 1
10.355 -5.8660002 1.8940001 1
10.296 -5.8660002 1.901 1
10.373 -5.8660002 1.921 1
10.323 -5.8660002 1.9119999 1
10.151 -5.8660002 2.066 1
10.414 -5.8649998 1.942 1
10.434 -5.8649998 1.955 1
10.395 -5.8660002 1.984 1
10.044 -5.8670001 2.0420001 1
10.393 -5.8649998 1.9400001 1
10.301 -5.8660002 1.872 1
10.328 -5.8660002 2.0179999 1
10.398 -5.8649998 1.973 1
10.219 -5.8660002 1.9400001 1
10.279 -5.8660002 2.033 1
10.362 -5.8660002 1.928 1
10.095 -5.8670001 2.0380001 1
10.19 -5.8660002 2.052 1
10.34 -5.8660002 1.914 1
10.266 -5.8660002 2.017 1
10.409 -5.8649998 1.979 1
10.227 -5.8660002 2.0150001 1
10.101 -5.8670001 2 1
10.305 -5.8660002 1.934 1
10.069 -5.8670001 2.0450001 1
10.141 -5.8660002 1.9630001 1
10.408 -5.8649998 1.915 1
10.185 -5.8660002 2.0139999 1
10.385 -5.8660002 1.9680001 1
10.221 -5.8660002 1.995 1
10.113 -5.8670001 2.016 1
10.434 -5.8649998 2.049 1
10.382 -5.8660002 1.977 1
10.258 -5.8660002 1.796 1
10.375 -5.8660002 2.039 1
10.222 -5.8660002 1.948 1
10.151 -5.8660002 1.902 1
10.187 -5.8660002 1.998 1
10.525 -5.8649998 2.056 1
10.286 -5.8660002 1.85 1
10.287 -5.8660002 1.906 1
10.19 -5.8660002 2.0179999 1
10.25 -5.8660002 1.915 1
10.05 -5.8670001 2.0280001 1
10.293 -5.8660002 1.8940001 1
10.339 -5.8660002 1.983 1
10.08 -5.8670001 2.016 1
10.234 -5.8660002 1.752 1
10.23 -5.8660002 2.0050001 1
10.053 -5.8670001 2.0780001 1
10.369 -5.8660002 1.997 1
10.239 -5.8660002 2.007 1
10.204 -5.8660002 1.778 1
10.303 -5.8660002 1.984 1
10.311 -5.8660002 1.844 1
10.288 -5.8660002 1.799 1
10.218 -5.8660002 2.0510001 1
10.456 -5.8649998 2.0280001 1
10.113 -5.8660002 1.926 1
10.236 -5.8660002 1.795 1
10.173 -5.8660002 1.887 1
10.17 -5.8660002 1.876 1
10.158 -5.8660002 2.023 1
10.328 -5.8660002 1.874 1
10.315 -5.8660002 2.0699999 1
10.45 -5.8649998 1.9579999 1
10.321 -5.8660002 1.9220001 1
10.472 -5.8649998 2.027 1
10.275 -5.8660002 1.848 1
10.168 -5.8660002 2.0810001 1
10.164 -5.8660002 1.941 1
10.334 -5.8660002 1.849 1
10.233 -5.8660002 1.729 1
10.233 -5.8660002 1.823 1
10.068 -5.8670001 2.0369999 1
10.315 -5.8660002 1.949 1
10.231 -5.8660002 1.88 1
10.324 -5.8660002 2.0739999 1
10.31 -5.8660002 2.052 1
10.382 -5.8660002 1.927 1
10.284 -5.8660002 1.932 1
10.161 -5.8660002 1.973 1
10.397 -5.8649998 1.946 1
10.317 -5.8660002 2.053 1
10.268 -5.8660002 1.875 1
10.193 -5.8660002 1.886 1
10.266 -5.8660002 1.9069999 1
10.424 -5.8649998 2.017 1
10.202 -5.8660002 2.0599999 1
10.204 -5.8660002 1.928 1
10.118 -5.8670001 2.0799999 1
10.341 -5.8660002 1.882 1
10.113 -5.8670001 1.947 1
10.382 -5.8660002 1.993 1
10.279 -5.8660002 1.808 1
10.408 -5.8649998 2.0280001 1
10.096 -5.8670001 1.988 1
10.366 -5.8660002 2.0139999 1
10.276 -5.8660002 1.933 1
10.196 -5.8660002 1.915 1
10.303 -5.8660002 2.0380001 1
10.424 -5.8649998 1.969 1
10.418 -5.8649998 1.9579999 1
10.422 -5.8649998 1.997 1
10.324 -5.8660002 1.9910001 1
10.358 -5.8660002 1.877 1
10.16 -5.8660002 1.926 1
10.178 -5.8660002 2.0439999 1
10.116 -5.8670001 1.978 1
10.298 -5.8660002 1.794 1
10.309 -5.8660002 1.855 1
10.513 -5.8649998 2.0550001 1
10.339 -5.8660002 2.052 1
10.481 -5.8649998 2.0179999 1
10.265 -5.8660002 1.959 1
10.374 -5.8660002 2.052 1
10.162 -5.8660002 1.967 1
10.366 -5.8660002 1.885 1
10.25 -5.8660002 1.886 1
10.359 -5.8660002 2.059 1
10.167 -5.8660002 2.013 1
10.357 -5.8660002 1.869 1
10.331 -5.8660002 2.0369999 1
10.3 -5.8660002 2.0020001 1
10.106 -5.8670001 1.941 1
10.245 -5.8660002 2.0739999 1
10.44 -5.8649998 1.96 1
10.034 -5.8670001 2.0639999 1
10.14 -5.8660002 2.0669999 1
10.255 -5.8660002 1.806 1
10.277 -5.8660002 1.896 1
10.38 -5.8660002 2.0639999 1
10.352 -5.8660002 1.881 1
10.152 -5.8660002 1.976 1
10.276 -5.8660002 1.825 1
10.176 -5.8660002 1.825 1
10.301 -5.8660002 2.075 1
10.158 -5.8660002 1.936 1
10.36 -5.8660002 1.882 1
10.509 -5.8649998 2.036 1
10.222 -5.8660002 1.757 1
10.183 -5.8660002 2.0699999 1
10.171 -5.8660002 1.937 1
10.085 -5.8670001 2.046 1
10.21 -5.8660002 1.9400001 1
10.484 -5.8649998 1.9960001 1
10.271 -5.8660002 2.027 1
10.268 -5.8660002 1.762 1
10.478 -5.8649998 2.059 1
10.376 -5.8660002 1.9809999 1
10.119 -5.8670001 2.0109999 1
10.38 -5.8649998 1.897 1
10.294 -5.8660002 2.073 1
10.287 -5.8660002 1.888 1
10.339 -5.8660002 1.89 1
10.223 -5.8660002 1.962 1
10.092 -5.8670001 2.059 1
10.1 -5.8670001 2.0610001 1
10.161 -5.8660002 2.073 1
10.303 -5.8660002 1.937 1
10.367 -5.8660002 1.899 1
10.202 -5.8660002 1.92 1
10.316 -5.8660002 1.901 1
10.134 -5.8670001 2.0550001 1
10.15 -5.8660002 1.928 1
10.256 -5.8660002 2.049 1
10.183 -5.8660002 1.8710001 1
10.225 -5.8660002 1.848 1
10.195 -5.8660002 2.0320001 1
10.356 -5.8660002 1.9170001 1
10.169 -5.8660002 2.0150001 1
10.334 -5.8660002 2.0179999 1
10.296 -5.8660002 1.9069999 1
10.249 -5.8660002 2.0539999 1
10.334 -5.8660002 1.906 1
10.279 -5.8660002 1.8329999 1
10.459 -5.8649998 2.05 1
10.129 -5.8670001 2.017 1
10.136 -5.8660002 2 1
10.361 -5.8660002 1.9859999 1
10.089 -5.8670001 2.0139999 1
10.34 -5.8660002 2.0469999 1
10.342 -5.8660002 1.994 1
10.207 -5.8660002 1.8430001 1
10.079 -5.8670001 2.03 1
10.31 -5.8660002 1.976 1
10.202 -5.8660002 1.971 1
10.243 -5.8660002 1.95 1
10.217 -5.8660002 1.896 1
10.372 -5.8660002 1.915 1
10.417 -5.8649998 2.0409999 1
10.184 -5.8660002 1.875 1
10.275 -5.8660002 2.007 1
10.146 -5.8660002 1.964 1
10.121 -5.8670001 2.059 1
10.254 -5.8660002 1.9400001 1
10.416 -5.8649998 1.999 1
10.169 -5.8660002 1.951 1
10.366 -5.8660002 2.0680001 1
10.173 -5.8660002 2.0369999 1
10.2 -5.8660002 1.957 1
10.211 -5.8660002 1.948 1
10.464 -5.8649998 2.017 1
10.343 -5.8660002 1.919 1
10.227 -5.8660002 2.013 1
10.246 -5.8660002 1.893 1
10.198 -5.8660002 1.891 1
10.11 -5.8670001 1.997 1
10.264 -5.8660002 1.8 1
10.31 -5.8660002 1.951 1
10.305 -5.8660002 2.02 1
10.242 -5.8660002 1.8329999 1
10.365 -5.8660002 1.925 1
10.288 -5.8660002 1.95 1
10.168 -5.8660002 1.8940001 1
10.371 -5.8660002 2.026 1
10.226 -5.8660002 1.7819999 1
10.27 -5.8660002 2.0650001 1
10.248 -5.8660002 1.795 1
10.14 -5.8660002 1.98 1
10.374 -5.8660002 2.0680001 1
10.205 -5.8660002 2.0050001 1
10.307 -5.8660002 1.862 1
10.163 -5.8660002 1.961 1
10.418 -5.8649998 2.023 1
10.161 -5.8660002 1.982 1
10.24 -5.8660002 1.881 1
10.424 -5.8649998 2.0409999 1
10.033 -5.8670001 2.073 1
10.328 -5.8660002 1.931 1
10.424 -5.8649998 2.0650001 1
10.194 -5.8660002 1.898 1
10.433 -5.8649998 2.04 1
10.245 -5.8660002 1.8279999 1
10.23 -5.8660002 2.003 1
10.208 -5.8660002 2.03 1
10.32 -5.8660002 1.942 1
10.22 -5.8660002 1.979 1
10.173 -5.8660002 2.0550001 1
10.299 -5.8660002 1.896 1
10.312 -5.8660002 1.983 1
10.06 -5.8670001 2.0150001 1
10.165 -5.8660002 1.867 1
10.33 -5.8660002 1.87 1
10.13 -5.8660002 1.976 1
10.236 -5.8660002 1.808 1
10.252 -5.8660002 1.763 1
10.335 -5.8660002 1.823 1
10.176 -5.8660002 1.857 1
10.249 -5.8660002 2.0480001 1
10.187 -5.8660002 1.999 1
10.156 -5.8660002 1.86 1
10.18 -5.8660002 2.0190001 1
10.215 -5.8660002 1.9170001 1
10.199 -5.8660002 1.936 1
10.36 -5.8660002 2.04 1
10.154 -5.8660002 2.03 1
10.147 -5.8660002 1.932 1
10.448 -5.8649998 2.007 1
10.164 -5.8660002 1.965 1
10.154 -5.8660002 1.886 1
10.249 -5.8660002 1.9579999 1
10.349 -5.8660002 1.85 1
10.088 -5.8670001 2.062 1
10.244 -5.8660002 1.745 1
10.181 -5.8660002 1.8200001 1
10.261 -5.8660002 1.9 1
10.233 -5.8660002 1.857 1
10.525 -5.8649998 2.062 1
10.209 -5.8660002 2.075 1
10.361 -5.8660002 1.857 1
10.316 -5.8660002 1.9680001 1
10.144 -5.8660002 1.92 1
10.292 -5.8660002 2.0680001 1
10.134 -5.8660002 1.96 1
10.254 -5.8660002 2.0039999 1
10.185 -5.8660002 1.865 1
10.288 -5.8660002 1.813 1
10.389 -5.8649998 1.939 1
10.279 -5.8660002 1.827 1
10.153 -5.8660002 1.911 1
10.331 -5.8660002 1.932 1
10.354 -5.8660002 1.926 1
10.272 -5.8660002 1.971 1
10.228 -5.8660002 2.072 1
10.115 -5.8670001 2.0120001 1
10.268 -5.8660002 1.7970001 1
10.335 -5.8660002 2.069 1
10.494 -5.8649998 2.0150001 1
10.109 -5.8670001 1.975 1
10.129 -5.8670001 2.0220001 1
10.205 -5.8660002 2.0309999 1
10.365 -5.8660002 1.969 1
10.27 -5.8660002 1.752 1
10.156 -5.8660002 2.03 1
10.445 -5.8649998 1.974 1
10.244 -5.8660002 1.983 1
10.421 -5.8649998 1.9960001 1
10.201 -5.8660002 1.834 1
10.289 -5.8660002 1.869 1
10.404 -5.8649998 1.982 1
10.344 -5.8660002 1.836 1
10.221 -5.8660002 1.881 1
10.403 -5.8660002 2.0610001 1
10.443 -5.8649998 2.0539999 1
10.321 -5.8660002 1.904 1
10.168 -5.8660002 1.885 1
10.26 -5.8660002 1.744 1
10.21 -5.8660002 1.789 1
10.511 -5.8649998 2.0339999 1
10.099 -5.8670001 1.989 1
10.451 -5.8649998 1.97 1
10.128 -5.8670001 2.0220001 1
10.322 -5.8660002 1.811 1
10.205 -5.8660002 1.802 1
10.197 -5.8660002 1.819 1
10.514 -5.8649998 2.043 1
10.109 -5.8670001 2.0409999 1
10.373 -5.8660002 1.9 1
10.304 -5.8660002 1.824 1
10.091 -5.8670001 1.998 1
10.229 -5.8660002 1.755 1
10.172 -5.8660002 1.901 1
10.277 -5.8660002 1.847 1
10.27 -5.8660002 2.02 1
10.297 -5.8660002 1.899 1
10.359 -5.8660002 1.915 1
10.414 -5.8649998 2.056 1
10.145 -5.8660002 1.9069999 1
10.232 -5.8660002 1.796 1
10.177 -5.8660002 1.899 1
10.519 -5.8649998 2.0539999 1
10.045 -5.8670001 2.05 1
10.203 -5.8660002 2.0650001 1
10.377 -5.8660002 1.923 1
10.414 -5.8649998 1.985 1
10.131 -5.8660002 1.928 1
10.419 -5.8649998 2.0009999 1
10.317 -5.8660002 1.9069999 1
10.369 -5.8660002 1.903 1
10.273 -5.8660002 1.8099999 1
10.234 -5.8660002 2.069 1
10.293 -5.8660002 1.846 1
10.245 -5.8660002 1.857 1
10.368 -5.8660002 1.895 1
10.486 -5.8649998 2.053 1
10.058 -5.8670001 2.076 1
10.181 -5.8660002 2.013 1
10.314 -5.8660002 1.86 1
10.262 -5.8660002 1.998 1
10.033 -5.8670001 2.075 1
10.11 -5.8670001 2.0409999 1
10.057 -5.8670001 2.0280001 1
10.259 -5.8660002 1.829 1
10.137 -5.8660002 1.897 1
10.302 -5.8660002 1.812 1
10.202 -5.8660002 1.959 1
10.404 -5.8660002 2.0710001 1
10.262 -5.8660002 1.966 1
10.312 -5.8660002 2.0309999 1
10.115 -5.8670001 2 1
10.191 -5.8660002 1.9859999 1
10.271 -5.8660002 2.0650001 1
10.215 -5.8660002 1.821 1
10.293 -5.8660002 2.0190001 1
10.253 -5.8660002 1.973 1
10.216 -5.8660002 1.865 1
10.275 -5.8660002 1.947 1
10.147 -5.8660002 2.0250001 1
10.114 -5.8670001 1.9400001 1
10.224 -5.8660002 1.96 1
10.235 -5.8660002 1.76 1
10.507 -5.8649998 2.0610001 1
10.09 -5.8670001 1.982 1
10.306 -5.8660002 1.942 1
10.368 -5.8660002 1.988 1
10.229 -5.8660002 1.819 1
10.243 -5.8660002 1.851 1
10.486 -5.8649998 2.007 1
10.1 -5.8670001 1.997 1
10.186 -5.8660002 1.8329999 1
10.126 -5.8660002 1.9859999 1
10.166 -5.8660002 2.05 1
10.337 -5.8660002 2.062 1
10.304 -5.8660002 1.911 1
10.281 -5.8660002 1.822 1
10.256 -5.8660002 1.758 1
10.373 -5.8660002 1.904 1
10.2 -5.8660002 2.0009999 1
10.272 -5.8660002 2.05 1
10.031 -5.8670001 2.059 1
10.221 -5.8660002 1.957 1
10.132 -5.8660002 1.976 1
10.019 -5.8670001 2.079 1
10.448 -5.8649998 2.03 1
10.087 -5.8670001 2.0209999 1
10.098 -5.8670001 1.957 1
10.319 -5.8660002 1.899 1
10.435 -5.8649998 1.944 1
10.397 -5.8649998 1.91 1
10.109 -5.8670001 2.075 1
10.127 -5.8670001 2.039 1
10.37 -5.8660002 2.059 1
10.091 -5.8670001 1.965 1
10.237 -5.8660002 1.788 1
10.114 -5.8670001 2.0550001 1
10.318 -5.8660002 1.926 1
10.132 -5.8660002 2.0239999 1
10.191 -5.8660002 1.954 1
10.112 -5.8670001 1.944 1
10.272 -5.8660002 1.801 1
10.357 -5.8660002 1.989 1
10.327 -5.8660002 1.848 1
10.121 -5.8660002 1.928 1
10.208 -5.8660002 1.878 1
10.172 -5.8660002 1.87 1
10.132 -5.8660002 1.921 1
10.421 -5.8649998 1.985 1
10.149 -5.8660002 1.9400001 1
10.269 -5.8660002 1.881 1
10.218 -5.8660002 1.793 1
10.233 -5.8660002 1.869 1
10.222 -5.8660002 1.862 1
10.388 -5.8660002 1.989 1
10.422 -5.8649998 2.0680001 1
10.135 -5.8660002 2.0380001 1
10.242 -5.8660002 1.999 1
10.366 -5.8660002 1.903 1
10.477 -5.8649998 2.062 1
10.427 -5.8649998 1.947 1
10.327 -5.8660002 1.845 1
10.157 -5.8660002 1.925 1
10.197 -5.8660002 1.979 1
10.325 -5.8660002 2.0250001 1
10.167 -5.8660002 1.965 1
10.148 -5.8660002 2.023 1
10.1 -5.8670001 1.974 1
10.355 -5.8660002 2.02 1
10.243 -5.8660002 1.7539999 1
10.159 -5.8660002 1.966 1
10.211 -5.8660002 2.0539999 1
10.208 -5.8660002 2.075 1
10.378 -5.8660002 2.0420001 1
10.33 -5.8660002 1.915 1
10.368 -5.8660002 1.993 1
10.202 -5.8660002 2.0120001 1
10.237 -5.8660002 1.722 1
10.294 -5.8660002 1.842 1
10.289 -5.8660002 1.78 1
10.434 -5.8649998 2.0250001 1
10.415 -5.8649998 1.964 1
10.249 -5.8660002 1.864 1
10.299 -5.8660002 1.983 1
10.293 -5.8660002 1.96 1
10.378 -5.8660002 1.979 1
10.358 -5.8660002 1.867 1
10.308 -5.8660002 2.049 1
10.433 -5.8649998 2.0469999 1
10.241 -5.8660002 1.847 1
10.092 -5.8670001 2.046 1
10.231 -5.8660002 1.8890001 1
10.281 -5.8660002 1.992 1
10.475 -5.8649998 2.062 1
10.22 -5.8660002 2.072 1
10.152 -5.8660002 2.039 1
10.301 -5.8660002 1.979 1
10.199 -5.8660002 1.961 1
10.27 -5.8660002 1.7819999 1
10.249 -5.8660002 2.073 1
10.328 -5.8660002 1.997 1
10.229 -5.8660002 1.739 1
10.262 -5.8660002 1.7970001 1
10.174 -5.8660002 2.059 1
10.308 -5.8660002 2.053 1
10.307 -5.8660002 1.806 1
10.444 -5.8649998 1.95 1
10.076 -5.8670001 2.039 1
10.216 -5.8660002 1.956 1
10.251 -5.8660002 1.9450001 1
10.313 -5.8660002 2.0020001 1
10.27 -5.8660002 1.9069999 1
10.172 -5.8660002 1.855 1
10.304 -5.8660002 1.9680001 1
10.372 -5.8660002 1.9529999 1
10.282 -5.8660002 1.9400001 1
10.41 -5.8649998 2.0599999 1
10.237 -5.8660002 2.0639999 1
10.143 -5.8660002 2.062 1
10.105 -5.8670001 2.036 1
10.417 -5.8649998 1.9220001 1
10.407 -5.8649998 2.0350001 1
10.337 -5.8660002 2.0339999 1
10.2 -5.8660002 1.933 1
10.336 -5.8660002 1.966 1
10.146 -5.8660002 1.892 1
10.139 -5.8660002 1.999 1
10.275 -5.8660002 2.0480001 1
10.377 -5.8660002 1.931 1
10.254 -5.8660002 1.733 1
10.304 -5.8660002 2.0680001 1
10.324 -5.8660002 2.056 1
10.35 -5.8660002 2.062 1
10.173 -5.8660002 1.949 1
10.266 -5.8660002 2.0250001 1
10.161 -5.8660002 1.906 1
10.068 -5.8670001 1.999 1
10.324 -5.8660002 2.0339999 1
10.252 -5.8660002 1.86 1
10.417 -5.8649998 1.934 1
10.145 -5.8660002 2.043 1
10.257 -5.8660002 2.0409999 1
10.404 -5.8649998 1.988 1
10.293 -5.8660002 1.918 1
10.21 -5.8660002 2.063 1
10.464 -5.8649998 2.062 1
10.311 -5.8660002 1.903 1
10.063 -5.8670001 2.0090001 1
10.394 -5.8660002 2.0280001 1
10.175 -5.8660002 1.974 1
10.152 -5.8660002 1.975 1
10.23 -5.8660002 2.0150001 1
10.163 -5.8660002 2.0699999 1
10.256 -5.8660002 1.851 1
10.315 -5.8660002 1.853 1
10.273 -5.8660002 1.796 1
10.337 -5.8660002 1.934 1
10.177 -5.8660002 1.87 1
10.193 -5.8660002 1.967 1
10.384 -5.8660002 2.003 1
10.184 -5.8660002 1.901 1
10.193 -5.8660002 1.932 1
10.23 -5.8660002 1.882 1
10.223 -5.8660002 1.926 1
10.279 -5.8660002 1.929 1
10.07 -5.8670001 2.0090001 1
10.5 -5.8649998 2.0320001 1
10.21 -5.8660002 1.975 1
10.446 -5.8649998 1.979 1
10.352 -5.8660002 1.883 1
10.247 -5.8660002 2.0020001 1
10.233 -5.8660002 2.059 1
10.273 -5.8660002 1.822 1
10.477 -5.8649998 2.0039999 1
10.397 -5.8660002 2.0250001 1
10.313 -5.8660002 1.936 1
10.216 -5.8660002 1.8329999 1
10.17 -5.8660002 1.844 1
10.26 -5.8660002 2.0739999 1
10.518 -5.8649998 2.066 1
10.2 -5.8660002 1.811 1
10.285 -5.8660002 1.943 1
10.144 -5.8660002 1.876 1
10.488 -5.8649998 2.0309999 1
10.259 -5.8660002 1.881 1
10.217 -5.8660002 1.9680001 1
10.237 -5.8660002 1.749 1
10.162 -5.8660002 2.007 1
10.137 -5.8660002 1.9450001 1
10.112 -5.8670001 2.0469999 1
10.28 -5.8660002 1.887 1
10.25 -5.8660002 1.949 1
10.349 -5.8660002 2.056 1
10.334 -5.8660002 1.852 1
10.333 -5.8660002 1.893 1
10.36 -5.8660002 1.8890001 1
10.27 -5.8660002 1.8 1
10.226 -5.8660002 1.7690001 1
10.237 -5.8660002 1.835 1
10.058 -5.8670001 2.016 1
10.128 -5.8660002 1.9119999 1
10.406 -5.8649998 1.965 1
10.318 -5.8660002 1.87 1
10.209 -5.8660002 2.027 1
10.181 -5.8660002 1.842 1
10.493 -5.8649998 2.059 1
10.267 -5.8660002 1.9349999 1
10.396 -5.8649998 1.9680001 1
10.182 -5.8660002 1.897 1
10.259 -5.8660002 1.949 1
10.281 -5.8660002 2.072 1
10.208 -5.8660002 1.779 1
10.158 -5.8660002 2.0320001 1
10.129 -5.8660002 1.936 1
10.085 -5.8670001 1.974 1
10.416 -5.8649998 1.999 1
10.047 -5.8670001 2.056 1
10.297 -5.8660002 1.86 1
10.205 -5.8660002 1.868 1
10.367 -5.8660002 2.0710001 1
10.26 -5.8660002 1.965 1
10.114 -5.8670001 2.0469999 1
10.344 -5.8660002 2.003 1
10.269 -5.8660002 1.854 1
10.408 -5.8649998 2.0469999 1
10.081 -5.8670001 2.006 1
10.268 -5.8660002 2.0120001 1
10.106 -5.8670001 1.993 1
10.451 -5.8649998 1.998 1
10.183 -5.8660002 1.9299999 1
10.292 -5.8660002 1.8329999 1
10.126 -5.8670001 2.0840001 1
10.319 -5.8660002 1.808 1
10.399 -5.8649998 1.975 1
10.514 -5.8649998 2.0450001 1
10.144 -5.8660002 2.0239999 1
10.31 -5.8660002 1.949 1
10.412 -5.8649998 1.9630001 1
10.112 -5.8670001 1.957 1
10.334 -5.8660002 1.897 1
10.261 -5.8660002 1.798 1
10.164 -5.8660002 1.897 1
10.504 -5.8649998 2.0480001 1
10.122 -5.8660002 1.9220001 1
10.161 -5.8660002 1.949 1
10.196 -5.8660002 1.941 1
10.375 -5.8660002 2.0450001 1
10.19 -5.8660002 1.8839999 1
10.238 -5.8660002 1.915 1
10.267 -5.8660002 1.811 1
10.066 -5.8670001 2.0050001 1
10.117 -5.8670001 1.998 1
10.152 -5.8660002 2.016 1
10.339 -5.8660002 1.839 1
10.293 -5.8660002 2.0469999 1
10.407 -5.8649998 1.928 1
10.422 -5.8649998 2.0599999 1
10.445 -5.8649998 2.0409999 1
10.413 -5.8649998 1.923 1
10.17 -5.8660002 1.868 1
10.028 -5.8670001 2.0799999 1
10.422 -5.8649998 2.052 1
10.381 -5.8649998 1.886 1
10.306 -5.8660002 1.914 1
10.169 -5.8660002 1.8660001 1
10.373 -5.8660002 1.964 1
10.279 -5.8660002 1.987 1
10.086 -5.8670001 2.02 1
10.362 -5.8660002 1.9809999 1
10.232 -5.8660002 1.933 1
10.449 -5.8649998 2.062 1
10.113 -5.8670001 2.066 1
10.145 -5.8660002 1.874 1
10.356 -5.8660002 1.969 1
10.146 -5.8660002 1.942 1
10.3 -5.8660002 1.923 1
10.312 -5.8660002 2.053 1
10.28 -5.8660002 1.998 1
10.039 -5.8670001 2.0639999 1
10.176 -5.8660002 1.944 1
10.197 -5.8660002 1.926 1
10.151 -5.8660002 1.972 1
10.299 -5.8660002 1.847 1
10.31 -5.8660002 1.807 1
10.141 -5.8660002 1.955 1
10.318 -5.8660002 1.99 1
10.167 -5.8660002 2.082 1
10.248 -5.8660002 1.964 1
10.447 -5.8649998 1.992 1
10.414 -5.8649998 1.988 1
10.321 -5.8660002 2.0699999 1
10.246 -5.8660002 1.765 1
10.029 -5.8670001 2.0669999 1
10.298 -5.8660002 2.026 1
10.256 -5.8660002 2.0580001 1
10.066 -5.8670001 2.056 1
10.227 -5.8660002 1.8710001 1
10.318 -5.8660002 1.952 1
10.086 -5.8670001 2.013 1
10.358 -5.8660002 2.0209999 1
10.378 -5.8660002 1.98 1
10.368 -5.8660002 2.0550001 1
10.126 -5.8660002 1.937 1
10.296 -5.8660002 1.972 1
10.322 -5.8660002 1.844 1
10.323 -5.8660002 2.053 1
10.357 -5.8660002 2.0369999 1
10.288 -5.8660002 1.834 1
10.052 -5.8670001 2.0769999 1
10.274 -5.8660002 1.895 1
10.163 -5.8660002 1.9529999 1
10.075 -5.8670001 2.0179999 1
10.397 -5.8660002 2.0139999 1
10.499 -5.8649998 2.0409999 1
10.208 -5.8660002 2.04 1
10.202 -5.8660002 1.863 1
10.331 -5.8660002 1.83 1
10.213 -5.8660002 1.83 1
10.202 -5.8660002 1.8329999 1
10.269 -5.8660002 1.899 1
10.336 -5.8660002 1.972 1
10.158 -5.8660002 2.073 1
10.458 -5.8649998 2.052 1
10.299 -5.8660002 2.0150001 1
10.421 -5.8649998 1.984 1
10.234 -5.8660002 1.9170001 1
10.065 -5.8670001 2.0209999 1
10.315 -5.8660002 2.05 1
10.288 -5.8660002 1.895 1
10.284 -5.8660002 1.954 1
10.274 -5.8660002 1.942 1
10.159 -5.8660002 1.951 1
10.5 -5.8649998 2.0190001 1
10.275 -5.8660002 1.9910001 1
10.182 -5.8660002 1.964 1
10.154 -5.8660002 1.873 1
10.288 -5.8660002 1.947 1
10.201 -5.8660002 1.9960001 1
10.375 -5.8660002 1.96 1
10.212 -5.8660002 2.033 1
10.444 -5.8649998 1.978 1
10.308 -5.8660002 2.0409999 1
10.299 -5.8660002 1.9579999 1
10.448 -5.8649998 1.97 1
10.127 -5.8670001 2.036 1
10.225 -5.8660002 1.997 1
10.363 -5.8660002 1.964 1
10.151 -5.8660002 1.948 1
10.238 -5.8660002 1.885 1
10.454 -5.8649998 2.039 1
10.181 -5.8660002 1.951 1
10.255 -5.8660002 2.0039999 1
10.092 -5.8670001 1.965 1
10.177 -5.8660002 1.998 1
10.265 -5.8660002 1.8150001 1
10.377 -5.8660002 1.954 1
10.303 -5.8660002 1.8200001 1
10.216 -5.8660002 1.814 1
10.248 -5.8660002 2.079 1
10.293 -5.8660002 2.01 1
10.417 -5.8649998 2.053 1
10.16 -5.8660002 1.914 1
10.088 -5.8670001 2.05 1
10.35 -5.8660002 2.066 1
10.435 -5.8649998 1.961 1
10.039 -5.8670001 2.082 1
10.279 -5.8660002 1.919 1
10.313 -5.8660002 2.029 1
10.245 -5.8660002 1.962 1
10.288 -5.8660002 1.798 1
10.292 -5.8660002 2.016 1
10.267 -5.8660002 1.892 1
10.389 -5.8660002 2 1
10.316 -5.8660002 1.933 1
10.291 -5.8660002 2.039 1
10.328 -5.8660002 1.989 1
10.246 -5.8660002 1.762 1
10.26 -5.8660002 1.96 1
10.167 -5.8660002 1.877 1
10.099 -5.8670001 2.0209999 1
10.046 -5.8670001 2.086 1
10.221 -5.8660002 1.985 1
10.149 -5.8660002 2.0039999 1
10.055 -5.8670001 2.066 1
10.414 -5.8649998 2.0669999 1
10.424 -5.8649998 2.016 1
10.316 -5.8660002 2.0599999 1
10.19 -5.8660002 2.0510001 1
10.523 -5.8649998 2.066 1
10.213 -5.8660002 1.865 1
10.221 -5.8660002 1.973 1
10.162 -5.8660002 1.86 1
10.196 -5.8660002 1.998 1
10.245 -5.8660002 1.774 1
10.051 -5.8670001 2.062 1
10.364 -5.8660002 1.941 1
10.435 -5.8649998 2.046 1
10.504 -5.8709998 2.2590001 1
10.522 -5.8720002 2.2360001 1
10.424 -5.8699999 2.266 1
10.419 -5.8709998 2.2420001 1
10.485 -5.8740001 2.1860001 1
10.554 -5.8699999 2.277 1
10.467 -5.8730001 2.2 1
10.381 -5.869 2.2650001 1
10.474 -5.8699999 2.276 1
10.519 -5.8709998 2.247 1
10.497 -5.8709998 2.2620001 1
10.553 -5.8709998 2.2620001 1
10.422 -5.8730001 2.194 1
10.409 -5.8709998 2.223 1
10.5 -5.8699999 2.267 1
10.387 -5.8709998 2.224 1
10.477 -5.8730001 2.1960001 1
10.482 -5.8720002 2.2179999 1
10.469 -5.8740001 2.1889999 1
10.339 -5.869 2.267 1
10.449 -5.875 2.1630001 1
10.567 -5.8709998 2.256 1
10.483 -5.8720002 2.2290001 1
10.51 -5.8709998 2.2639999 1
10.527 -5.8720002 2.2360001 1
10.539 -5.8720002 2.2290001 1
10.416 -5.8730001 2.1930001 1
10.422 -5.8699999 2.2479999 1
10.532 -5.8709998 2.2650001 1
10.635 -5.8720002 2.2690001 1
10.587 -5.8720002 2.2409999 1
10.402 -5.869 2.267 1
10.635 -5.8720002 2.2679999 1
10.399 -5.8720002 2.211 1
10.424 -5.8720002 2.2079999 1
10.363 -5.8709998 2.227 1
10.447 -5.875 2.165 1
10.391 -5.8709998 2.227 1
10.485 -5.8720002 2.234 1
10.458 -5.8720002 2.2149999 1
10.438 -5.8709998 2.2320001 1
10.523 -5.8730001 2.2179999 1
10.54 -5.8730001 2.211 1
10.595 -5.8720002 2.2579999 1
10.521 -5.8720002 2.2360001 1
10.392 -5.869 2.277 1
10.381 -5.8720002 2.2149999 1
10.431 -5.869 2.2780001 1
10.349 -5.8699999 2.2479999 1
10.349 -5.8699999 2.243 1
10.445 -5.8720002 2.214 1
10.582 -5.8709998 2.2620001 1
10.464 -5.8699999 2.266 1
10.343 -5.868 2.2739999 1
10.485 -5.8709998 2.2449999 1
10.488 -5.8720002 2.2309999 1
10.504 -5.8720002 2.2360001 1
10.443 -5.8699999 2.27 1
10.45 -5.8730001 2.1949999 1
10.406 -5.869 2.2650001 1
10.508 -5.8720002 2.224 1
10.642 -5.8709998 2.2750001 1
10.485 -5.8730001 2.1989999 1
10.452 -5.8699999 2.26 1
10.328 -5.868 2.2690001 1
10.35 -5.8699999 2.2479999 1
10.549 -5.8720002 2.2349999 1
10.552 -5.8720002 2.2390001 1
10.543 -5.8720002 2.2390001 1
10.433 -5.8740001 2.178 1
10.639 -5.8709998 2.2739999 1
10.441 -5.869 2.277 1
10.416 -5.8709998 2.243 1
10.316 -5.868 2.2780001 1
10.381 -5.8720002 2.2079999 1
10.459 -5.8740001 2.184 1
10.356 -5.8699999 2.2309999 1
10.483 -5.8720002 2.2279999 1
10.529 -5.8730001 2.2130001 1
