# .PCD v0.7 - Point Cloud Data file format
VERSION 0.7
FIELDS x y z label
SIZE 4 4 4 4
TYPE F F F U
COUNT 1 1 1 1
WIDTH 1501
HEIGHT 1
VIEWPOINT 0 0 0 1 0 0 0
POINTS 1501
DATA ascii
8.6789999 -8.4300003 2.7219999 1
8.9799995 -8.4300003 2.9030001 1
8.8979998 -8.4300003 2.72 1
8.9659996 -8.4300003 2.7720001 1
8.9910002 -8.4300003 2.8970001 1
8.9619999 -8.4300003 2.7869999 1
9.0150003 -8.4300003 2.799 1
9.0220003 -8.4300003 2.7030001 1
8.948 -8.4300003 2.7750001 1
8.8710003 -8.4300003 2.799 1
8.8699999 -8.4300003 2.743 1
9.0179996 -8.4300003 2.766 1
8.783 -8.4300003 2.7950001 1
8.967 -8.4300003 2.809 1
8.7659998 -8.4300003 2.7260001 1
8.8100004 -8.4300003 2.7969999 1
8.9209995 -8.4300003 2.7060001 1
8.7069998 -8.4300003 2.7490001 1
8.8009996 -8.4300003 2.793 1
8.9770002 -8.4300003 2.7850001 1
9.0080004 -8.4300003 2.7950001 1
8.7950001 -8.4300003 2.8010001 1
8.9619999 -8.4300003 2.7490001 1
8.7770004 -8.4300003 2.7950001 1
8.9700003 -8.4300003 2.8929999 1
8.948 -8.4300003 2.8010001 1
8.8400002 -8.4300003 2.8010001 1
8.8249998 -8.4300003 2.763 1
8.8610001 -8.4300003 2.819 1
8.6969995 -8.4300003 2.7160001 1
8.8990002 -8.4300003 2.7349999 1
8.9919996 -8.4300003 2.816 1
8.9460001 -8.4300003 2.9030001 1
8.9390001 -8.4300003 2.8570001 1
8.7989998 -8.4300003 2.7219999 1
9.0129995 -8.4300003 2.7309999 1
8.915 -8.4300003 2.8570001 1
8.8299999 -8.4300003 2.7780001 1
9.0050001 -8.4300003 2.8399999 1
8.9860001 -8.4300003 2.8859999 1
8.9209995 -8.4300003 2.7920001 1
8.7840004 -8.4300003 2.707 1
8.9440002 -8.4300003 2.766 1
9.0120001 -8.4300003 2.7609999 1
9.0170002 -8.4300003 2.7909999 1
8.9130001 -8.4300003 2.7309999 1
8.8999996 -8.4300003 2.8510001 1
8.8999996 -8.4300003 2.7320001 1
8.8559999 -8.4300003 2.727 1
8.8959999 -8.4300003 2.8859999 1
8.9239998 -8.4300003 2.8640001 1
8.6450005 -8.4300003 2.707 1
8.9540005 -8.4300003 2.707 1
8.6859999 -8.4300003 2.7349999 1
8.7259998 -8.4300003 2.724 1
8.9049997 -8.4300003 2.8840001 1
8.8640003 -8.4300003 2.7219999 1
8.79 -8.4300003 2.7620001 1
8.9779997 -8.4300003 2.9030001 1
8.9720001 -8.4300003 2.8440001 1
8.6700001 -8.4300003 2.71 1
8.7910004 -8.4300003 2.786 1
8.7889996 -8.4300003 2.72 1
8.8360004 -8.4300003 2.8110001 1
8.9429998 -8.4300003 2.7739999 1
8.698 -8.4300003 2.724 1
8.9980001 -8.4300003 2.7739999 1
8.9110003 -8.4300003 2.823 1
8.9230003 -8.4300003 2.8 1
9.0249996 -8.4300003 2.7219999 1
8.7550001 -8.4300003 2.7820001 1
8.7609997 -8.4300003 2.786 1
8.7989998 -8.4300003 2.7539999 1
8.8999996 -8.4300003 2.812 1
8.9829998 -8.4300003 2.7130001 1
8.9329996 -8.4300003 2.8199999 1
8.8140001 -8.4300003 2.8139999 1
8.8970003 -8.4300003 2.7739999 1
9.0200005 -8.4300003 2.7869999 1
8.835 -8.4300003 2.7579999 1
8.8929996 -8.4300003 2.7650001 1
8.7700005 -8.4300003 2.7490001 1
8.8710003 -8.4300003 2.8280001 1
9.0030003 -8.4300003 2.8770001 1
8.8280001 -8.4300003 2.7720001 1
9.0179996 -8.4300003 2.7579999 1
8.8470001 -8.4300003 2.776 1
8.9040003 -8.4300003 2.8889999 1
8.8479996 -8.4300003 2.7909999 1
8.8109999 -8.4300003 2.7219999 1
8.9709997 -8.4300003 2.8989999 1
8.7969999 -8.4300003 2.7390001 1
9.0030003 -8.4300003 2.7750001 1
8.8999996 -8.4300003 2.842 1
9.0059996 -8.4300003 2.8959999 1
8.7189999 -8.4300003 2.7460001 1
8.7139997 -8.4300003 2.7449999 1
9 -8.4300003 2.829 1
8.9329996 -8.4300003 2.7880001 1
8.8719997 -8.4300003 2.8659999 1
9.0150003 -8.4300003 2.7869999 1
8.8800001 -8.4300003 2.8199999 1
8.7639999 -8.4300003 2.786 1
8.6920004 -8.4300003 2.734 1
8.927 -8.4300003 2.773 1
8.8940001 -8.4300003 2.8340001 1
8.8660002 -8.4300003 2.753 1
8.9390001 -8.4300003 2.9059999 1
8.9169998 -8.4300003 2.7349999 1
8.882 -8.4300003 2.717 1
9.0120001 -8.4300003 2.7130001 1
8.9589996 -8.4300003 2.73 1
8.8210001 -8.4300003 2.783 1
8.8970003 -8.4300003 2.7079999 1
8.8800001 -8.4300003 2.7119999 1
8.8380003 -8.4300003 2.7030001 1
8.8260002 -8.4300003 2.7360001 1
8.9759998 -8.4300003 2.823 1
8.9680004 -8.4300003 2.7320001 1
8.8929996 -8.4300003 2.845 1
8.9449997 -8.4300003 2.9189999 1
8.8260002 -8.4300003 2.7590001 1
8.9940004 -8.4300003 2.7520001 1
8.7270002 -8.4300003 2.714 1
8.8649998 -8.4300003 2.763 1
8.8549995 -8.4300003 2.767 1
8.8830004 -8.4300003 2.7030001 1
8.7589998 -8.4300003 2.7709999 1
8.8739996 -8.4300003 2.7060001 1
8.9289999 -8.4300003 2.8659999 1
8.9680004 -8.4300003 2.737 1
8.8439999 -8.4300003 2.7620001 1
8.9639997 -8.4300003 2.76 1
8.6960001 -8.4300003 2.74 1
8.8540001 -8.4300003 2.737 1
8.7370005 -8.4300003 2.737 1
8.9139996 -8.4300003 2.763 1
8.9569998 -8.4300003 2.8889999 1
8.842 -8.4300003 2.7679999 1
8.8850002 -8.4300003 2.7720001 1
8.9860001 -8.4300003 2.8310001 1
8.9779997 -8.4300003 2.743 1
9.0059996 -8.4300003 2.9230001 1
8.8999996 -8.4300003 2.7620001 1
8.9630003 -8.4300003 2.878 1
8.8800001 -8.4300003 2.7709999 1
8.8249998 -8.4300003 2.7590001 1
8.8730001 -8.4300003 2.8110001 1
8.9029999 -8.4300003 2.7290001 1
8.7790003 -8.4300003 2.747 1
8.8590002 -8.4300003 2.7279999 1
8.9899998 -8.4300003 2.724 1
8.7629995 -8.4300003 2.7379999 1
9.0279999 -8.4300003 2.727 1
8.8570004 -8.4300003 2.7539999 1
9.0120001 -8.4300003 2.832 1
8.7329998 -8.4300003 2.701 1
8.9029999 -8.4300003 2.816 1
8.9940004 -8.4300003 2.721 1
9.0120001 -8.4300003 2.7290001 1
9.007 -8.4300003 2.79 1
8.9329996 -8.4300003 2.723 1
8.8889999 -8.4300003 2.717 1
8.7180004 -8.4300003 2.7060001 1
8.6619997 -8.4300003 2.7179999 1
8.8599997 -8.4300003 2.803 1
8.8079996 -8.4300003 2.823 1
8.8900003 -8.4300003 2.777 1
8.8409996 -8.4300003 2.839 1
8.9320002 -8.4300003 2.8110001 1
8.9940004 -8.4300003 2.8740001 1
8.8940001 -8.4300003 2.8399999 1
8.8549995 -8.4300003 2.7409999 1
8.9280005 -8.4300003 2.7420001 1
8.9350004 -8.4300003 2.892 1
8.849 -8.4300003 2.7190001 1
8.9390001 -8.4300003 2.799 1
8.6870003 -8.4300003 2.737 1
8.8280001 -8.4300003 2.7690001 1
8.9040003 -8.4300003 2.826 1
8.9569998 -8.4300003 2.8280001 1
8.8859997 -8.4300003 2.753 1
8.8529997 -8.4300003 2.848 1
8.9700003 -8.4300003 2.8399999 1
8.9919996 -8.4300003 2.8759999 1
8.7770004 -8.4300003 2.773 1
8.6540003 -8.4300003 2.7130001 1
8.7799997 -8.4300003 2.7449999 1
8.7510004 -8.4300003 2.7509999 1
8.9700003 -8.4300003 2.832 1
8.9300003 -8.4300003 2.8710001 1
8.7609997 -8.4300003 2.7279999 1
8.9580002 -8.4300003 2.835 1
8.7690001 -8.4300003 2.7460001 1
8.9449997 -8.4300003 2.8840001 1
8.9969997 -8.4300003 2.7639999 1
8.7030001 -8.4300003 2.7379999 1
8.9379997 -8.4300003 2.7950001 1
8.9420004 -8.4300003 2.9100001 1
8.7360001 -8.4300003 2.721 1
8.9350004 -8.4300003 2.7920001 1
9.0030003 -8.4300003 2.924 1
8.9200001 -8.4300003 2.8889999 1
8.7860003 -8.4300003 2.7909999 1
8.9729996 -8.4300003 2.839 1
8.9989996 -8.4300003 2.799 1
8.9949999 -8.4300003 2.895 1
8.9429998 -8.4300003 2.7739999 1
8.8959999 -8.4300003 2.8610001 1
8.8800001 -8.4300003 2.733 1
8.974 -8.4300003 2.839 1
8.9689999 -8.4300003 2.835 1
8.7919998 -8.4300003 2.7509999 1
8.816 -8.4300003 2.812 1
8.9530001 -8.4300003 2.875 1
8.8669996 -8.4300003 2.7030001 1
8.7589998 -8.4300003 2.701 1
8.9440002 -8.4300003 2.8429999 1
8.9420004 -8.4300003 2.8110001 1
8.7419996 -8.4300003 2.7320001 1
8.7550001 -8.4300003 2.779 1
8.908 -8.4300003 2.7869999 1
9.0139999 -8.4300003 2.859 1
9.0249996 -8.4300003 2.776 1
8.9729996 -8.4300003 2.892 1
8.677 -8.4300003 2.7060001 1
8.967 -8.4300003 2.7190001 1
8.8590002 -8.4300003 2.8340001 1
8.9650002 -8.4300003 2.9349999 1
8.9200001 -8.4300003 2.812 1
8.8669996 -8.4300003 2.7509999 1
8.9910002 -8.4300003 2.9519999 1
8.9169998 -8.4300003 2.7520001 1
8.9359999 -8.4300003 2.8510001 1
8.691 -8.4300003 2.7390001 1
8.9980001 -8.4300003 2.8710001 1
8.9090004 -8.4300003 2.757 1
8.8889999 -8.4300003 2.7420001 1
8.9580002 -8.4300003 2.8210001 1
8.8540001 -8.4300003 2.8329999 1
9.0139999 -8.4300003 2.756 1
8.9160004 -8.4300003 2.7130001 1
8.8809996 -8.4300003 2.8180001 1
8.9490004 -8.4300003 2.73 1
8.9639997 -8.4300003 2.803 1
8.9829998 -8.4300003 2.812 1
8.7539997 -8.4300003 2.7709999 1
8.8769999 -8.4300003 2.727 1
8.974 -8.4300003 2.8099999 1
8.9980001 -8.4300003 2.7750001 1
9.0100002 -8.4300003 2.8559999 1
8.8129997 -8.4300003 2.7520001 1
8.8629999 -8.4300003 2.855 1
9.0059996 -8.4300003 2.8099999 1
8.8970003 -8.4300003 2.802 1
8.7860003 -8.4300003 2.8039999 1
8.8769999 -8.4300003 2.855 1
8.8339996 -8.4300003 2.776 1
8.684 -8.4300003 2.73 1
8.8870001 -8.4300003 2.7260001 1
8.7049999 -8.4300003 2.7320001 1
8.948 -8.4300003 2.7479999 1
8.9549999 -8.4300003 2.747 1
8.9499998 -8.4300003 2.793 1
8.8629999 -8.4300003 2.8210001 1
8.9230003 -8.4300003 2.7950001 1
8.7980003 -8.4300003 2.763 1
8.9499998 -8.4300003 2.723 1
8.927 -8.4300003 2.7780001 1
8.8660002 -8.4300003 2.7049999 1
8.8640003 -8.4300003 2.7579999 1
8.8360004 -8.4300003 2.823 1
8.8240004 -8.4300003 2.7 1
8.7629995 -8.4300003 2.7409999 1
8.8769999 -8.4300003 2.783 1
8.8599997 -8.4300003 2.7160001 1
8.8850002 -8.4300003 2.7880001 1
8.8579998 -8.4300003 2.734 1
8.9250002 -8.4300003 2.902 1
8.8249998 -8.4300003 2.835 1
8.8900003 -8.4300003 2.8169999 1
9.007 -8.4300003 2.9460001 1
8.934 -8.4300003 2.7969999 1
8.8839998 -8.4300003 2.8740001 1
8.7790003 -8.4300003 2.74 1
8.6879997 -8.4300003 2.7190001 1
8.8909998 -8.4300003 2.7739999 1
9.0089998 -8.4300003 2.7290001 1
8.908 -8.4300003 2.8859999 1
8.9689999 -8.4300003 2.7739999 1
8.9750004 -8.4300003 2.8210001 1
8.7939997 -8.4300003 2.7850001 1
8.9729996 -8.4300003 2.73 1
8.9289999 -8.4300003 2.902 1
8.9720001 -8.4300003 2.783 1
8.9919996 -8.4300003 2.872 1
9.0019999 -8.4300003 2.9100001 1
8.8730001 -8.4300003 2.859 1
9.0050001 -8.4300003 2.799 1
8.941 -8.4300003 2.9100001 1
8.9799995 -8.4300003 2.721 1
8.9130001 -8.4300003 2.77 1
8.927 -8.4300003 2.8699999 1
8.8070002 -8.4300003 2.76 1
8.8509998 -8.4300003 2.7739999 1
8.7670002 -8.4300003 2.7590001 1
8.8319998 -8.4300003 2.7019999 1
8.8859997 -8.4300003 2.8659999 1
8.9490004 -8.4300003 2.7349999 1
8.9770002 -8.4300003 2.904 1
8.8690004 -8.4300003 2.7490001 1
8.9309998 -8.4300003 2.826 1
8.8290005 -8.4300003 2.8210001 1
8.9300003 -8.4300003 2.813 1
8.8380003 -8.4300003 2.8429999 1
8.9540005 -8.4300003 2.7260001 1
8.8990002 -8.4300003 2.7320001 1
8.882 -8.4300003 2.757 1
8.8030005 -8.4300003 2.822 1
8.927 -8.4300003 2.8599999 1
8.7620001 -8.4300003 2.7679999 1
8.9960003 -8.4300003 2.8900001 1
8.9940004 -8.4300003 2.7309999 1
8.8509998 -8.4300003 2.77 1
8.8850002 -8.4300003 2.823 1
9.0059996 -8.4300003 2.8829999 1
8.9870005 -8.4300003 2.744 1
9.0010004 -8.4300003 2.783 1
8.8450003 -8.4300003 2.7920001 1
8.915 -8.4300003 2.845 1
9.0050001 -8.4300003 2.75 1
8.8739996 -8.4300003 2.7590001 1
8.8009996 -8.4300003 2.809 1
8.9589996 -8.4300003 2.7880001 1
8.9119997 -8.4300003 2.846 1
8.7720003 -8.4300003 2.763 1
8.7399998 -8.4300003 2.744 1
9.0100002 -8.4300003 2.855 1
9.0039997 -8.4300003 2.73 1
8.8979998 -8.4300003 2.7880001 1
8.8929996 -8.4300003 2.8610001 1
8.8249998 -8.4300003 2.7720001 1
9.0270004 -8.4300003 2.7509999 1
9.0229998 -8.4300003 2.721 1
8.8430004 -8.4300003 2.766 1
8.9390001 -8.4300003 2.7539999 1
8.8730001 -8.4300003 2.8299999 1
8.7449999 -8.4300003 2.743 1
8.9530001 -8.4300003 2.7030001 1
8.7639999 -8.4300003 2.776 1
8.8120003 -8.4300003 2.819 1
8.9849997 -8.4300003 2.7349999 1
8.9700003 -8.4300003 2.7720001 1
8.9659996 -8.4300003 2.7639999 1
8.809 -8.4300003 2.75 1
8.9820004 -8.4300003 2.7709999 1
8.8850002 -8.4300003 2.8280001 1
8.8970003 -8.4300003 2.7030001 1
9.0190001 -8.4300003 2.825 1
8.9569998 -8.4300003 2.9219999 1
8.9440002 -8.4300003 2.832 1
8.8990002 -8.4300003 2.832 1
8.8380003 -8.4300003 2.7290001 1
8.7589998 -8.4300003 2.783 1
8.9770002 -8.4300003 2.848 1
8.7550001 -8.4300003 2.753 1
8.9759998 -8.4300003 2.7509999 1
8.9130001 -8.4300003 2.72 1
9.0220003 -8.4300003 2.7309999 1
8.8999996 -8.4300003 2.737 1
8.9770002 -8.4300003 2.7149999 1
8.9449997 -8.4300003 2.8429999 1
8.9759998 -8.4300003 2.7379999 1
8.7729998 -8.4300003 2.793 1
8.8400002 -8.4300003 2.744 1
8.96 -8.4300003 2.859 1
9.0129995 -8.4300003 2.779 1
8.8500004 -8.4300003 2.7260001 1
8.9200001 -8.4300003 2.865 1
8.9090004 -8.4300003 2.832 1
8.8929996 -8.4300003 2.7709999 1
8.8900003 -8.4300003 2.756 1
8.8100004 -8.4300003 2.7739999 1
9.007 -8.4300003 2.8299999 1
8.9919996 -8.4300003 2.9070001 1
8.9519997 -8.4300003 2.888 1
8.8540001 -8.4300003 2.7880001 1
9.0129995 -8.4300003 2.7639999 1
8.7460003 -8.4300003 2.7409999 1
8.9350004 -8.4300003 2.869 1
9.0299997 -8.4300003 2.7249999 1
8.875 -8.4300003 2.78 1
8.9630003 -8.4300003 2.8139999 1
8.9919996 -8.4300003 2.73 1
8.8290005 -8.4300003 2.7219999 1
8.8629999 -8.4300003 2.7019999 1
8.8730001 -8.4300003 2.75 1
8.8999996 -8.4300003 2.7290001 1
8.8280001 -8.4300003 2.836 1
8.9329996 -8.4300003 2.727 1
8.776 -8.4300003 2.776 1
8.9519997 -8.4300003 2.7690001 1
8.8710003 -8.4300003 2.7479999 1
9.0190001 -8.4300003 2.734 1
8.9829998 -8.4300003 2.756 1
8.8830004 -8.4300003 2.7690001 1
8.934 -8.4300003 2.8099999 1
8.9180002 -8.4300003 2.799 1
8.6759996 -8.4300003 2.72 1
8.9680004 -8.4300003 2.8659999 1
8.7030001 -8.4300003 2.7190001 1
8.6739998 -8.4300003 2.7260001 1
8.7740002 -8.4300003 2.7509999 1
8.9239998 -8.4300003 2.878 1
8.9949999 -8.4300003 2.928 1
8.8879995 -8.4300003 2.7130001 1
8.9700003 -8.4300003 2.8399999 1
8.9870005 -8.4300003 2.721 1
8.8859997 -8.4300003 2.7160001 1
8.816 -8.4300003 2.743 1
8.7779999 -8.4300003 2.7939999 1
8.7709999 -8.4300003 2.7690001 1
8.7379999 -8.4300003 2.7019999 1
8.8140001 -8.4300003 2.767 1
9.0139999 -8.4300003 2.839 1
8.8610001 -8.4300003 2.756 1
8.8249998 -8.4300003 2.8239999 1
8.9779997 -8.4300003 2.7390001 1
8.7080002 -8.4300003 2.737 1
8.7819996 -8.4300003 2.747 1
8.8780003 -8.4300003 2.7550001 1
8.6990004 -8.4300003 2.74 1
8.9090004 -8.4300003 2.8380001 1
8.8850002 -8.4300003 2.7909999 1
8.96 -8.4300003 2.8870001 1
8.8210001 -8.4300003 2.743 1
8.8870001 -8.4300003 2.8150001 1
8.8579998 -8.4300003 2.7950001 1
8.7449999 -8.4300003 2.714 1
8.8739996 -8.4300003 2.744 1
8.8529997 -8.4300003 2.7950001 1
8.9490004 -8.4300003 2.7780001 1
8.816 -8.4300003 2.7920001 1
8.9709997 -8.4300003 2.8859999 1
9.0190001 -8.4169998 0.046999998 1
8.7469997 -8.4230003 0.139 1
8.9759998 -8.4200001 0.079000004 1
8.6540003 -8.4130001 0.014 1
9.0469999 -8.4189997 0.061999999 1
8.8039999 -8.4180002 0.063000001 1
8.7449999 -8.4230003 0.141 1
8.6850004 -8.4139996 0.017999999 1
8.8699999 -8.415 0.025 1
9.092 -8.4180002 0.052000001 1
9.1899996 -8.4160004 0.017999999 1
8.927 -8.4200001 0.081 1
8.9139996 -8.4169998 0.045000002 1
8.7139997 -8.4139996 0.023 1
8.9169998 -8.4189997 0.079999998 1
8.8959999 -8.4189997 0.077 1
8.875 -8.4200001 0.093000002 1
8.9440002 -8.4200001 0.085000001 1
9.0469999 -8.4180002 0.048999999 1
8.9619999 -8.4160004 0.028000001 1
8.7379999 -8.4169998 0.057 1
8.7049999 -8.415 0.030999999 1
8.7530003 -8.4189997 0.083999999 1
8.7290001 -8.4139996 0.023 1
8.835 -8.415 0.027000001 1
8.9110003 -8.4200001 0.085000001 1
9.1070004 -8.4169998 0.032000002 1
8.8039999 -8.4169998 0.056000002 1
9.0889997 -8.4160004 0.023 1
8.7510004 -8.4200001 0.097999997 1
8.8000002 -8.4180002 0.068999998 1
8.7329998 -8.4200001 0.093000002 1
8.7659998 -8.4230003 0.13600001 1
8.9329996 -8.415 0.022 1
8.8260002 -8.4160004 0.039000001 1
9.0299997 -8.4180002 0.050000001 1
8.7209997 -8.4160004 0.043000001 1
8.6809998 -8.4160004 0.050000001 1
8.9139996 -8.4180002 0.057999998 1
8.8990002 -8.4169998 0.048999999 1
8.7919998 -8.415 0.032000002 1
8.7229996 -8.4209995 0.117 1
8.8800001 -8.4209995 0.1 1
8.8100004 -8.4139996 0.02 1
8.6420002 -8.4139996 0.017000001 1
8.7559996 -8.415 0.028000001 1
8.71 -8.4169998 0.052000001 1
8.7639999 -8.4189997 0.079000004 1
9.0839996 -8.4169998 0.033 1
8.882 -8.415 0.017999999 1
8.9399996 -8.4200001 0.090999998 1
8.9239998 -8.4169998 0.043000001 1
8.802 -8.4219999 0.121 1
8.9689999 -8.4200001 0.081 1
8.6809998 -8.4169998 0.055 1
8.8839998 -8.4209995 0.102 1
9.0170002 -8.4180002 0.057999998 1
8.9689999 -8.4180002 0.061000001 1
8.7609997 -8.415 0.029999999 1
8.8909998 -8.4160004 0.035 1
8.9549999 -8.4169998 0.048999999 1
8.7060003 -8.4169998 0.063000001 1
8.7449999 -8.4230003 0.138 1
9.0710001 -8.4180002 0.050000001 1
8.7410002 -8.415 0.029999999 1
8.7700005 -8.415 0.026000001 1
8.691 -8.4139996 0.021 1
9.0600004 -8.4160004 0.025 1
8.7180004 -8.4160004 0.046 1
8.7959995 -8.4160004 0.037 1
8.8710003 -8.415 0.018999999 1
8.7410002 -8.4219999 0.12800001 1
9.0670004 -8.4160004 0.033 1
8.9029999 -8.4169998 0.050999999 1
8.7209997 -8.4189997 0.086999997 1
8.9020004 -8.4169998 0.044 1
8.7860003 -8.4200001 0.090999998 1
8.75 -8.4189997 0.078000002 1
8.8149996 -8.4219999 0.122 1
8.7010002 -8.415 0.037999999 1
9.0679998 -8.4160004 0.027000001 1
8.8859997 -8.4160004 0.033 1
9.0220003 -8.4169998 0.046999998 1
8.8330002 -8.4180002 0.059999999 1
8.7969999 -8.4209995 0.108 1
9.0419998 -8.4180002 0.050000001 1
8.7720003 -8.415 0.023 1
9.0129995 -8.4169998 0.035999998 1
8.8889999 -8.415 0.026000001 1
8.7060003 -8.4180002 0.067000002 1
9.0799999 -8.4169998 0.041999999 1
8.974 -8.4180002 0.052999999 1
9.2040005 -8.4160004 0.016000001 1
8.8909998 -8.4180002 0.064000003 1
8.9379997 -8.415 0.015 1
8.8710003 -8.4169998 0.052999999 1
8.9589996 -8.4169998 0.041999999 1
8.7089996 -8.415 0.037 1
8.9180002 -8.4169998 0.052999999 1
8.7799997 -8.415 0.026000001 1
8.7340002 -8.4230003 0.133 1
8.7399998 -8.4160004 0.039999999 1
8.7790003 -8.4139996 0.021 1
8.8859997 -8.4160004 0.035 1
8.9440002 -8.4180002 0.061000001 1
8.9689999 -8.4160004 0.035 1
8.8000002 -8.415 0.021 1
8.8149996 -8.4219999 0.116 1
8.7410002 -8.4200001 0.092 1
8.9259996 -8.4200001 0.082999997 1
8.9280005 -8.4189997 0.079999998 1
8.8950005 -8.4209995 0.097999997 1
8.7510004 -8.4160004 0.046 1
8.9720001 -8.4180002 0.064000003 1
8.8330002 -8.4180002 0.067000002 1
8.7980003 -8.4169998 0.059 1
9.007 -8.4169998 0.039999999 1
8.7489996 -8.4160004 0.046 1
8.8290005 -8.4180002 0.064999998 1
8.9759998 -8.4169998 0.046999998 1
8.8789997 -8.4180002 0.068999998 1
9.1219997 -8.4169998 0.034000002 1
8.8260002 -8.4200001 0.090000004 1
8.8879995 -8.4200001 0.082999997 1
8.658 -8.4139996 0.026000001 1
8.684 -8.415 0.028000001 1
8.8179998 -8.4209995 0.106 1
8.9619999 -8.4160004 0.027000001 1
8.8889999 -8.415 0.028000001 1
8.8500004 -8.4160004 0.035 1
8.8190002 -8.4169998 0.048 1
8.8100004 -8.4160004 0.041999999 1
8.9890003 -8.4169998 0.045000002 1
8.7060003 -8.415 0.029999999 1
9.0500002 -8.4160004 0.028000001 1
9 -8.4180002 0.054000001 1
8.7480001 -8.4160004 0.037 1
8.8710003 -8.4180002 0.057 1
8.7939997 -8.4160004 0.037999999 1
8.9560003 -8.4180002 0.057 1
8.6899996 -8.415 0.028000001 1
8.8579998 -8.4169998 0.057 1
9.0719995 -8.4169998 0.046 1
8.9589996 -8.4180002 0.057 1
9.1199999 -8.4169998 0.032000002 1
8.9350004 -8.4200001 0.088 1
8.8030005 -8.415 0.026000001 1
9.1140003 -8.4169998 0.037999999 1
8.6479998 -8.4139996 0.021 1
8.8959999 -8.4200001 0.089000002 1
8.698 -8.4139996 0.013 1
8.7559996 -8.4189997 0.083999999 1
9.1140003 -8.4160004 0.026000001 1
9.158 -8.4160004 0.018999999 1
8.8640003 -8.4180002 0.061000001 1
8.8450003 -8.4189997 0.083999999 1
8.8000002 -8.4209995 0.1 1
9.0749998 -8.4169998 0.035999998 1
8.9350004 -8.4200001 0.090999998 1
9.0150003 -8.4160004 0.026000001 1
8.7950001 -8.4209995 0.109 1
9.0389996 -8.415 0.014 1
8.7189999 -8.4209995 0.109 1
8.849 -8.4200001 0.092 1
8.9049997 -8.4189997 0.081 1
8.934 -8.415 0.018999999 1
8.9090004 -8.4189997 0.078000002 1
8.783 -8.4189997 0.083999999 1
8.9370003 -8.4169998 0.046 1
8.7600002 -8.4169998 0.055 1
8.6949997 -8.4189997 0.082000002 1
8.9680004 -8.4189997 0.068999998 1
8.849 -8.4169998 0.054000001 1
8.7410002 -8.4200001 0.093000002 1
9.0279999 -8.4169998 0.041999999 1
8.9069996 -8.4169998 0.045000002 1
8.8839998 -8.4160004 0.029999999 1
8.7229996 -8.4200001 0.1 1
9.0629997 -8.4180002 0.050000001 1
8.7670002 -8.4209995 0.105 1
8.9750004 -8.4169998 0.046999998 1
8.809 -8.4219999 0.126 1
8.927 -8.4189997 0.071999997 1
8.7220001 -8.4200001 0.102 1
8.7410002 -8.4180002 0.066 1
8.7360001 -8.4160004 0.041999999 1
8.8889999 -8.4160004 0.035999998 1
8.7959995 -8.4200001 0.092 1
8.8579998 -8.4160004 0.033 1
8.8280001 -8.4139996 0.013 1
8.9020004 -8.4169998 0.050999999 1
8.7740002 -8.4219999 0.115 1
8.7989998 -8.4169998 0.048 1
8.7679996 -8.4169998 0.048999999 1
8.71 -8.4200001 0.098999999 1
8.6750002 -8.4139996 0.023 1
8.9849997 -8.4160004 0.032000002 1
8.7849998 -8.4209995 0.109 1
9.0360003 -8.4180002 0.054000001 1
8.7959995 -8.4180002 0.07 1
8.6809998 -8.415 0.028999999 1
8.8959999 -8.4169998 0.043000001 1
8.941 -8.4169998 0.046999998 1
8.8920002 -8.4209995 0.102 1
8.835 -8.4160004 0.039000001 1
9.059 -8.4180002 0.059 1
8.7670002 -8.4219999 0.117 1
9.0640001 -8.4180002 0.054000001 1
8.9359999 -8.4160004 0.029999999 1
8.71 -8.4200001 0.097000003 1
8.948 -8.4180002 0.057 1
8.743 -8.415 0.032000002 1
9.0439997 -8.4180002 0.055 1
8.7379999 -8.4180002 0.066 1
8.8360004 -8.4169998 0.054000001 1
8.8629999 -8.4180002 0.068999998 1
8.8690004 -8.4189997 0.081 1
8.9799995 -8.4160004 0.027000001 1
8.7299995 -8.4219999 0.12 1
8.9189997 -8.415 0.023 1
8.7989998 -8.4189997 0.079999998 1
8.7840004 -8.415 0.030999999 1
8.8590002 -8.4180002 0.061999999 1
8.7799997 -8.4180002 0.071000002 1
8.9139996 -8.4169998 0.052000001 1
8.8140001 -8.4139996 0.015 1
8.882 -8.4200001 0.090999998 1
8.7419996 -8.4230003 0.139 1
8.6630001 -8.4139996 0.024 1
8.677 -8.4139996 0.02 1
8.7080002 -8.415 0.032000002 1
8.7139997 -8.415 0.037999999 1
9.0790005 -8.4180002 0.046999998 1
8.7329998 -8.4219999 0.119 1
8.9870005 -8.4189997 0.072999999 1
8.9390001 -8.4200001 0.090000004 1
8.7270002 -8.4200001 0.094999999 1
8.7469997 -8.4200001 0.093999997 1
8.9200001 -8.415 0.017999999 1
9.0710001 -8.4180002 0.048999999 1
8.8149996 -8.415 0.029999999 1
8.8649998 -8.4160004 0.035 1
9.1040001 -8.415 0.014 1
8.7690001 -8.4189997 0.077 1
8.8400002 -8.4139996 0.013 1
8.8380003 -8.4189997 0.075000003 1
8.7139997 -8.4200001 0.097000003 1
9.0270004 -8.4180002 0.056000002 1
8.8120003 -8.4200001 0.092 1
9.1260004 -8.4160004 0.023 1
9.0489998 -8.4160004 0.026000001 1
8.8409996 -8.4169998 0.046999998 1
9.0880003 -8.4160004 0.025 1
8.757 -8.4189997 0.085000001 1
8.7720003 -8.415 0.034000002 1
8.802 -8.4169998 0.046999998 1
8.8710003 -8.4160004 0.035999998 1
8.9779997 -8.4180002 0.056000002 1
8.96 -8.4169998 0.048999999 1
8.7720003 -8.4209995 0.11 1
8.8000002 -8.4169998 0.050999999 1
9.198 -8.4160004 0.014 1
8.9759998 -8.4160004 0.030999999 1
8.9289999 -8.4169998 0.041999999 1
8.9099998 -8.4189997 0.079000004 1
8.7740002 -8.4219999 0.124 1
8.8280001 -8.415 0.02 1
8.6829996 -8.4169998 0.061000001 1
9.0059996 -8.4180002 0.059999999 1
8.7449999 -8.4200001 0.093000002 1
8.9390001 -8.4180002 0.052999999 1
8.6920004 -8.4139996 0.016000001 1
8.9060001 -8.4189997 0.075000003 1
8.8210001 -8.4200001 0.086999997 1
8.7629995 -8.4139996 0.016000001 1
8.8830004 -8.4180002 0.064000003 1
8.9630003 -8.4160004 0.030999999 1
8.6960001 -8.4180002 0.075000003 1
9.1440001 -8.4160004 0.028000001 1
9.066 -8.4180002 0.057999998 1
8.9630003 -8.4169998 0.050000001 1
8.8330002 -8.4200001 0.086000003 1
8.7740002 -8.4200001 0.092 1
8.7220001 -8.4139996 0.014 1
8.9589996 -8.4180002 0.054000001 1
8.79 -8.4139996 0.02 1
8.9469995 -8.4200001 0.085000001 1
8.8190002 -8.415 0.028999999 1
8.6999998 -8.4160004 0.039000001 1
8.8789997 -8.4160004 0.037 1
8.7670002 -8.4200001 0.096000001 1
8.677 -8.4160004 0.052000001 1
9.1569996 -8.4169998 0.032000002 1
8.8870001 -8.4180002 0.068000004 1
8.9379997 -8.4169998 0.052999999 1
8.7650003 -8.4139996 0.022 1
8.9549999 -8.4180002 0.061000001 1
8.7209997 -8.4209995 0.112 1
8.9359999 -8.4189997 0.068999998 1
8.8839998 -8.415 0.025 1
8.9230003 -8.4180002 0.064999998 1
9.0389996 -8.4169998 0.041999999 1
8.7410002 -8.4209995 0.108 1
8.7329998 -8.4139996 0.024 1
9 -8.415 0.022 1
8.8039999 -8.4209995 0.109 1
8.9820004 -8.4169998 0.044 1
8.7119999 -8.4189997 0.082999997 1
8.7480001 -8.4219999 0.127 1
8.8179998 -8.4180002 0.066 1
8.7419996 -8.4189997 0.078000002 1
9.0419998 -8.4189997 0.064000003 1
8.9659996 -8.415 0.017999999 1
8.9119997 -8.4189997 0.077 1
8.6999998 -8.4169998 0.061000001 1
8.9399996 -8.4169998 0.048999999 1
8.7939997 -8.415 0.026000001 1
8.849 -8.4200001 0.089000002 1
8.7119999 -8.4180002 0.078000002 1
8.7250004 -8.4189997 0.085000001 1
8.7849998 -8.4169998 0.050999999 1
9.0690002 -8.4180002 0.050999999 1
9.0209999 -8.4169998 0.044 1
8.8319998 -8.4180002 0.064000003 1
8.96 -8.4180002 0.052999999 1
8.8590002 -8.4180002 0.07 1
8.7659998 -8.4200001 0.097999997 1
8.9119997 -8.415 0.015 1
8.7449999 -8.4180002 0.068000004 1
8.8149996 -8.415 0.025 1
8.684 -8.4160004 0.050000001 1
8.9580002 -8.4180002 0.052999999 1
8.7600002 -8.4230003 0.138 1
8.7989998 -8.4160004 0.039999999 1
8.9840002 -8.4180002 0.052000001 1
8.9180002 -8.4209995 0.096000001 1
8.6879997 -8.4169998 0.064000003 1
8.8380003 -8.4189997 0.074000001 1
8.7270002 -8.415 0.034000002 1
9.2399998 -8.4160004 0.013 1
9.1280003 -8.4169998 0.037999999 1
8.7340002 -8.4189997 0.085000001 1
8.6899996 -8.4160004 0.050999999 1
8.79 -8.4230003 0.131 1
9.2010002 -8.4160004 0.022 1
9.0319996 -8.4169998 0.043000001 1
8.6800003 -8.4169998 0.054000001 1
8.8199997 -8.4169998 0.059 1
9.0299997 -8.4169998 0.041000001 1
9.0369997 -8.4189997 0.061000001 1
8.915 -8.4189997 0.068000004 1
8.6879997 -8.4180002 0.068999998 1
8.7880001 -8.4180002 0.071000002 1
8.8030005 -8.4200001 0.097000003 1
9.0740004 -8.4180002 0.054000001 1
8.8559999 -8.415 0.027000001 1
9.177 -8.4160004 0.016000001 1
8.6630001 -8.4160004 0.043000001 1
8.8690004 -8.4160004 0.039000001 1
8.7819996 -8.4230003 0.12899999 1
9.0489998 -8.4169998 0.039999999 1
8.7440004 -8.4200001 0.093000002 1
8.8249998 -8.4169998 0.050999999 1
8.8299999 -8.4189997 0.072999999 1
8.9680004 -8.4180002 0.052999999 1
9.0799999 -8.4180002 0.046 1
8.6809998 -8.4160004 0.050999999 1
8.7130003 -8.415 0.035999998 1
8.9040003 -8.4160004 0.033 1
8.7060003 -8.4200001 0.098999999 1
8.8129997 -8.415 0.021 1
9.1820002 -8.4160004 0.022 1
8.9700003 -8.4160004 0.032000002 1
8.901 -8.4160004 0.037999999 1
9.007 -8.415 0.018999999 1
9.1409998 -8.4160004 0.018999999 1
8.8459997 -8.4189997 0.075000003 1
8.7349997 -8.4160004 0.043000001 1
8.8470001 -8.4219999 0.115 1
8.8360004 -8.4180002 0.061000001 1
8.8149996 -8.4169998 0.057 1
8.7959995 -8.4200001 0.098999999 1
8.934 -8.4200001 0.086999997 1
8.8290005 -8.415 0.023 1
8.6940002 -8.4180002 0.075000003 1
8.8129997 -8.4180002 0.067000002 1
8.8330002 -8.4189997 0.082000002 1
8.8990002 -8.415 0.02 1
8.7980003 -8.4160004 0.035999998 1
8.7559996 -8.4200001 0.1 1
8.7049999 -8.4189997 0.086999997 1
8.7819996 -8.4180002 0.07 1
8.6719999 -8.4160004 0.045000002 1
9.0790005 -8.4180002 0.054000001 1
8.7600002 -8.4180002 0.064999998 1
8.783 -8.4160004 0.041999999 1
8.8540001 -8.4169998 0.054000001 1
8.9630003 -8.4160004 0.032000002 1
8.7639999 -8.4139996 0.02 1
9.0030003 -8.415 0.014 1
8.7779999 -8.4219999 0.123 1
8.7200003 -8.4180002 0.068999998 1
8.967 -8.4169998 0.046 1
9.0819998 -8.4160004 0.024 1
8.79 -8.4209995 0.113 1
8.7659998 -8.4219999 0.125 1
8.9189997 -8.415 0.02 1
9.158 -8.4160004 0.025 1
9.1129999 -8.4169998 0.039999999 1
8.7650003 -8.4139996 0.017000001 1
8.7460003 -8.4250002 0.52499998 1
8.9549999 -8.4239998 0.48300001 1
8.7840004 -8.4230003 0.46399999 1
8.8559999 -8.4219999 0.43799999 1
8.6630001 -8.4259996 0.542 1
8.8030005 -8.4239998 0.495 1
8.7279997 -8.4250002 0.50999999 1
8.993 -8.4239998 0.477 1
8.9040003 -8.4250002 0.49599999 1
8.8629999 -8.4239998 0.48500001 1
8.7860003 -8.4230003 0.46599999 1
8.7180004 -8.4250002 0.51899999 1
8.8369999 -8.4239998 0.49399999 1
8.7790003 -8.4219999 0.44999999 1
8.9680004 -8.4230003 0.45899999 1
8.7139997 -8.4250002 0.52700001 1
8.875 -8.4250002 0.49700001 1
8.7729998 -8.4250002 0.523 1
8.9949999 -8.4239998 0.46900001 1
8.7320004 -8.4239998 0.493 1
8.7299995 -8.4250002 0.50999999 1
9.0030003 -8.4239998 0.477 1
8.849 -8.4230003 0.44999999 1
8.9449997 -8.4230003 0.449 1
8.9130001 -8.4250002 0.49000001 1
8.9130001 -8.4239998 0.472 1
8.6940002 -8.4250002 0.53399998 1
8.8590002 -8.4219999 0.447 1
8.8690004 -8.4230003 0.46599999 1
8.677 -8.4250002 0.52700001 1
8.7030001 -8.4239998 0.50400001 1
8.8959999 -8.4239998 0.484 1
8.9320002 -8.4230003 0.45699999 1
8.9460001 -8.4230003 0.44499999 1
8.6870003 -8.4250002 0.52499998 1
8.9980001 -8.4230003 0.45199999 1
8.8000002 -8.4219999 0.44499999 1
8.967 -8.4239998 0.47999999 1
9.059 -8.4239998 0.45899999 1
8.9860001 -8.4239998 0.477 1
8.6780005 -8.4250002 0.528 1
8.8109999 -8.4219999 0.45199999 1
8.7959995 -8.4250002 0.50800002 1
8.7670002 -8.4239998 0.49399999 1
8.7810001 -8.4219999 0.45300001 1
8.816 -8.4239998 0.491 1
8.7329998 -8.4250002 0.51700002 1
8.8360004 -8.4250002 0.50700003 1
9.0670004 -8.4239998 0.463 1
8.8039999 -8.4219999 0.44999999 1
8.9049997 -8.4219999 0.44100001 1
8.8240004 -8.4230003 0.46700001 1
9.0100002 -8.4239998 0.45699999 1
8.7749996 -8.4239998 0.486 1
8.8800001 -8.4230003 0.44999999 1
9.0200005 -8.4239998 0.46000001 1
8.9139996 -8.4230003 0.45199999 1
8.7670002 -8.4239998 0.498 1
8.9180002 -8.4230003 0.46399999 1
8.7659998 -8.4230003 0.47099999 1
8.868 -8.4239998 0.47999999 1
8.9209995 -8.4230003 0.44999999 1
8.9239998 -8.4230003 0.44999999 1
9.0059996 -8.4239998 0.47400001 1
8.8199997 -8.4239998 0.495 1
8.7349997 -8.4239998 0.48899999 1
8.7530003 -8.4239998 0.50400001 1
8.7559996 -8.4239998 0.49900001 1
8.7060003 -8.4250002 0.51999998 1
8.9589996 -8.4239998 0.47299999 1
8.7639999 -8.4250002 0.51899999 1
8.7740002 -8.4230003 0.47099999 1
8.8260002 -8.4250002 0.50999999 1
8.8780003 -8.4230003 0.465 1
8.7329998 -8.4239998 0.49399999 1
8.7860003 -8.4250002 0.51899999 1
8.7259998 -8.4250002 0.51300001 1
8.823 -8.4230003 0.47099999 1
8.9890003 -8.4239998 0.47499999 1
8.8719997 -8.4219999 0.44 1
8.8669996 -8.4239998 0.49200001 1
8.7290001 -8.4239998 0.498 1
8.7910004 -8.4239998 0.498 1
8.934 -8.4239998 0.46700001 1
8.7370005 -8.4250002 0.52399999 1
8.8400002 -8.4239998 0.48300001 1
8.6870003 -8.4239998 0.51300001 1
9.0299997 -8.4239998 0.463 1
9.0279999 -8.4239998 0.45500001 1
8.9060001 -8.4239998 0.46900001 1
8.8009996 -8.4250002 0.50300002 1
8.7930002 -8.4219999 0.45500001 1
8.8100004 -8.4219999 0.44499999 1
8.875 -8.4219999 0.44 1
8.6689997 -8.4250002 0.51800001 1
8.9910002 -8.4239998 0.47299999 1
8.783 -8.4230003 0.458 1
9.0010004 -8.4230003 0.45500001 1
8.8009996 -8.4219999 0.45300001 1
8.7580004 -8.4230003 0.46599999 1
8.9309998 -8.4230003 0.45699999 1
8.9440002 -8.4239998 0.46700001 1
9.0679998 -8.4239998 0.463 1
8.8579998 -8.4219999 0.44499999 1
8.8529997 -8.4239998 0.48100001 1
8.967 -8.4239998 0.46200001 1
8.7419996 -8.4239998 0.498 1
8.8850002 -8.4250002 0.495 1
8.8830004 -8.4239998 0.47099999 1
8.7130003 -8.4250002 0.50999999 1
8.8219995 -8.4230003 0.46200001 1
8.7030001 -8.4239998 0.498 1
8.8319998 -8.4239998 0.47600001 1
8.8610001 -8.4230003 0.45100001 1
8.6569996 -8.4259996 0.54000002 1
8.7279997 -8.4230003 0.48100001 1
8.7930002 -8.4230003 0.47299999 1
8.7989998 -8.4239998 0.47799999 1
8.9300003 -8.4239998 0.47600001 1
8.6429996 -8.4250002 0.53600001 1
8.8570004 -8.4230003 0.454 1
8.8509998 -8.4230003 0.454 1
8.7510004 -8.4230003 0.46700001 1
8.809 -8.4239998 0.48199999 1
8.8599997 -8.4230003 0.456 1
8.7770004 -8.4239998 0.50099999 1
8.9280005 -8.4239998 0.479 1
8.8629999 -8.4239998 0.47499999 1
8.6780005 -8.4239998 0.51099998 1
8.9420004 -8.4230003 0.46000001 1
8.7530003 -8.4250002 0.51899999 1
8.8260002 -8.4239998 0.48300001 1
8.8640003 -8.4230003 0.454 1
8.7869997 -8.4219999 0.449 1
8.6789999 -8.4250002 0.52200001 1
8.8710003 -8.4239998 0.477 1
8.9849997 -8.4230003 0.45500001 1
8.8179998 -8.4230003 0.46700001 1
8.8599997 -8.4219999 0.43799999 1
8.8129997 -8.4250002 0.51499999 1
8.8450003 -8.4230003 0.45300001 1
8.927 -8.4230003 0.463 1
8.9530001 -8.4239998 0.472 1
8.7220001 -8.4250002 0.51200002 1
8.717 -8.4250002 0.51499999 1
8.8809996 -8.4230003 0.45100001 1
8.9189997 -8.4239998 0.47999999 1
8.7279997 -8.4250002 0.53200001 1
8.7390003 -8.4250002 0.51800001 1
8.8509998 -8.4239998 0.49399999 1
8.868 -8.4230003 0.45199999 1
8.9139996 -8.4239998 0.48899999 1
8.9569998 -8.4239998 0.479 1
8.7799997 -8.4250002 0.51099998 1
8.9540005 -8.4239998 0.479 1
8.7869997 -8.4250002 0.51499999 1
8.8050003 -8.4239998 0.48500001 1
9.0080004 -8.4239998 0.463 1
8.9709997 -8.4239998 0.461 1
8.8190002 -8.4230003 0.465 1
8.8000002 -8.4219999 0.43799999 1
8.776 -8.4250002 0.51800001 1
8.7550001 -8.4230003 0.47799999 1
8.776 -8.4250002 0.51200002 1
9.052 -8.4239998 0.465 1
8.6920004 -8.4250002 0.51700002 1
8.8140001 -8.4230003 0.47499999 1
8.8000002 -8.4239998 0.48800001 1
9.0240002 -8.4230003 0.45300001 1
8.7279997 -8.4250002 0.52899998 1
8.7910004 -8.4250002 0.51499999 1
8.6230001 -8.4259996 0.55299997 1
8.8009996 -8.4219999 0.44600001 1
8.8009996 -8.4239998 0.48199999 1
8.9519997 -8.4239998 0.47400001 1
8.8199997 -8.4250002 0.50199997 1
8.8079996 -8.4219999 0.45199999 1
8.8400002 -8.4230003 0.46000001 1
8.9779997 -8.4230003 0.454 1
8.8730001 -8.4250002 0.49900001 1
8.8699999 -8.4230003 0.46200001 1
8.8990002 -8.4230003 0.456 1
8.9989996 -8.4239998 0.47400001 1
8.6969995 -8.4250002 0.52399999 1
8.915 -8.4239998 0.48500001 1
8.6969995 -8.4250002 0.528 1
9.0170002 -8.4239998 0.46000001 1
8.7060003 -8.4250002 0.52899998 1
8.8620005 -8.4230003 0.456 1
8.7880001 -8.4250002 0.51300001 1
8.691 -8.4250002 0.52499998 1
8.8009996 -8.4239998 0.49000001 1
8.8599997 -8.4230003 0.456 1
8.8290005 -8.4219999 0.44 1
8.9840002 -8.4239998 0.46700001 1
9.0089998 -8.4230003 0.45100001 1
8.7849998 -8.4239998 0.49200001 1
8.8590002 -8.4219999 0.43799999 1
8.8170004 -8.4219999 0.43900001 1
8.8640003 -8.4230003 0.46799999 1
8.8629999 -8.4239998 0.48500001 1
8.6870003 -8.4239998 0.51300001 1
8.7659998 -8.4250002 0.50599998 1
8.8219995 -8.4250002 0.50700003 1
8.842 -8.4239998 0.49200001 1
8.7299995 -8.4250002 0.51499999 1
8.7700005 -8.4239998 0.486 1
8.7860003 -8.4239998 0.48699999 1
8.8389997 -8.4230003 0.46599999 1
8.7299995 -8.4250002 0.514 1
8.9250002 -8.4230003 0.44299999 1
9 -8.4230003 0.44999999 1
8.6639996 -8.4259996 0.54500002 1
8.7629995 -8.4230003 0.465 1
8.993 -8.4239998 0.48300001 1
9.0369997 -8.4259996 0.77999997 1
8.8669996 -8.4250002 0.51899999 1
8.8439999 -8.4259996 0.63700002 1
8.9049997 -8.4259996 0.676 1
9.0550003 -8.4259996 0.792 1
9.026 -8.4259996 0.75999999 1
8.8219995 -8.4259996 0.69599998 1
8.868 -8.4259996 0.64200002 1
8.9879999 -8.4259996 0.72500002 1
9.052 -8.4250002 0.53500003 1
9.0340004 -8.4259996 0.736 1
9.0270004 -8.4259996 0.73400003 1
8.8540001 -8.4250002 0.52700001 1
8.6470003 -8.4259996 0.55599999 1
8.9689999 -8.4250002 0.51800001 1
8.8610001 -8.4259996 0.602 1
8.9449997 -8.4250002 0.50599998 1
9.0810003 -8.4250002 0.55900002 1
8.934 -8.4259996 0.77600002 1
8.8710003 -8.4259996 0.63800001 1
9.0719995 -8.4250002 0.64300001 1
8.9910002 -8.4250002 0.597 1
8.9840002 -8.4259996 0.75800002 1
8.9300003 -8.4250002 0.50099999 1
8.8979998 -8.4259996 0.74000001 1
9.0249996 -8.4259996 0.824 1
8.8310003 -8.4259996 0.63 1
9.0509996 -8.4250002 0.65799999 1
8.9449997 -8.4259996 0.72500002 1
9.0780001 -8.4239998 0.49900001 1
8.9689999 -8.4259996 0.722 1
8.724 -8.4259996 0.60399997 1
8.6309996 -8.4259996 0.57800001 1
9.0629997 -8.4250002 0.56400001 1
8.8570004 -8.4259996 0.69199997 1
9.0209999 -8.4259996 0.67500001 1
8.8699999 -8.4259996 0.69499999 1
8.9219999 -8.4259996 0.71499997 1
8.9510002 -8.4250002 0.56800002 1
8.9750004 -8.4259996 0.71100003 1
8.75 -8.4259996 0.64300001 1
8.9379997 -8.4250002 0.597 1
8.8940001 -8.4250002 0.60699999 1
8.8149996 -8.4259996 0.579 1
8.9200001 -8.4259996 0.64700001 1
9.0550003 -8.4239998 0.50400001 1
9.0450001 -8.4259996 0.70599997 1
9.007 -8.4259996 0.75700003 1
9.0270004 -8.4259996 0.70899999 1
8.6079998 -8.4259996 0.56099999 1
9.0290003 -8.4259996 0.824 1
8.8070002 -8.4259996 0.62599999 1
8.823 -8.4259996 0.60399997 1
9.0740004 -8.4250002 0.542 1
9.0159998 -8.4239998 0.49599999 1
8.6719999 -8.4259996 0.54699999 1
8.9320002 -8.4259996 0.67400002 1
8.7329998 -8.4259996 0.61699998 1
8.8970003 -8.4259996 0.66399997 1
9.0539999 -8.4250002 0.662 1
8.8190002 -8.4259996 0.65399998 1
9.0050001 -8.4259996 0.69800001 1
8.9429998 -8.4259996 0.68099999 1
8.9840002 -8.4250002 0.648 1
8.8769999 -8.4250002 0.55199999 1
8.8409996 -8.4259996 0.63099998 1
9.0719995 -8.4250002 0.67799997 1
8.9809999 -8.4250002 0.62 1
8.8290005 -8.4259996 0.60699999 1
8.9879999 -8.4250002 0.57200003 1
8.934 -8.4259996 0.63800001 1
9.033 -8.4259996 0.69499999 1
9.0670004 -8.4250002 0.565 1
8.9289999 -8.4250002 0.51300001 1
8.941 -8.4259996 0.66000003 1
8.7919998 -8.4259996 0.56400001 1
8.8330002 -8.4250002 0.574 1
9.0380001 -8.4250002 0.66500002 1
8.8719997 -8.4259996 0.61500001 1
8.6929998 -8.4259996 0.56999999 1
9.0290003 -8.4250002 0.51899999 1
9.0089998 -8.4259996 0.68199998 1
8.7700005 -8.4259996 0.65499997 1
8.9239998 -8.4259996 0.764 1
9 -8.4250002 0.62800002 1
8.9659996 -8.4250002 0.58999997 1
9.04 -8.4239998 0.47999999 1
8.9770002 -8.4250002 0.565 1
8.6780005 -8.4259996 0.56999999 1
9.0340004 -8.4259996 0.82200003 1
8.651 -8.4259996 0.588 1
8.9639997 -8.4250002 0.574 1
8.9619999 -8.4250002 0.56300002 1
8.9460001 -8.4259996 0.72399998 1
8.9899998 -8.4259996 0.65600002 1
8.9090004 -8.4250002 0.53200001 1
8.8599997 -8.4250002 0.55699998 1
8.8400002 -8.4259996 0.66000003 1
9.0419998 -8.4250002 0.662 1
8.8599997 -8.4259996 0.68000001 1
9.0039997 -8.4259996 0.80599999 1
8.9860001 -8.4259996 0.71799999 1
8.7139997 -8.4259996 0.62800002 1
8.8710003 -8.4259996 0.62400001 1
8.9569998 -8.4250002 0.54100001 1
9.0559998 -8.4250002 0.56400001 1
8.6040001 -8.4259996 0.56 1
8.9379997 -8.4259996 0.73100001 1
9.0249996 -8.4259996 0.67199999 1
8.9650002 -8.4259996 0.65799999 1
8.9940004 -8.4250002 0.64899999 1
8.7849998 -8.4250002 0.54100001 1
9.0579996 -8.4239998 0.51800001 1
8.7329998 -8.4259996 0.63200003 1
8.7329998 -8.4259996 0.64200002 1
8.8120003 -8.4259996 0.67699999 1
9.0450001 -8.4250002 0.52700001 1
8.7950001 -8.4250002 0.54500002 1
8.8629999 -8.4259996 0.71600002 1
8.9650002 -8.4259996 0.65700001 1
9.066 -8.4250002 0.56300002 1
8.7510004 -8.4259996 0.625 1
8.8990002 -8.4259996 0.63 1
8.9569998 -8.4250002 0.55299997 1
8.7559996 -8.4259996 0.55599999 1
8.9219999 -8.4259996 0.65399998 1
8.7320004 -8.4259996 0.63300002 1
9.0790005 -8.4239998 0.50400001 1
8.8690004 -8.4250002 0.51200002 1
8.9139996 -8.4250002 0.588 1
9.0500002 -8.4259996 0.79500002 1
8.7510004 -8.4259996 0.61000001 1
8.8030005 -8.4259996 0.685 1
8.9750004 -8.4250002 0.49200001 1
8.9610004 -8.4250002 0.639 1
8.7460003 -8.4259996 0.61900002 1
8.7309999 -8.4259996 0.64700001 1
8.75 -8.4259996 0.58099997 1
8.9359999 -8.4250002 0.588 1
9.0080004 -8.4259996 0.75300002 1
9.0609999 -8.4259996 0.71700001 1
8.9049997 -8.4259996 0.75 1
8.9370003 -8.4259996 0.639 1
8.9280005 -8.4250002 0.58700001 1
8.901 -8.4259996 0.65399998 1
8.9860001 -8.4259996 0.73299998 1
9.0579996 -8.4259996 0.69400001 1
8.9160004 -8.4259996 0.75 1
8.9980001 -8.4250002 0.63700002 1
8.7290001 -8.4259996 0.64200002 1
9.0129995 -8.4259996 0.81599998 1
8.8260002 -8.4259996 0.70300001 1
9.0179996 -8.4250002 0.662 1
8.7250004 -8.4259996 0.63999999 1
8.8479996 -8.4259996 0.67199999 1
9.0419998 -8.4250002 0.55400002 1
9.0380001 -8.4239998 0.50400001 1
9.0550003 -8.4250002 0.653 1
8.6210003 -8.4259996 0.56999999 1
9.0450001 -8.4250002 0.63999999 1
8.8459997 -8.4250002 0.52499998 1
8.993 -8.4259996 0.80000001 1
8.7989998 -8.4259996 0.64999998 1
8.7600002 -8.4259996 0.64399999 1
8.9420004 -8.4259996 0.75 1
9.04 -8.4250002 0.551 1
9.0369997 -8.4250002 0.65600002 1
8.7740002 -8.4259996 0.65799999 1
8.9580002 -8.4259996 0.73900002 1
8.948 -8.4250002 0.58600003 1
9.0179996 -8.4259996 0.764 1
8.9309998 -8.4259996 0.76599997 1
8.9659996 -8.4250002 0.59799999 1
8.8870001 -8.4259996 0.60699999 1
9.0469999 -8.4259996 0.80000001 1
9.0839996 -8.4250002 0.53600001 1
8.9049997 -8.4259996 0.67900002 1
8.9350004 -8.4250002 0.52999997 1
8.8070002 -8.4250002 0.52700001 1
8.9639997 -8.4250002 0.51099998 1
9.0240002 -8.4259996 0.778 1
8.8100004 -8.4250002 0.52399999 1
8.868 -8.4250002 0.51499999 1
8.677 -8.4259996 0.57700002 1
8.9619999 -8.4250002 0.50400001 1
9.0080004 -8.4250002 0.63700002 1
9.0719995 -8.4250002 0.67000002 1
8.6300001 -8.4259996 0.56199998 1
8.7880001 -8.4259996 0.64200002 1
8.757 -8.4259996 0.565 1
9.0380001 -8.4250002 0.57800001 1
9.0380001 -8.4250002 0.59799999 1
9.033 -8.4250002 0.59799999 1
8.9119997 -8.4259996 0.73699999 1
8.8100004 -8.4250002 0.53600001 1
9.0050001 -8.4259996 0.66600001 1
9.0629997 -8.4250002 0.64200002 1
8.9989996 -8.4250002 0.616 1
8.993 -8.4250002 0.64700001 1
8.9139996 -8.4259996 0.62400001 1
8.7119999 -8.4259996 0.61000001 1
8.8549995 -8.4259996 0.59600002 1
8.9840002 -8.4259996 0.71499997 1
8.7950001 -8.4259996 0.68099999 1
8.8909998 -8.4250002 0.56099999 1
9.0059996 -8.4259996 0.71899998 1
8.8800001 -8.4250002 0.56599998 1
8.9519997 -8.4259996 0.64200002 1
8.9879999 -8.4250002 0.63999999 1
9.0039997 -8.4250002 0.63700002 1
9.0179996 -8.4250002 0.505 1
8.6870003 -8.4259996 0.55000001 1
8.9390001 -8.4250002 0.509 1
9.0480003 -8.4250002 0.65200001 1
8.6899996 -8.4259996 0.61500001 1
9.0419998 -8.4250002 0.59200001 1
9.0139999 -8.4259996 0.76800001 1
9.0690002 -8.4250002 0.62300003 1
8.7729998 -8.4259996 0.55299997 1
9.0139999 -8.4259996 0.764 1
8.8719997 -8.4259996 0.73100001 1
8.9639997 -8.4259996 0.66299999 1
8.7320004 -8.4259996 0.583 1
8.7889996 -8.4259996 0.62900001 1
8.908 -8.4250002 0.59100002 1
8.908 -8.4250002 0.55599999 1
8.9350004 -8.4250002 0.61299998 1
8.9840002 -8.4259996 0.722 1
9.0319996 -8.4259996 0.73900002 1
8.7089996 -8.4259996 0.59100002 1
8.7550001 -8.4259996 0.56999999 1
8.9980001 -8.4259996 0.75599998 1
8.9029999 -8.4250002 0.60799998 1
8.6859999 -8.4259996 0.56400001 1
8.8290005 -8.4259996 0.59899998 1
8.7779999 -8.4259996 0.64899999 1
8.9420004 -8.4259996 0.64700001 1
9.0279999 -8.4250002 0.59600002 1
9.0530005 -8.4239998 0.47099999 1
8.8479996 -8.4259996 0.662 1
9.0749998 -8.4250002 0.63599998 1
8.8059998 -8.4259996 0.61500001 1
9.0530005 -8.4259996 0.75400001 1
9.0869999 -8.4239998 0.52499998 1
8.9449997 -8.4259996 0.70499998 1
9.0240002 -8.4259996 0.67699999 1
8.9359999 -8.4259996 0.77700001 1
8.8970003 -8.4259996 0.68400002 1
8.7550001 -8.4259996 0.65700001 1
8.7360001 -8.4259996 0.61299998 1
9.0539999 -8.4250002 0.56099999 1
8.9820004 -8.4250002 0.63499999 1
8.6940002 -8.4259996 0.55299997 1
8.8470001 -8.4259996 0.62099999 1
8.9300003 -8.4259996 0.73100001 1
8.8190002 -8.4259996 0.68199998 1
8.9870005 -8.4250002 0.5 1
8.7930002 -8.4250002 0.52600002 1
8.9429998 -8.4259996 0.64700001 1
8.9569998 -8.4250002 0.53200001 1
8.8190002 -8.4250002 0.51499999 1
8.9460001 -8.4259996 0.71100003 1
9.0410004 -8.4239998 0.479 1
8.8450003 -8.4259996 0.70099998 1
8.9610004 -8.4259996 0.77899998 1
8.9949999 -8.4250002 0.62599999 1
8.9639997 -8.4259996 0.75300002 1
9.0620003 -8.4259996 0.72899997 1
8.6029997 -8.4259996 0.56199998 1
8.8620005 -8.4250002 0.56999999 1
8.9969997 -8.4259996 0.79699999 1
8.8529997 -8.4259996 0.68199998 1
8.6669998 -8.4259996 0.59299999 1
8.7840004 -8.4259996 0.64899999 1
9.0600004 -8.4259996 0.75 1
9.0579996 -8.4259996 0.72100002 1
8.9790001 -8.4250002 0.51599997 1
8.9720001 -8.4259996 0.78500003 1
8.7989998 -8.4259996 0.64399999 1
8.9289999 -8.4259996 0.70999998 1
9.0799999 -8.4239998 0.49200001 1
8.7650003 -8.4259996 0.63499999 1
8.9870005 -8.4250002 0.58099997 1
9.0290003 -8.4239998 0.49700001 1
8.915 -8.4250002 0.59899998 1
8.7390003 -8.4259996 0.64499998 1
8.8140001 -8.4259996 0.60100001 1
9.0670004 -8.4250002 0.53600001 1
8.8579998 -8.4250002 0.56099999 1
8.658 -8.4259996 0.55699998 1
9.0629997 -8.4250002 0.55699998 1
8.9610004 -8.4250002 0.579 1
8.9530001 -8.4259996 0.64499998 1
8.8760004 -8.4259996 0.69099998 1
8.691 -8.4259996 0.55400002 1
8.9490004 -8.4250002 0.50400001 1
8.9820004 -8.4250002 0.648 1
8.9449997 -8.4259996 0.741 1
9.0880003 -8.4239998 0.52100003 1
8.7729998 -8.4259996 0.667 1
9.052 -8.4250002 0.64600003 1
8.7379999 -8.4259996 0.64600003 1
8.9969997 -8.4259996 0.78399998 1
8.9420004 -8.4250002 0.625 1
8.9209995 -8.4259996 0.66000003 1
8.7250004 -8.4259996 0.56 1
9.0530005 -8.4259996 0.81599998 1
9.0039997 -8.4250002 0.64999998 1
8.7279997 -8.4259996 0.60799998 1
9.0450001 -8.4250002 0.59799999 1
8.9379997 -8.4250002 0.57300001 1
8.9790001 -8.4259996 0.72799999 1
8.8319998 -8.4250002 0.579 1
9.0100002 -8.4250002 0.62599999 1
8.7650003 -8.4259996 0.574 1
8.6949997 -8.4259996 0.542 1
8.8439999 -8.4250002 0.53600001 1
8.7770004 -8.4259996 0.60799998 1
8.9209995 -8.4250002 0.56 1
9.0749998 -8.4250002 0.59899998 1
8.8590002 -8.4259996 0.66399997 1
8.9709997 -8.4259996 0.74299997 1
9.04 -8.4259996 0.71600002 1
8.7939997 -8.4259996 0.574 1
9.0530005 -8.4239998 0.491 1
9.059 -8.4250002 0.67299998 1
9.0019999 -8.4250002 0.60799998 1
8.6929998 -8.4259996 0.54400003 1
8.7840004 -8.4259996 0.616 1
8.8599997 -8.4259996 0.72600001 1
9.033 -8.4250002 0.55500001 1
8.8290005 -8.4259996 0.59600002 1
9.0129995 -8.4250002 0.597 1
8.7159996 -8.4259996 0.62 1
8.8269997 -8.4250002 0.56599998 1
9.0410004 -8.4250002 0.66500002 1
8.9469995 -8.4259996 0.71799999 1
8.9659996 -8.4259996 0.73000002 1
8.9910002 -8.4250002 0.49599999 1
9.0749998 -8.4239998 0.46399999 1
8.8529997 -8.4250002 0.523 1
8.9259996 -8.4250002 0.53600001 1
8.7980003 -8.4259996 0.67799997 1
9.0559998 -8.4259996 0.80699998 1
8.8330002 -8.4259996 0.70499998 1
8.7139997 -8.4259996 0.59799999 1
8.8610001 -8.4250002 0.59200001 1
8.8979998 -8.4250002 0.56900001 1
8.875 -8.4250002 0.54299998 1
9.0200005 -8.4250002 0.57800001 1
9.059 -8.4250002 0.57099998 1
8.7089996 -8.4259996 0.56 1
8.9729996 -8.4250002 0.54299998 1
8.7410002 -8.4259996 0.60299999 1
9.0640001 -8.4250002 0.61199999 1
8.6199999 -8.4259996 0.55699998 1
8.7030001 -8.4259996 0.54799998 1
8.9790001 -8.4250002 0.53299999 1
8.7449999 -8.4259996 0.61000001 1
8.8369999 -8.4259996 0.60100001 1
9.0349998 -8.4259996 0.74299997 1
8.6920004 -8.4259996 0.56900001 1
8.967 -8.4259996 0.71600002 1
9.0839996 -8.4239998 0.47999999 1
9.0310001 -8.4239998 0.48100001 1
9.0229998 -8.4250002 0.54400003 1
9.0539999 -8.4250002 0.546 1
8.9960003 -8.4250002 0.65100002 1
9.052 -8.4250002 0.60799998 1
8.9630003 -8.4250002 0.57300001 1
9.0039997 -8.4259996 0.67699999 1
8.8210001 -8.4250002 0.56400001 1
8.9169998 -8.4250002 0.59299999 1
9.0489998 -8.4259996 0.71399999 1
8.8030005 -8.4259996 0.61699998 1
9.0360003 -8.4250002 0.52100003 1
8.8739996 -8.4259996 0.70200002 1
8.9239998 -8.4259996 0.71600002 1
8.7910004 -8.4259996 0.62400001 1
8.8549995 -8.4259996 0.64099997 1
8.8839998 -8.4259996 0.72399998 1
8.9540005 -8.4259996 0.676 1
9.0679998 -8.4259996 0.69599998 1
9.0299997 -8.4259996 0.76200002 1
8.9259996 -8.4259996 0.66000003 1
8.9099998 -8.4259996 0.68300003 1
8.7720003 -8.4259996 0.59399998 1
8.8879995 -8.4259996 0.64600003 1
9.0430002 -8.4259996 0.80500001 1
8.8030005 -8.4250002 0.53299999 1
9.052 -8.4250002 0.62 1
9.0500002 -8.4259996 0.69599998 1
8.9040003 -8.4259996 0.62300003 1
8.7259998 -8.4259996 0.63 1
8.9460001 -8.4250002 0.505 1
9.0279999 -8.4239998 0.48899999 1
8.9919996 -8.4250002 0.61199999 1
8.9169998 -8.4250002 0.60600001 1
8.7629995 -8.4259996 0.57599998 1
9.0500002 -8.4259996 0.69999999 1
8.9420004 -8.4259996 0.70700002 1
8.8640003 -8.4259996 0.69999999 1
8.7279997 -8.4259996 0.56800002 1
9.0500002 -8.4259996 0.79400003 1
8.9729996 -8.4250002 0.639 1
8.8149996 -8.4259996 0.63700002 1
8.908 -8.4259996 0.62199998 1
9.0439997 -8.4239998 0.47299999 1
9.0150003 -8.4259996 0.74599999 1
9.0489998 -8.4250002 0.63499999 1
9.0609999 -8.4250002 0.63 1
9.0419998 -8.4259996 0.83099997 1
8.9510002 -8.4259996 0.63999999 1
8.8879995 -8.4259996 0.60799998 1
8.934 -8.4250002 0.55500001 1
8.9960003 -8.4259996 0.727 1
9.0769997 -8.4250002 0.616 1
8.901 -8.4250002 0.59299999 1
9.033 -8.4259996 0.82700002 1
8.9870005 -8.4250002 0.50800002 1
8.9169998 -8.4250002 0.56699997 1
8.7819996 -8.4259996 0.63800001 1
8.8409996 -8.4250002 0.57999998 1
9.0609999 -8.4250002 0.625 1
8.8059998 -8.4259996 0.62800002 1
8.7040005 -8.4259996 0.59100002 1
8.8389997 -8.4259996 0.68000001 1
8.96 -8.4259996 0.78299999 1
8.934 -8.4250002 0.59899998 1
9.0220003 -8.4259996 0.764 1
8.9189997 -8.4259996 0.72899997 1
8.816 -8.4259996 0.57300001 1
