# .PCD v0.7 - Point Cloud Data file format
VERSION 0.7
FIELDS x y z label
SIZE 4 4 4 4
TYPE F F F U
COUNT 1 1 1 1
WIDTH 1617
HEIGHT 1
VIEWPOINT 0 0 0 1 0 0 0
POINTS 1617
DATA ascii
5.4520001 -8.448 1.067 1
5.4520001 -8.5480003 1.281 1
5.4520001 -8.4779997 1.223 1
5.4510002 -8.5059996 1.092 1
5.4510002 -8.5469999 1.178 1
5.4520001 -8.5430002 1.27 1
5.4520001 -8.4689999 1.0420001 1
5.4520001 -8.4899998 1.224 1
5.4499998 -8.5550003 1.066 1
5.4510002 -8.5410004 1.094 1
5.4510002 -8.5030003 1.017 1
5.4520001 -8.4680004 1.119 1
5.4520001 -8.4759998 1.1799999 1
5.4520001 -8.46 1.086 1
5.4520001 -8.5439997 1.285 1
5.4510002 -8.4799995 1.025 1
5.4520001 -8.5080004 1.331 1
5.4510002 -8.5 1.05 1
5.4520001 -8.5120001 1.291 1
5.4530001 -8.4860001 1.273 1
5.4510002 -8.5 1.086 1
5.4510002 -8.5489998 1.256 1
5.4520001 -8.4759998 1.08 1
5.4510002 -8.5430002 1.104 1
5.4520001 -8.4860001 1.194 1
5.4510002 -8.552 1.253 1
5.4520001 -8.4530001 1.058 1
5.4510002 -8.5010004 1.1160001 1
5.4510002 -8.5019999 1.13 1
5.4520001 -8.4779997 1.127 1
5.4530001 -8.5 1.3380001 1
5.4520001 -8.5190001 1.293 1
5.4520001 -8.5240002 1.26 1
5.4530001 -8.4680004 1.255 1
5.4520001 -8.5059996 1.206 1
5.4510002 -8.5559998 1.154 1
5.4520001 -8.5129995 1.234 1
5.4530001 -8.4980001 1.319 1
5.4520001 -8.5019999 1.272 1
5.4520001 -8.46 1.034 1
5.4530001 -8.4540005 1.175 1
5.4520001 -8.4420004 1.0829999 1
5.4520001 -8.507 1.217 1
5.4520001 -8.5389996 1.2819999 1
5.4520001 -8.4560003 1.138 1
5.4520001 -8.4560003 1.081 1
5.4520001 -8.5129995 1.298 1
5.4520001 -8.467 1.079 1
5.4520001 -8.507 1.284 1
5.4510002 -8.5369997 1.1799999 1
5.4510002 -8.5310001 1.1619999 1
5.4520001 -8.5129995 1.251 1
5.4510002 -8.5550003 1.228 1
5.4499998 -8.5509996 1.016 1
5.4520001 -8.4899998 1.263 1
5.4520001 -8.5100002 1.1849999 1
5.4520001 -8.4460001 1.113 1
5.4510002 -8.5150003 1.04 1
5.4530001 -8.4820004 1.274 1
5.4499998 -8.5419998 1.062 1
5.4510002 -8.5349998 1.061 1
5.4510002 -8.533 1.156 1
5.4520001 -8.4399996 1.051 1
5.4520001 -8.4750004 1.092 1
5.4520001 -8.4630003 1.082 1
5.4520001 -8.493 1.278 1
5.4520001 -8.474 1.223 1
5.4520001 -8.4399996 1.063 1
5.4510002 -8.5220003 1.021 1
5.4510002 -8.4829998 1.0650001 1
5.4530001 -8.4890003 1.3049999 1
5.4520001 -8.5100002 1.21 1
5.4510002 -8.5100002 1.122 1
5.4520001 -8.4519997 1.137 1
5.4499998 -8.5439997 1.067 1
5.4499998 -8.533 1.026 1
5.4520001 -8.5150003 1.288 1
5.4520001 -8.4910002 1.244 1
5.4520001 -8.4639997 1.1059999 1
5.4510002 -8.5229998 1.028 1
5.4520001 -8.4770002 1.239 1
5.4510002 -8.5240002 1.095 1
5.4520001 -8.5010004 1.2410001 1
5.4520001 -8.4910002 1.158 1
5.4530001 -8.4499998 1.165 1
5.4520001 -8.4840002 1.122 1
5.4520001 -8.5 1.13 1
5.4499998 -8.5419998 1.048 1
5.4510002 -8.4910002 1.0190001 1
5.4520001 -8.5290003 1.275 1
5.4520001 -8.5369997 1.306 1
5.4510002 -8.474 1.0420001 1
5.4520001 -8.4490004 1.103 1
5.4520001 -8.4840002 1.1670001 1
5.4520001 -8.4490004 1.122 1
5.4520001 -8.5290003 1.2640001 1
5.4499998 -8.5299997 1.013 1
5.4510002 -8.5159998 1.089 1
5.4510002 -8.5059996 1.075 1
5.4520001 -8.5080004 1.189 1
5.4510002 -8.4969997 1.043 1
5.4510002 -8.54 1.155 1
5.4510002 -8.5439997 1.182 1
5.4530001 -8.467 1.212 1
5.4530001 -8.4809999 1.2970001 1
5.4510002 -8.5139999 1.132 1
5.4520001 -8.4639997 1.036 1
5.4520001 -8.5129995 1.217 1
5.4520001 -8.5190001 1.199 1
5.4520001 -8.4549999 1.069 1
5.4520001 -8.5 1.215 1
5.4520001 -8.5089998 1.221 1
5.4520001 -8.5220003 1.249 1
5.4520001 -8.5270004 1.279 1
5.4520001 -8.5220003 1.229 1
5.4499998 -8.5600004 1.076 1
5.4510002 -8.5279999 1.094 1
5.4520001 -8.4560003 1.149 1
5.4520001 -8.4980001 1.255 1
5.4510002 -8.533 1.214 1
5.4530001 -8.4899998 1.3099999 1
5.4520001 -8.5100002 1.158 1
5.4530001 -8.4790001 1.272 1
5.4510002 -8.5139999 1.064 1
5.4520001 -8.4530001 1.135 1
5.4530001 -8.4960003 1.335 1
5.4510002 -8.5600004 1.188 1
5.4510002 -8.5570002 1.24 1
5.4520001 -8.4759998 1.146 1
5.4499998 -8.5489998 1.066 1
5.4510002 -8.5150003 1.053 1
5.4520001 -8.4829998 1.079 1
5.4520001 -8.5380001 1.299 1
5.4520001 -8.4700003 1.062 1
5.4520001 -8.4580002 1.072 1
5.4510002 -8.4989996 1.024 1
5.4499998 -8.5389996 1.029 1
5.4499998 -8.533 1.024 1
5.4520001 -8.46 1.03 1
5.4510002 -8.5200005 1.1799999 1
5.4520001 -8.4940004 1.237 1
5.4520001 -8.5059996 1.199 1
5.4530001 -8.5089998 1.3609999 1
5.4499998 -8.5550003 1.038 1
5.4510002 -8.552 1.226 1
5.4510002 -8.5480003 1.1339999 1
5.4520001 -8.4899998 1.099 1
5.4520001 -8.5120001 1.335 1
5.4499998 -8.5509996 1.045 1
5.4520001 -8.5459995 1.309 1
5.4510002 -8.5559998 1.147 1
5.4510002 -8.5220003 1.094 1
5.4510002 -8.5430002 1.1950001 1
5.4530001 -8.448 1.156 1
5.4510002 -8.5050001 1.102 1
5.4520001 -8.5129995 1.2819999 1
5.4510002 -8.5489998 1.145 1
5.4510002 -8.4790001 1.045 1
5.4520001 -8.4790001 1.107 1
5.4520001 -8.4530001 1.0319999 1
5.4520001 -8.5010004 1.135 1
5.4520001 -8.4949999 1.1289999 1
5.4530001 -8.4560003 1.184 1
5.4499998 -8.5609999 1.0319999 1
5.4510002 -8.5319996 1.174 1
5.4510002 -8.5299997 1.1390001 1
5.4520001 -8.4960003 1.165 1
5.4510002 -8.5530005 1.239 1
5.4510002 -8.5229998 1.126 1
5.4530001 -8.5109997 1.3609999 1
5.4520001 -8.4519997 1.0369999 1
5.4520001 -8.4849997 1.084 1
5.4510002 -8.5509996 1.244 1
5.4520001 -8.5150003 1.215 1
5.4520001 -8.441 1.107 1
5.4520001 -8.4870005 1.1109999 1
5.4510002 -8.5459995 1.238 1
5.4510002 -8.5080004 1.031 1
5.4520001 -8.4399996 1.04 1
5.4520001 -8.5290003 1.253 1
5.4510002 -8.5150003 1.063 1
5.4510002 -8.5109997 1.033 1
5.4510002 -8.5489998 1.2690001 1
5.4510002 -8.4980001 1.072 1
5.4520001 -8.4569998 1.166 1
5.4520001 -8.4650002 1.099 1
5.4530001 -8.5039997 1.381 1
5.4520001 -8.4650002 1.175 1
5.4530001 -8.4569998 1.188 1
5.4510002 -8.5509996 1.17 1
5.4520001 -8.5030003 1.2920001 1
5.4520001 -8.4720001 1.152 1
5.4530001 -8.4399996 1.146 1
5.4530001 -8.4840002 1.2869999 1
5.4520001 -8.4460001 1.052 1
5.4499998 -8.5360003 1.015 1
5.4520001 -8.4870005 1.188 1
5.4520001 -8.4510002 1.029 1
5.4520001 -8.5380001 1.316 1
5.4520001 -8.4619999 1.142 1
5.4520001 -8.5150003 1.186 1
5.4520001 -8.4980001 1.173 1
5.4510002 -8.5089998 1.085 1
5.4520001 -8.4569998 1.135 1
5.4520001 -8.4759998 1.146 1
5.4520001 -8.4549999 1.11 1
5.4510002 -8.5190001 1.0190001 1
5.4510002 -8.54 1.153 1
5.4520001 -8.5039997 1.23 1
5.4510002 -8.4750004 1.027 1
5.4520001 -8.5109997 1.3279999 1
5.4520001 -8.5030003 1.181 1
5.4520001 -8.5209999 1.24 1
5.4510002 -8.4899998 1.0190001 1
5.4520001 -8.4949999 1.211 1
5.4520001 -8.4680004 1.209 1
5.4510002 -8.5190001 1.128 1
5.4499998 -8.5600004 1.094 1
5.4510002 -8.4960003 1.1059999 1
5.4510002 -8.4919996 1.054 1
5.4510002 -8.4890003 1.059 1
5.4530001 -8.4949999 1.353 1
5.4520001 -8.4910002 1.135 1
5.4520001 -8.4829998 1.08 1
5.4520001 -8.5249996 1.242 1
5.4520001 -8.4969997 1.126 1
5.4520001 -8.5509996 1.296 1
5.4510002 -8.5489998 1.1670001 1
5.4510002 -8.5340004 1.1440001 1
5.4520001 -8.4799995 1.234 1
5.4520001 -8.5150003 1.192 1
5.4510002 -8.5480003 1.115 1
5.4520001 -8.5109997 1.161 1
5.4510002 -8.5410004 1.224 1
5.4530001 -8.4680004 1.2309999 1
5.4520001 -8.5059996 1.204 1
5.4520001 -8.467 1.199 1
5.4520001 -8.4720001 1.1720001 1
5.4510002 -8.5579996 1.205 1
5.4520001 -8.4860001 1.189 1
5.4520001 -8.4779997 1.138 1
5.4520001 -8.4429998 1.069 1
5.4520001 -8.4940004 1.265 1
5.4520001 -8.4960003 1.2640001 1
5.4510002 -8.533 1.044 1
5.4510002 -8.5080004 1.11 1
5.4520001 -8.467 1.11 1
5.4520001 -8.5450001 1.268 1
5.4510002 -8.4840002 1.069 1
5.4530001 -8.5010004 1.327 1
5.4510002 -8.5489998 1.148 1
5.4510002 -8.5410004 1.1670001 1
5.4520001 -8.5270004 1.341 1
5.4499998 -8.5539999 1.031 1
5.4510002 -8.5469999 1.112 1
5.4520001 -8.4940004 1.221 1
5.4510002 -8.5360003 1.198 1
5.4520001 -8.5290003 1.2359999 1
5.4510002 -8.5089998 1.068 1
5.4510002 -8.4919996 1.098 1
5.4520001 -8.4750004 1.153 1
5.4520001 -8.4829998 1.26 1
5.4520001 -8.5080004 1.222 1
5.4520001 -8.4700003 1.059 1
5.4510002 -8.5129995 1.052 1
5.4510002 -8.5159998 1.15 1
5.4520001 -8.5129995 1.283 1
5.4530001 -8.4589996 1.193 1
5.4499998 -8.5439997 1.021 1
5.4520001 -8.4469995 1.091 1
5.4520001 -8.4399996 1.124 1
5.4520001 -8.4890003 1.227 1
5.4510002 -8.4899998 1.074 1
5.4520001 -8.4499998 1.067 1
5.4510002 -8.4960003 1.053 1
5.4510002 -8.5139999 1.14 1
5.4510002 -8.5579996 1.1720001 1
5.4520001 -8.5150003 1.284 1
5.4510002 -8.5120001 1.035 1
5.4510002 -8.54 1.099 1
5.4520001 -8.4969997 1.201 1
5.4530001 -8.4919996 1.289 1
5.4520001 -8.4799995 1.21 1
5.4510002 -8.5209999 1.173 1
5.4530001 -8.4919996 1.316 1
5.4520001 -8.4460001 1.1289999 1
5.4510002 -8.5489998 1.171 1
5.4520001 -8.4759998 1.156 1
5.4520001 -8.5150003 1.242 1
5.4520001 -8.4759998 1.146 1
5.4520001 -8.5369997 1.244 1
5.4510002 -8.559 1.137 1
5.4520001 -8.4910002 1.163 1
5.4530001 -8.4879999 1.291 1
5.4520001 -8.5450001 1.262 1
5.4510002 -8.5120001 1.125 1
5.4510002 -8.5059996 1.1109999 1
5.4510002 -8.5559998 1.192 1
5.4530001 -8.4580002 1.186 1
5.4520001 -8.4829998 1.154 1
5.4520001 -8.4779997 1.059 1
5.4520001 -8.4689999 1.1339999 1
5.4520001 -8.46 1.127 1
5.4520001 -8.4659996 1.025 1
5.4520001 -8.4879999 1.15 1
5.4520001 -8.5340004 1.24 1
5.4510002 -8.5290003 1.119 1
5.4520001 -8.4840002 1.238 1
5.4520001 -8.5050001 1.293 1
5.4520001 -8.4969997 1.149 1
5.4510002 -8.5570002 1.1799999 1
5.4510002 -8.5109997 1.033 1
5.4520001 -8.4820004 1.233 1
5.4510002 -8.5229998 1.145 1
5.4510002 -8.5480003 1.087 1
5.4520001 -8.5229998 1.353 1
5.4510002 -8.5089998 1.138 1
5.4520001 -8.5 1.196 1
5.4520001 -8.4989996 1.191 1
5.4530001 -8.4910002 1.324 1
5.4499998 -8.5609999 1.012 1
5.4520001 -8.5080004 1.169 1
5.4520001 -8.5159998 1.3150001 1
5.4510002 -8.533 1.073 1
5.4510002 -8.5200005 1.105 1
5.4510002 -8.533 1.212 1
5.4520001 -8.5129995 1.26 1
5.4520001 -8.5249996 1.219 1
5.4510002 -8.5419998 1.142 1
5.4520001 -8.5389996 1.276 1
5.4520001 -8.5150003 1.291 1
5.4510002 -8.5389996 1.238 1
5.4520001 -8.4650002 1.1670001 1
5.4510002 -8.5200005 1.169 1
5.4520001 -8.5389996 1.263 1
5.4520001 -8.507 1.181 1
5.4510002 -8.4709997 1.033 1
5.4530001 -8.46 1.222 1
5.4520001 -8.5360003 1.256 1
5.4510002 -8.5459995 1.1619999 1
5.4530001 -8.4790001 1.249 1
5.4520001 -8.4759998 1.186 1
5.4520001 -8.4460001 1.026 1
5.4520001 -8.4779997 1.086 1
5.447 -8.5349998 2.0280001 1
5.447 -8.5509996 2.0179999 1
5.447 -8.5609999 2.062 1
5.447 -8.5609999 1.9529999 1
5.447 -8.5380001 1.932 1
5.447 -8.5550003 2.046 1
5.447 -8.5290003 2.0120001 1
5.447 -8.5609999 2.0009999 1
5.447 -8.5600004 1.987 1
5.447 -8.5200005 1.9859999 1
5.447 -8.5310001 1.971 1
5.447 -8.5209999 2.0050001 1
5.447 -8.5380001 2.0380001 1
5.447 -8.552 2.0450001 1
5.447 -8.559 2.0150001 1
5.447 -8.5410004 2.0150001 1
5.447 -8.526 2.013 1
5.447 -8.5509996 2.0510001 1
5.447 -8.5489998 2.0190001 1
5.447 -8.5559998 1.9680001 1
5.447 -8.5489998 1.934 1
5.447 -8.5340004 1.9450001 1
5.447 -8.5299997 2.0209999 1
5.447 -8.5609999 1.933 1
5.447 -8.5600004 1.957 1
5.447 -8.5349998 2.0039999 1
5.447 -8.5129995 2.0050001 1
5.447 -8.5430002 1.9960001 1
5.447 -8.5319996 1.997 1
5.447 -8.5360003 2.013 1
5.4499998 -8.5469999 2.1459999 1
5.4549999 -8.4779997 2.1919999 1
5.4510002 -8.5489998 2.1789999 1
5.4559999 -8.5190001 2.2869999 1
5.448 -8.5600004 2.0899999 1
5.4590001 -8.4619999 2.2909999 1
5.4549999 -8.4829998 2.201 1
5.4520001 -8.4980001 2.148 1
5.454 -8.5209999 2.2390001 1
5.4569998 -8.4799995 2.2690001 1
5.4549999 -8.5279999 2.256 1
5.4489999 -8.5050001 2.0450001 1
5.4489999 -8.5380001 2.096 1
5.4489999 -8.5530005 2.115 1
5.4559999 -8.474 2.2130001 1
5.4530001 -8.526 2.207 1
5.4499998 -8.5609999 2.154 1
5.4499998 -8.5559998 2.1600001 1
5.4520001 -8.5109997 2.161 1
5.448 -8.5179996 2.029 1
5.4559999 -8.4799995 2.23 1
5.4499998 -8.5080004 2.0999999 1
5.4520001 -8.5600004 2.2190001 1
5.448 -8.5360003 2.0669999 1
5.448 -8.5209999 2.0380001 1
5.447 -8.5279999 2.033 1
5.4499998 -8.5539999 2.168 1
5.4549999 -8.4799995 2.197 1
5.4499998 -8.5059996 2.0739999 1
5.4510002 -8.5579996 2.188 1
5.4580002 -8.4709997 2.2839999 1
5.4569998 -8.4879999 2.283 1
5.4549999 -8.5310001 2.273 1
5.4559999 -8.507 2.2820001 1
5.4549999 -8.5109997 2.2320001 1
5.4530001 -8.5050001 2.175 1
5.4510002 -8.4969997 2.089 1
5.4499998 -8.5150003 2.102 1
5.4520001 -8.5579996 2.2379999 1
5.4489999 -8.559 2.125 1
5.4530001 -8.4820004 2.1459999 1
5.454 -8.5439997 2.266 1
5.4549999 -8.5200005 2.2650001 1
5.448 -8.5299997 2.0469999 1
5.454 -8.5489998 2.2750001 1
5.4530001 -8.5310001 2.2160001 1
5.4520001 -8.5279999 2.1819999 1
5.4559999 -8.5039997 2.2750001 1
5.448 -8.5200005 2.053 1
5.4520001 -8.4899998 2.131 1
5.4499998 -8.552 2.1570001 1
5.4510002 -8.4919996 2.1040001 1
5.4549999 -8.5349998 2.2909999 1
5.447 -8.5209999 2.0220001 1
5.4499998 -8.5369997 2.1340001 1
5.454 -8.4870005 2.1800001 1
5.4520001 -8.5430002 2.2049999 1
5.448 -8.5310001 2.0639999 1
5.4520001 -8.5340004 2.201 1
5.448 -8.5170002 2.0439999 1
5.4489999 -8.5170002 2.0650001 1
5.448 -8.5380001 2.0639999 1
5.4510002 -8.4960003 2.0899999 1
5.4559999 -8.5190001 2.2739999 1
5.4559999 -8.4729996 2.233 1
5.4530001 -8.4860001 2.135 1
5.4530001 -8.5450001 2.2360001 1
5.4499998 -8.5120001 2.1040001 1
5.4510002 -8.4980001 2.108 1
5.454 -8.5010004 2.207 1
5.4489999 -8.4960003 2.0450001 1
5.4580002 -8.4759998 2.2739999 1
5.4559999 -8.5159998 2.2750001 1
5.4530001 -8.5080004 2.177 1
5.448 -8.5129995 2.0350001 1
5.4549999 -8.4840002 2.21 1
5.454 -8.4849997 2.187 1
5.4549999 -8.5030003 2.22 1
5.4489999 -8.4969997 2.0469999 1
5.4530001 -8.5600004 2.2639999 1
5.447 -8.5179996 2.0209999 1
5.4549999 -8.5220003 2.2650001 1
5.4510002 -8.5109997 2.128 1
5.4580002 -8.4799995 2.293 1
5.4530001 -8.5530005 2.2360001 1
5.448 -8.5179996 2.0309999 1
5.4569998 -8.493 2.2780001 1
5.4530001 -8.4989996 2.155 1
5.4499998 -8.5059996 2.085 1
5.4580002 -8.4759998 2.2869999 1
5.4559999 -8.4989996 2.27 1
5.4530001 -8.5539999 2.24 1
5.4510002 -8.5489998 2.187 1
5.4520001 -8.5550003 2.2160001 1
5.4489999 -8.5170002 2.0710001 1
5.4549999 -8.5290003 2.27 1
5.448 -8.5139999 2.0420001 1
5.4520001 -8.5570002 2.21 1
5.4499998 -8.5050001 2.076 1
5.4549999 -8.4899998 2.223 1
5.4559999 -8.4940004 2.2579999 1
5.4499998 -8.5570002 2.1500001 1
5.447 -8.5570002 2.0799999 1
5.4489999 -8.5419998 2.108 1
5.4510002 -8.5290003 2.154 1
5.4489999 -8.5310001 2.1059999 1
5.448 -8.5030003 2.033 1
5.447 -8.5360003 2.0409999 1
5.4520001 -8.5430002 2.204 1
5.447 -8.5159998 2.0109999 1
5.4530001 -8.5159998 2.177 1
5.4590001 -8.4630003 2.2880001 1
5.4530001 -8.5609999 2.2690001 1
5.4580002 -8.4759998 2.2939999 1
5.4590001 -8.4630003 2.293 1
5.4530001 -8.5459995 2.221 1
5.4530001 -8.5489998 2.2320001 1
5.448 -8.559 2.1129999 1
5.447 -8.5539999 2.072 1
5.4510002 -8.5080004 2.118 1
5.4530001 -8.5480003 2.2460001 1
5.4499998 -8.5059996 2.0899999 1
5.447 -8.5530005 2.063 1
5.4520001 -8.4960003 2.1400001 1
5.4559999 -8.5059996 2.2609999 1
5.448 -8.5270004 2.053 1
5.4489999 -8.5310001 2.082 1
5.4499998 -8.493 2.0769999 1
5.4499998 -8.5469999 2.1400001 1
5.4520001 -8.5120001 2.151 1
5.4559999 -8.5290003 2.29 1
5.4510002 -8.507 2.105 1
5.4520001 -8.5310001 2.197 1
5.4520001 -8.5159998 2.1670001 1
5.454 -8.5450001 2.263 1
5.4559999 -8.5129995 2.2650001 1
5.4510002 -8.5500002 2.178 1
5.4569998 -8.4849997 2.256 1
5.4489999 -8.5229998 2.069 1
5.4520001 -8.5570002 2.214 1
5.4530001 -8.5120001 2.1930001 1
5.448 -8.526 2.05 1
5.4569998 -8.493 2.2920001 1
5.4499998 -8.5229998 2.119 1
5.4580002 -8.4849997 2.293 1
5.4520001 -8.4919996 2.1259999 1
5.454 -8.5480003 2.2739999 1
5.4489999 -8.552 2.128 1
5.4530001 -8.4910002 2.1440001 1
5.454 -8.5539999 2.277 1
5.4549999 -8.5270004 2.256 1
5.4530001 -8.5380001 2.221 1
5.4510002 -8.5439997 2.1630001 1
5.4499998 -8.5030003 2.0910001 1
5.4580002 -8.4829998 2.2809999 1
5.4559999 -8.4759998 2.2190001 1
5.454 -8.5100002 2.2060001 1
5.4559999 -8.4820004 2.234 1
5.4499998 -8.5249996 2.1040001 1
5.448 -8.5389996 2.063 1
5.448 -8.559 2.109 1
5.448 -8.5369997 2.0599999 1
5.4549999 -8.4799995 2.1949999 1
5.4580002 -8.4659996 2.279 1
5.4530001 -8.4899998 2.152 1
5.4549999 -8.5109997 2.2579999 1
5.4559999 -8.4870005 2.2290001 1
5.4569998 -8.4700003 2.2349999 1
5.448 -8.5340004 2.059 1
5.4489999 -8.5489998 2.1110001 1
5.4489999 -8.5380001 2.109 1
5.454 -8.5530005 2.28 1
5.4530001 -8.5579996 2.244 1
5.4499998 -8.5319996 2.112 1
5.4569998 -8.4750004 2.2609999 1
5.454 -8.5010004 2.2019999 1
5.4499998 -8.5129995 2.0929999 1
5.4549999 -8.5039997 2.24 1
5.448 -8.5419998 2.075 1
5.4510002 -8.5050001 2.112 1
5.448 -8.5480003 2.0880001 1
5.454 -8.4829998 2.181 1
5.4530001 -8.5509996 2.2460001 1
5.4510002 -8.5220003 2.131 1
5.454 -8.5100002 2.204 1
5.4499998 -8.5319996 2.1400001 1
5.4489999 -8.5389996 2.095 1
5.4549999 -8.4890003 2.2 1
5.4489999 -8.559 2.118 1
5.4530001 -8.5319996 2.207 1
5.447 -8.5340004 2.036 1
5.4549999 -8.5380001 2.2720001 1
5.4580002 -8.4759998 2.2909999 1
5.454 -8.5 2.1930001 1
5.4510002 -8.5089998 2.118 1
5.454 -8.5430002 2.2509999 1
5.4499998 -8.5209999 2.1199999 1
5.4520001 -8.5240002 2.1800001 1
5.4510002 -8.5319996 2.1470001 1
5.4530001 -8.4840002 2.1470001 1
5.4530001 -8.5039997 2.1860001 1
5.454 -8.5249996 2.2219999 1
5.4489999 -8.5080004 2.0680001 1
5.4530001 -8.5609999 2.2609999 1
5.4499998 -8.5579996 2.155 1
5.4520001 -8.5500002 2.2149999 1
5.4489999 -8.526 2.082 1
5.4489999 -8.5459995 2.1210001 1
5.4499998 -8.5600004 2.154 1
5.4580002 -8.4689999 2.2739999 1
5.4510002 -8.4960003 2.0899999 1
5.4520001 -8.5299997 2.1789999 1
5.4520001 -8.5150003 2.1630001 1
5.4679999 -8.4580002 0.017000001 1
5.4619999 -8.5299997 0.142 1
5.467 -8.4540005 0.039999999 1
5.4660001 -8.4729996 0.059999999 1
5.467 -8.4420004 0.063000001 1
5.4640002 -8.5319996 0.071000002 1
5.4629998 -8.5380001 0.112 1
5.4650002 -8.5170002 0.054000001 1
5.4650002 -8.5570002 0.022 1
5.4640002 -8.5419998 0.057999998 1
5.4619999 -8.5340004 0.152 1
5.4619999 -8.5620003 0.105 1
5.4660001 -8.4639997 0.072999999 1
5.4629998 -8.5089998 0.12 1
5.4640002 -8.5430002 0.057 1
5.4640002 -8.5240002 0.072999999 1
5.4650002 -8.5340004 0.044 1
5.4660001 -8.4849997 0.037999999 1
5.4640002 -8.5489998 0.052999999 1
5.4629998 -8.5240002 0.123 1
5.4650002 -8.4720001 0.1 1
5.4640002 -8.5450001 0.064000003 1
5.4640002 -8.5349998 0.048999999 1
5.4650002 -8.5480003 0.033 1
5.461 -8.54 0.17 1
5.4660001 -8.5120001 0.021 1
5.4619999 -8.5450001 0.133 1
5.4629998 -8.552 0.071000002 1
5.4640002 -8.4829998 0.108 1
5.4619999 -8.5279999 0.138 1
5.4629998 -8.5170002 0.12 1
5.467 -8.4790001 0.027000001 1
5.4629998 -8.5459995 0.103 1
5.4650002 -8.5220003 0.057999998 1
5.461 -8.5559998 0.154 1
5.4640002 -8.5190001 0.071000002 1
5.4619999 -8.5220003 0.15000001 1
5.4650002 -8.5200005 0.048 1
5.4660001 -8.4619999 0.082999997 1
5.46 -8.552 0.182 1
5.4650002 -8.5319996 0.025 1
5.467 -8.4779997 0.027000001 1
5.467 -8.4399996 0.059999999 1
5.467 -8.4779997 0.02 1
5.4640002 -8.5389996 0.064999998 1
5.4629998 -8.5489998 0.092 1
5.4660001 -8.5010004 0.030999999 1
5.4650002 -8.5139999 0.050999999 1
5.4660001 -8.4770002 0.064000003 1
5.4660001 -8.46 0.068000004 1
5.4650002 -8.5190001 0.041000001 1
5.4650002 -8.4849997 0.096000001 1
5.4650002 -8.507 0.050000001 1
5.467 -8.4420004 0.067000002 1
5.4650002 -8.4650002 0.085000001 1
5.4629998 -8.5120001 0.126 1
5.4640002 -8.5039997 0.106 1
5.4629998 -8.5209999 0.121 1
5.4650002 -8.4899998 0.086000003 1
5.4660001 -8.5139999 0.032000002 1
5.4640002 -8.5270004 0.066 1
5.4650002 -8.4890003 0.083999999 1
5.4660001 -8.4879999 0.035999998 1
5.461 -8.5310001 0.164 1
5.4660001 -8.5010004 0.037999999 1
5.4650002 -8.5209999 0.046 1
5.4650002 -8.474 0.088 1
5.4619999 -8.559 0.109 1
5.4619999 -8.5480003 0.12 1
5.4629998 -8.5459995 0.103 1
5.4640002 -8.5340004 0.054000001 1
5.4619999 -8.5360003 0.125 1
5.4660001 -8.4849997 0.041000001 1
5.4660001 -8.46 0.057999998 1
5.4640002 -8.5469999 0.052000001 1
5.461 -8.5469999 0.15000001 1
5.4660001 -8.4989996 0.035 1
5.46 -8.5539999 0.18000001 1
5.4660001 -8.5010004 0.037 1
5.4679999 -8.4460001 0.027000001 1
5.4650002 -8.4960003 0.067000002 1
5.467 -8.4610004 0.02 1
5.4650002 -8.5319996 0.050999999 1
5.4640002 -8.4940004 0.126 1
5.4650002 -8.4689999 0.090999998 1
5.4660001 -8.5039997 0.021 1
5.4650002 -8.5389996 0.021 1
5.4650002 -8.4899998 0.082999997 1
5.4650002 -8.493 0.064999998 1
5.46 -8.5530005 0.177 1
5.4629998 -8.5349998 0.119 1
5.4629998 -8.5209999 0.103 1
5.4619999 -8.5570002 0.113 1
5.461 -8.5539999 0.167 1
5.4660001 -8.4899998 0.046999998 1
5.4640002 -8.5609999 0.041000001 1
5.4640002 -8.5430002 0.075999998 1
5.4660001 -8.4610004 0.071999997 1
5.4660001 -8.4779997 0.039000001 1
5.4660001 -8.448 0.066 1
5.4660001 -8.5120001 0.024 1
5.467 -8.4569998 0.030999999 1
5.4629998 -8.5249996 0.111 1
5.4640002 -8.5550003 0.043000001 1
5.467 -8.4799995 0.025 1
5.4660001 -8.4709997 0.061999999 1
5.467 -8.4650002 0.028999999 1
5.4629998 -8.5190001 0.119 1
5.4640002 -8.5430002 0.050999999 1
5.4660001 -8.4870005 0.048999999 1
5.4640002 -8.5509996 0.035999998 1
5.467 -8.4499998 0.028999999 1
5.4660001 -8.4569998 0.059 1
5.4619999 -8.5229998 0.153 1
5.467 -8.4589996 0.033 1
5.4650002 -8.5229998 0.055 1
5.4640002 -8.5419998 0.068999998 1
5.4619999 -8.5349998 0.149 1
5.4629998 -8.5509996 0.101 1
5.4650002 -8.5410004 0.039999999 1
5.4619999 -8.5319996 0.138 1
5.467 -8.4490004 0.059999999 1
5.4629998 -8.5550003 0.093000002 1
5.4640002 -8.5489998 0.046 1
5.4660001 -8.4809999 0.052999999 1
5.4660001 -8.493 0.034000002 1
5.461 -8.5480003 0.147 1
5.4619999 -8.5340004 0.155 1
5.4660001 -8.4919996 0.043000001 1
5.461 -8.5310001 0.164 1
5.467 -8.4750004 0.033 1
5.4640002 -8.507 0.098999999 1
5.4660001 -8.4650002 0.078000002 1
5.4640002 -8.5290003 0.086999997 1
5.4650002 -8.5369997 0.027000001 1
5.4650002 -8.4770002 0.096000001 1
5.4660001 -8.5089998 0.017999999 1
5.4640002 -8.5380001 0.064000003 1
5.4629998 -8.5430002 0.090000004 1
5.4660001 -8.4940004 0.027000001 1
5.4549999 -8.5559998 0.60799998 1
5.4559999 -8.4969997 0.58899999 1
5.4530001 -8.5159998 0.824 1
5.4530001 -8.5469999 0.79900002 1
5.4549999 -8.54 0.58499998 1
5.4549999 -8.4799995 0.70499998 1
5.454 -8.5500002 0.70200002 1
5.4549999 -8.4820004 0.69700003 1
5.4559999 -8.5240002 0.51999998 1
5.4549999 -8.474 0.78799999 1
5.4520001 -8.5489998 0.85699999 1
5.454 -8.5109997 0.796 1
5.4549999 -8.5319996 0.58399999 1
5.4569998 -8.4989996 0.493 1
5.4569998 -8.4659996 0.56699997 1
5.4569998 -8.467 0.56199998 1
5.4569998 -8.507 0.51099998 1
5.4530001 -8.5570002 0.76599997 1
5.4530001 -8.5430002 0.75800002 1
5.4559999 -8.5319996 0.55599999 1
5.4549999 -8.5240002 0.66299999 1
5.4559999 -8.5249996 0.53299999 1
5.454 -8.5249996 0.74299997 1
5.4530001 -8.5430002 0.83999997 1
5.4530001 -8.5340004 0.79799998 1
5.454 -8.5559998 0.648 1
5.454 -8.559 0.61900002 1
5.4569998 -8.5050001 0.51899999 1
5.4549999 -8.5 0.74599999 1
5.454 -8.5550003 0.66399997 1
5.4549999 -8.4820004 0.708 1
5.4549999 -8.507 0.63999999 1
5.4569998 -8.5019999 0.53799999 1
5.4549999 -8.4899998 0.67799997 1
5.4530001 -8.5559998 0.80599999 1
5.4559999 -8.5120001 0.53399998 1
5.4559999 -8.4870005 0.59100002 1
5.4549999 -8.4940004 0.69700003 1
5.454 -8.5089998 0.72799999 1
5.4530001 -8.5170002 0.80800003 1
5.4569998 -8.4700003 0.56400001 1
5.454 -8.5039997 0.81099999 1
5.454 -8.5480003 0.72899997 1
5.4530001 -8.5299997 0.833 1
5.4559999 -8.4720001 0.69099998 1
5.4549999 -8.4779997 0.71600002 1
5.4580002 -8.4940004 0.449 1
5.4559999 -8.4829998 0.63200003 1
5.4580002 -8.4689999 0.47799999 1
5.4549999 -8.5129995 0.68400002 1
5.4549999 -8.4969997 0.72100002 1
5.4569998 -8.4890003 0.54400003 1
5.4549999 -8.4969997 0.65799999 1
5.4549999 -8.4630003 0.787 1
5.4559999 -8.5170002 0.60000002 1
5.454 -8.5380001 0.71399999 1
5.4549999 -8.467 0.73900002 1
5.454 -8.5019999 0.78100002 1
5.4569998 -8.4899998 0.56 1
5.454 -8.4899998 0.81199998 1
5.4549999 -8.5290003 0.61400002 1
5.4569998 -8.493 0.509 1
5.4580002 -8.474 0.42300001 1
5.4549999 -8.4799995 0.75 1
5.4530001 -8.5459995 0.75 1
5.4569998 -8.4770002 0.542 1
5.4569998 -8.493 0.54400003 1
5.4569998 -8.5019999 0.495 1
5.4549999 -8.5229998 0.63099998 1
5.4559999 -8.4799995 0.60500002 1
5.4559999 -8.4910002 0.66600001 1
5.4569998 -8.4759998 0.56 1
5.4549999 -8.5319996 0.57599998 1
5.4580002 -8.4720001 0.49200001 1
5.454 -8.5419998 0.69 1
5.4520001 -8.5480003 0.85600001 1
5.4549999 -8.5380001 0.63499999 1
5.4559999 -8.5220003 0.51499999 1
5.4530001 -8.5419998 0.84100002 1
5.4569998 -8.4790001 0.55199999 1
5.454 -8.5139999 0.741 1
5.4549999 -8.4899998 0.68699998 1
5.4559999 -8.4659996 0.63499999 1
5.4569998 -8.467 0.574 1
5.454 -8.474 0.815 1
5.4549999 -8.4919996 0.75400001 1
5.4580002 -8.4879999 0.456 1
5.4559999 -8.4969997 0.60500002 1
5.4549999 -8.5159998 0.66500002 1
5.4549999 -8.5439997 0.61000001 1
5.4559999 -8.4659996 0.66500002 1
5.4559999 -8.4820004 0.65899998 1
5.4590001 -8.4709997 0.405 1
5.4559999 -8.5190001 0.602 1
5.454 -8.5349998 0.72100002 1
5.4549999 -8.4770002 0.722 1
5.454 -8.5010004 0.78100002 1
5.4530001 -8.5489998 0.78600001 1
5.4559999 -8.5089998 0.53899997 1
5.4530001 -8.5380001 0.77399999 1
5.4569998 -8.4969997 0.55000001 1
5.4530001 -8.5579996 0.75099999 1
5.4559999 -8.4680004 0.648 1
5.4569998 -8.4689999 0.57300001 1
5.4549999 -8.4809999 0.70899999 1
5.4549999 -8.4840002 0.74599999 1
5.4549999 -8.4949999 0.69 1
5.4559999 -8.5249996 0.52200001 1
5.4569998 -8.474 0.56999999 1
5.4559999 -8.5310001 0.54400003 1
5.4569998 -8.5059996 0.47499999 1
5.4569998 -8.5010004 0.523 1
5.4549999 -8.5249996 0.59200001 1
5.4549999 -8.493 0.66900003 1
5.4549999 -8.4750004 0.73900002 1
5.4530001 -8.5419998 0.82200003 1
5.4549999 -8.5030003 0.71600002 1
5.454 -8.5349998 0.67000002 1
5.4520001 -8.5600004 0.84600002 1
5.4559999 -8.5120001 0.60699999 1
5.4520001 -8.5530005 0.85100001 1
5.4549999 -8.5120001 0.66799998 1
5.4569998 -8.4759998 0.50700003 1
5.4549999 -8.5389996 0.57700002 1
5.4559999 -8.4949999 0.57999998 1
5.4549999 -8.5380001 0.58499998 1
5.454 -8.5579996 0.63599998 1
5.4549999 -8.4790001 0.74299997 1
5.4569998 -8.4849997 0.50400001 1
5.4549999 -8.4809999 0.77200001 1
5.4559999 -8.5229998 0.56800002 1
5.454 -8.5129995 0.81400001 1
5.4549999 -8.5030003 0.71700001 1
5.4559999 -8.5170002 0.551 1
5.4559999 -8.4949999 0.63099998 1
5.4520001 -8.5530005 0.83899999 1
5.4530001 -8.5139999 0.82099998 1
5.4549999 -8.4870005 0.74199998 1
5.4530001 -8.5349998 0.85500002 1
5.454 -8.4969997 0.787 1
5.454 -8.5459995 0.66100001 1
5.4549999 -8.5039997 0.69 1
5.4569998 -8.4919996 0.51300001 1
5.454 -8.5579996 0.65399998 1
5.4559999 -8.5129995 0.61400002 1
5.4559999 -8.4910002 0.66600001 1
5.4530001 -8.5459995 0.77100003 1
5.4569998 -8.4790001 0.50400001 1
5.4520001 -8.5509996 0.87099999 1
5.4569998 -8.4680004 0.579 1
5.4569998 -8.5050001 0.51499999 1
5.454 -8.5410004 0.75 1
5.454 -8.5089998 0.74400002 1
5.4559999 -8.4790001 0.60299999 1
5.4549999 -8.4890003 0.69499999 1
5.4590001 -8.4720001 0.40200001 1
5.4549999 -8.5129995 0.69199997 1
5.4559999 -8.5200005 0.56300002 1
5.4559999 -8.4969997 0.60100001 1
5.454 -8.5229998 0.73100001 1
5.4549999 -8.5480003 0.58499998 1
5.454 -8.5550003 0.62900001 1
5.4580002 -8.4809999 0.44100001 1
5.4580002 -8.4770002 0.491 1
5.4549999 -8.4750004 0.79299998 1
5.4549999 -8.4689999 0.71799999 1
5.4549999 -8.467 0.77899998 1
5.4559999 -8.4689999 0.67699999 1
5.454 -8.5310001 0.73100001 1
5.4590001 -8.474 0.39199999 1
5.4559999 -8.5190001 0.57300001 1
5.4569998 -8.4989996 0.46399999 1
5.4549999 -8.493 0.71100003 1
5.454 -8.5389996 0.69999999 1
5.454 -8.5109997 0.79799998 1
5.4559999 -8.4829998 0.611 1
5.4549999 -8.4899998 0.72799999 1
5.4530001 -8.5279999 0.78899997 1
5.4559999 -8.4790001 0.60100001 1
5.454 -8.5609999 0.61299998 1
5.4559999 -8.5080004 0.58999997 1
5.454 -8.4989996 0.80199999 1
5.4549999 -8.4980001 0.70200002 1
5.4559999 -8.4910002 0.65700001 1
5.4549999 -8.4779997 0.77700001 1
5.4549999 -8.5039997 0.64999998 1
5.4549999 -8.4870005 0.76499999 1
5.4559999 -8.5039997 0.54500002 1
5.4559999 -8.5159998 0.51800001 1
5.4559999 -8.4820004 0.59399998 1
5.454 -8.4840002 0.79500002 1
5.4580002 -8.4790001 0.442 1
5.4549999 -8.5369997 0.65700001 1
5.4549999 -8.5469999 0.61199999 1
5.4569998 -8.4750004 0.51300001 1
5.4549999 -8.5439997 0.64099997 1
5.4530001 -8.5319996 0.83600003 1
5.4549999 -8.5310001 0.62 1
5.4549999 -8.4659996 0.72899997 1
5.454 -8.4989996 0.79400003 1
5.454 -8.5240002 0.75099999 1
5.4530001 -8.5439997 0.792 1
5.454 -8.5319996 0.72000003 1
5.4559999 -8.5229998 0.59299999 1
5.4530001 -8.5190001 0.82599998 1
5.454 -8.5 0.79500002 1
5.454 -8.474 0.80800003 1
5.4530001 -8.5489998 0.74900001 1
5.4530001 -8.5190001 0.84899998 1
5.4580002 -8.4870005 0.435 1
5.4559999 -8.5139999 0.60000002 1
5.454 -8.5579996 0.69999999 1
5.4559999 -8.5050001 0.546 1
5.4549999 -8.5299997 0.662 1
5.4549999 -8.4820004 0.773 1
5.454 -8.5010004 0.75700003 1
5.4559999 -8.5109997 0.59500003 1
5.4559999 -8.4940004 0.64700001 1
5.454 -8.5489998 0.69099998 1
5.4549999 -8.5310001 0.67299998 1
5.4569998 -8.4860001 0.52499998 1
5.4580002 -8.4689999 0.46000001 1
5.454 -8.5290003 0.68400002 1
5.4559999 -8.5220003 0.58999997 1
5.454 -8.5170002 0.73199999 1
5.454 -8.5469999 0.65799999 1
5.4549999 -8.5319996 0.57800001 1
5.454 -8.559 0.69400001 1
5.4569998 -8.4860001 0.53899997 1
5.454 -8.5270004 0.74900001 1
5.4549999 -8.5080004 0.64099997 1
5.4520001 -8.5570002 0.86799997 1
5.4549999 -8.4779997 0.72899997 1
5.4549999 -8.4809999 0.75800002 1
5.4549999 -8.4790001 0.72799999 1
5.454 -8.526 0.73100001 1
5.4559999 -8.4890003 0.662 1
5.4530001 -8.5539999 0.75 1
5.4530001 -8.5570002 0.80599999 1
5.4530001 -8.526 0.85100001 1
5.4569998 -8.4680004 0.58200002 1
5.4530001 -8.5570002 0.80000001 1
5.454 -8.5100002 0.815 1
5.4530001 -8.5509996 0.76499999 1
5.4530001 -8.5439997 0.82999998 1
5.4549999 -8.5019999 0.73400003 1
5.4559999 -8.5349998 0.551 1
5.4580002 -8.4840002 0.412 1
5.4549999 -8.5129995 0.704 1
5.454 -8.5489998 0.667 1
5.4530001 -8.5360003 0.83099997 1
5.4559999 -8.4700003 0.67500001 1
5.4559999 -8.474 0.685 1
5.4580002 -8.4689999 0.46799999 1
5.4549999 -8.5410004 0.634 1
5.4530001 -8.5229998 0.79500002 1
5.4580002 -8.4680004 0.46000001 1
5.454 -8.5459995 0.66799998 1
5.4549999 -8.5439997 0.60500002 1
5.4559999 -8.4759998 0.67299998 1
5.4559999 -8.5050001 0.57099998 1
5.454 -8.5120001 0.773 1
5.4530001 -8.5430002 0.75 1
5.4549999 -8.4919996 0.68699998 1
5.4530001 -8.552 0.73299998 1
5.4580002 -8.4890003 0.44 1
5.4569998 -8.4919996 0.55500001 1
5.454 -8.5080004 0.76200002 1
5.4549999 -8.5369997 0.64399999 1
5.454 -8.526 0.708 1
5.454 -8.5039997 0.82800001 1
5.4569998 -8.4809999 0.565 1
5.4569998 -8.5170002 0.51099998 1
5.4559999 -8.5299997 0.55900002 1
5.4530001 -8.5489998 0.77899998 1
5.4549999 -8.5 0.64700001 1
5.4569998 -8.4750004 0.57499999 1
5.4549999 -8.507 0.68300003 1
5.4549999 -8.533 0.667 1
5.4549999 -8.4759998 0.73000002 1
5.4530001 -8.5530005 0.75599998 1
5.4559999 -8.4809999 0.65100002 1
5.4580002 -8.4729996 0.456 1
5.4530001 -8.552 0.81199998 1
5.4580002 -8.4779997 0.46000001 1
5.4569998 -8.4759998 0.505 1
5.4580002 -8.4809999 0.41999999 1
5.4569998 -8.4820004 0.53899997 1
5.4530001 -8.552 0.81599998 1
5.4549999 -8.474 0.71399999 1
5.454 -8.507 0.773 1
5.4559999 -8.5139999 0.546 1
5.4549999 -8.5509996 0.61400002 1
5.4530001 -8.5559998 0.81099999 1
5.4549999 -8.4890003 0.699 1
5.4569998 -8.4960003 0.514 1
5.4530001 -8.5570002 0.75800002 1
5.4569998 -8.5030003 0.505 1
5.4580002 -8.4829998 0.42699999 1
5.4530001 -8.5530005 0.79100001 1
5.4549999 -8.5430002 0.61299998 1
5.4520001 -8.5620003 0.861 1
5.4569998 -8.4960003 0.52200001 1
5.4549999 -8.5439997 0.602 1
5.4559999 -8.4759998 0.63800001 1
5.4580002 -8.4790001 0.44600001 1
5.4559999 -8.4949999 0.56900001 1
5.4549999 -8.4829998 0.75099999 1
5.4530001 -8.5550003 0.76200002 1
5.4549999 -8.5509996 0.611 1
5.4549999 -8.5530005 0.61000001 1
5.4549999 -8.5559998 0.59799999 1
5.4549999 -8.4720001 0.79000002 1
5.4530001 -8.5430002 0.82599998 1
5.4530001 -8.5450001 0.76800001 1
5.454 -8.5019999 0.80199999 1
5.454 -8.4759998 0.81099999 1
5.454 -8.5369997 0.745 1
5.4559999 -8.4829998 0.64099997 1
5.4549999 -8.474 0.72000003 1
5.454 -8.5240002 0.76599997 1
5.454 -8.5369997 0.745 1
5.4559999 -8.4799995 0.63 1
5.4530001 -8.5539999 0.79799998 1
5.454 -8.5249996 0.72100002 1
5.4530001 -8.5120001 0.83700001 1
5.454 -8.5609999 0.65100002 1
5.454 -8.5129995 0.80199999 1
5.454 -8.5340004 0.708 1
5.4549999 -8.4960003 0.65799999 1
5.4559999 -8.4639997 0.71399999 1
5.454 -8.5120001 0.76899999 1
5.4569998 -8.4840002 0.56599998 1
5.4530001 -8.5229998 0.81099999 1
5.454 -8.5459995 0.72299999 1
5.454 -8.493 0.76999998 1
5.4499998 -8.5209999 1.599 1
5.448 -8.5229998 1.823 1
5.4489999 -8.5389996 1.706 1
5.448 -8.5550003 1.755 1
5.4510002 -8.533 1.4910001 1
5.4489999 -8.5340004 1.6720001 1
5.4499998 -8.5530005 1.591 1
5.4489999 -8.5170002 1.755 1
5.4510002 -8.5410004 1.488 1
5.4530001 -8.507 1.403 1
5.4499998 -8.5550003 1.585 1
5.448 -8.559 1.773 1
5.448 -8.5220003 1.887 1
5.447 -8.5380001 1.899 1
5.4510002 -8.526 1.502 1
5.4510002 -8.5170002 1.597 1
5.4510002 -8.5319996 1.461 1
5.447 -8.5430002 1.902 1
5.448 -8.5299997 1.778 1
5.4499998 -8.5310001 1.626 1
5.4510002 -8.5380001 1.4680001 1
5.4489999 -8.507 1.812 1
5.4499998 -8.5450001 1.572 1
5.4499998 -8.5450001 1.5369999 1
5.447 -8.5100002 1.956 1
5.447 -8.5550003 1.882 1
5.448 -8.5579996 1.701 1
5.4489999 -8.5150003 1.7819999 1
5.4510002 -8.5240002 1.4859999 1
5.448 -8.5469999 1.77 1
5.4499998 -8.5159998 1.689 1
5.4499998 -8.5349998 1.559 1
5.448 -8.5489998 1.791 1
5.4499998 -8.5039997 1.719 1
5.4499998 -8.5380001 1.608 1
5.448 -8.5469999 1.756 1
5.4489999 -8.5059996 1.8279999 1
5.448 -8.5299997 1.849 1
5.4489999 -8.5150003 1.72 1
5.4489999 -8.5059996 1.742 1
5.448 -8.5369997 1.84 1
5.4510002 -8.5319996 1.549 1
5.4510002 -8.5190001 1.523 1
5.447 -8.5600004 1.888 1
5.4520001 -8.507 1.469 1
5.4520001 -8.5229998 1.473 1
5.4489999 -8.5229998 1.749 1
5.4520001 -8.5310001 1.457 1
5.447 -8.5229998 1.9220001 1
5.448 -8.5609999 1.739 1
5.4489999 -8.5380001 1.729 1
5.4489999 -8.5360003 1.705 1
5.4520001 -8.5249996 1.462 1
5.4499998 -8.5369997 1.623 1
5.4489999 -8.54 1.653 1
5.448 -8.5129995 1.874 1
5.4510002 -8.5229998 1.523 1
5.4499998 -8.5150003 1.62 1
5.4499998 -8.5209999 1.6569999 1
5.4499998 -8.5240002 1.6440001 1
5.4510002 -8.5159998 1.531 1
5.4510002 -8.507 1.604 1
5.4489999 -8.5389996 1.716 1
5.4489999 -8.5600004 1.6289999 1
5.4520001 -8.5380001 1.441 1
5.4499998 -8.5550003 1.566 1
5.447 -8.5539999 1.864 1
5.4510002 -8.5089998 1.612 1
5.4489999 -8.5039997 1.8380001 1
5.4499998 -8.5279999 1.666 1
5.4499998 -8.5369997 1.557 1
5.448 -8.5139999 1.8710001 1
5.4499998 -8.5360003 1.638 1
5.4510002 -8.5089998 1.5880001 1
5.4489999 -8.5360003 1.702 1
5.447 -8.5410004 1.876 1
5.4520001 -8.5229998 1.47 1
5.448 -8.5120001 1.886 1
5.4499998 -8.5229998 1.6 1
5.4520001 -8.5059996 1.462 1
5.4499998 -8.5129995 1.678 1
5.4499998 -8.5200005 1.6900001 1
5.448 -8.5129995 1.909 1
5.4510002 -8.5100002 1.5700001 1
5.4499998 -8.533 1.653 1
5.448 -8.5059996 1.897 1
5.4489999 -8.5290003 1.723 1
5.4520001 -8.5139999 1.4400001 1
5.448 -8.5039997 1.85 1
5.4510002 -8.5220003 1.569 1
5.4520001 -8.5249996 1.4579999 1
5.4499998 -8.5139999 1.6440001 1
5.4489999 -8.5419998 1.735 1
5.4489999 -8.5609999 1.609 1
5.4499998 -8.5530005 1.584 1
5.4499998 -8.5439997 1.566 1
5.4489999 -8.5469999 1.627 1
5.4520001 -8.5340004 1.4349999 1
5.4499998 -8.5530005 1.548 1
5.4520001 -8.5109997 1.45 1
5.448 -8.5500002 1.72 1
5.4489999 -8.5469999 1.715 1
5.448 -8.5039997 1.8789999 1
5.4499998 -8.5089998 1.6289999 1
5.448 -8.5279999 1.7920001 1
5.4489999 -8.5369997 1.7 1
5.4499998 -8.5310001 1.66 1
5.448 -8.5459995 1.786 1
5.4489999 -8.5080004 1.788 1
5.448 -8.5489998 1.737 1
5.4520001 -8.5120001 1.4630001 1
5.4510002 -8.5389996 1.45 1
5.4510002 -8.5159998 1.598 1
5.447 -8.5469999 1.867 1
5.448 -8.5459995 1.821 1
5.448 -8.5249996 1.8380001 1
5.4489999 -8.5450001 1.7079999 1
5.4499998 -8.5480003 1.5779999 1
5.447 -8.559 1.8279999 1
5.4489999 -8.5480003 1.637 1
5.4489999 -8.5310001 1.744 1
5.4499998 -8.5369997 1.558 1
5.448 -8.5419998 1.832 1
5.448 -8.5179996 1.821 1
5.4489999 -8.5450001 1.719 1
5.4489999 -8.5270004 1.732 1
5.4499998 -8.5439997 1.543 1
5.447 -8.5299997 1.886 1
5.448 -8.559 1.76 1
5.4499998 -8.5550003 1.524 1
5.4489999 -8.5319996 1.7130001 1
5.4499998 -8.5459995 1.623 1
5.4520001 -8.5139999 1.4170001 1
5.4489999 -8.5480003 1.671 1
5.447 -8.5430002 1.89 1
5.448 -8.5159998 1.816 1
5.448 -8.5489998 1.807 1
5.448 -8.5459995 1.742 1
5.4499998 -8.5190001 1.698 1
5.4489999 -8.5299997 1.7029999 1
5.448 -8.5340004 1.796 1
5.4510002 -8.5450001 1.4910001 1
5.448 -8.5319996 1.867 1
5.4489999 -8.5170002 1.757 1
5.4520001 -8.5139999 1.423 1
5.4489999 -8.5500002 1.627 1
5.4510002 -8.5310001 1.479 1
5.4530001 -8.5050001 1.41 1
5.4510002 -8.5439997 1.523 1
5.4510002 -8.533 1.5039999 1
5.4499998 -8.5080004 1.655 1
5.447 -8.5190001 1.956 1
5.4489999 -8.552 1.707 1
5.4499998 -8.5360003 1.645 1
5.4489999 -8.5100002 1.817 1
5.4489999 -8.5459995 1.641 1
5.447 -8.5419998 1.8890001 1
5.447 -8.5150003 1.954 1
5.4499998 -8.526 1.597 1
5.4520001 -8.5360003 1.449 1
5.4499998 -8.5430002 1.602 1
5.4520001 -8.5220003 1.418 1
5.447 -8.5139999 1.937 1
5.448 -8.559 1.7640001 1
5.447 -8.5389996 1.868 1
5.4489999 -8.5150003 1.786 1
5.447 -8.5030003 1.9529999 1
5.4510002 -8.5139999 1.59 1
5.4510002 -8.5109997 1.528 1
5.4510002 -8.5500002 1.479 1
5.4520001 -8.5159998 1.441 1
5.448 -8.559 1.7309999 1
5.447 -8.559 1.816 1
5.4510002 -8.5450001 1.446 1
5.448 -8.5310001 1.867 1
5.448 -8.5030003 1.89 1
5.4489999 -8.5109997 1.7920001 1
5.4499998 -8.5290003 1.67 1
5.4489999 -8.5439997 1.643 1
5.4510002 -8.54 1.521 1
5.4489999 -8.5209999 1.702 1
5.4499998 -8.5209999 1.674 1
5.4499998 -8.5089998 1.666 1
5.448 -8.5360003 1.826 1
5.448 -8.5080004 1.919 1
5.4499998 -8.5530005 1.585 1
5.4499998 -8.5139999 1.699 1
5.448 -8.5290003 1.7819999 1
5.4510002 -8.5509996 1.508 1
5.4489999 -8.5190001 1.804 1
5.4489999 -8.5249996 1.738 1
5.4510002 -8.5100002 1.576 1
5.4510002 -8.5039997 1.562 1
5.448 -8.5249996 1.848 1
5.4489999 -8.5299997 1.767 1
5.448 -8.5059996 1.88 1
5.4510002 -8.5139999 1.52 1
5.4520001 -8.5220003 1.42 1
5.4499998 -8.5439997 1.541 1
5.447 -8.5310001 1.883 1
5.447 -8.5159998 1.951 1
5.448 -8.526 1.858 1
5.448 -8.5500002 1.745 1
5.448 -8.5249996 1.855 1
5.4499998 -8.5410004 1.6339999 1
5.4520001 -8.5200005 1.432 1
5.4489999 -8.5179996 1.78 1
5.4499998 -8.5200005 1.598 1
5.4510002 -8.5509996 1.462 1
5.448 -8.5389996 1.846 1
5.4510002 -8.5410004 1.476 1
5.4499998 -8.5299997 1.645 1
5.4510002 -8.5469999 1.476 1
5.4510002 -8.5369997 1.452 1
5.4489999 -8.552 1.711 1
5.4489999 -8.5380001 1.745 1
5.4499998 -8.5419998 1.562 1
5.4499998 -8.5220003 1.6569999 1
5.4499998 -8.5279999 1.618 1
5.4489999 -8.5200005 1.763 1
5.4510002 -8.5539999 1.464 1
5.4520001 -8.5159998 1.455 1
5.447 -8.559 1.888 1
5.4510002 -8.5340004 1.557 1
5.4499998 -8.5609999 1.569 1
5.4510002 -8.5159998 1.539 1
5.4510002 -8.5220003 1.5369999 1
5.447 -8.5450001 1.904 1
5.447 -8.5240002 1.941 1
5.4499998 -8.5279999 1.6289999 1
5.448 -8.5150003 1.869 1
5.4510002 -8.5159998 1.541 1
5.447 -8.5430002 1.91 1
5.4520001 -8.5109997 1.5 1
5.4520001 -8.5139999 1.507 1
5.4510002 -8.5340004 1.5319999 1
5.4489999 -8.526 1.74 1
5.4510002 -8.5270004 1.498 1
5.4489999 -8.5129995 1.737 1
5.4510002 -8.5550003 1.482 1
5.447 -8.5410004 1.851 1
5.4499998 -8.5530005 1.536 1
5.447 -8.5620003 1.8150001 1
5.4510002 -8.5310001 1.511 1
5.447 -8.5530005 1.888 1
5.4510002 -8.533 1.53 1
5.4520001 -8.5139999 1.5039999 1
5.448 -8.5139999 1.832 1
5.4499998 -8.5340004 1.655 1
5.4510002 -8.5179996 1.573 1
5.4489999 -8.5600004 1.6289999 1
5.4520001 -8.5190001 1.424 1
5.4499998 -8.5579996 1.554 1
5.447 -8.5509996 1.872 1
5.4510002 -8.5270004 1.5369999 1
5.448 -8.5100002 1.904 1
5.4489999 -8.5380001 1.737 1
5.447 -8.5550003 1.869 1
5.4510002 -8.5089998 1.556 1
5.4510002 -8.5500002 1.471 1
5.448 -8.5270004 1.874 1
5.4510002 -8.5150003 1.5369999 1
5.4489999 -8.5410004 1.675 1
5.4520001 -8.5170002 1.41 1
5.447 -8.552 1.89 1
5.448 -8.5190001 1.804 1
5.4520001 -8.5089998 1.4529999 1
5.4520001 -8.5270004 1.4400001 1
5.448 -8.5369997 1.788 1
5.4520001 -8.526 1.459 1
5.4499998 -8.5279999 1.575 1
5.4499998 -8.5139999 1.632 1
5.448 -8.526 1.818 1
5.447 -8.5360003 1.919 1
5.4520001 -8.5319996 1.441 1
5.448 -8.5050001 1.887 1
5.4499998 -8.5200005 1.658 1
5.447 -8.5539999 1.8329999 1
5.448 -8.552 1.779 1
5.4520001 -8.5179996 1.438 1
5.4520001 -8.526 1.425 1
5.4499998 -8.5150003 1.632 1
5.4640002 -8.4759998 0.114 1
5.4629998 -8.4849997 0.123 1
5.46 -8.4650002 0.139 1
5.4590001 -8.493 0.164 1
5.4629998 -8.4619999 0.11 1
5.4559999 -8.5489998 0.219 1
5.461 -8.5 0.153 1
5.4590001 -8.5369997 0.189 1
5.4629998 -8.474 0.115 1
5.4580002 -8.5229998 0.18799999 1
5.461 -8.4429998 0.112 1
5.461 -8.4510002 0.116 1
5.4619999 -8.5019999 0.146 1
5.4580002 -8.5349998 0.19499999 1
5.4640002 -8.4429998 0.093000002 1
5.4619999 -8.4460001 0.106 1
5.4590001 -8.4420004 0.131 1
5.4650002 -8.4569998 0.090000004 1
5.4580002 -8.4770002 0.162 1
5.4580002 -8.474 0.15899999 1
5.461 -8.5179996 0.16 1
5.4650002 -8.4560003 0.092 1
5.4580002 -8.4469995 0.13600001 1
5.46 -8.5419998 0.183 1
5.4590001 -8.4899998 0.15700001 1
5.4590001 -8.5430002 0.193 1
5.461 -8.4960003 0.147 1
5.461 -8.5229998 0.161 1
5.4580002 -8.5 0.176 1
5.4569998 -8.507 0.189 1
5.4650002 -8.4569998 0.090000004 1
5.46 -8.4799995 0.149 1
5.4650002 -8.4610004 0.093999997 1
5.4569998 -8.5159998 0.191 1
5.461 -8.4580002 0.127 1
5.4629998 -8.4840002 0.123 1
5.461 -8.5019999 0.155 1
5.46 -8.5550003 0.19599999 1
5.46 -8.5340004 0.176 1
5.461 -8.5129995 0.156 1
5.46 -8.4689999 0.14 1
5.46 -8.4960003 0.15899999 1
5.4569998 -8.4940004 0.176 1
5.4580002 -8.5550003 0.205 1
5.46 -8.4619999 0.13600001 1
5.4619999 -8.5050001 0.14399999 1
5.4619999 -8.4980001 0.142 1
5.4580002 -8.5349998 0.197 1
5.4660001 -8.4420004 0.079000004 1
5.46 -8.4729996 0.139 1
5.4559999 -8.4940004 1.581 1
5.46 -8.4870005 1.508 1
5.4569998 -8.4919996 1.553 1
5.4629998 -8.4840002 1.426 1
5.4569998 -8.4960003 1.423 1
5.4530001 -8.5010004 1.58 1
5.4559999 -8.4980001 1.423 1
5.4629998 -8.4809999 1.485 1
5.4660001 -8.4750004 1.5 1
5.4590001 -8.4899998 1.5190001 1
5.4520001 -8.5 1.7029999 1
5.4549999 -8.4940004 1.655 1
5.461 -8.4870005 1.429 1
5.4640002 -8.4770002 1.594 1
5.4510002 -8.5019999 1.722 1
5.461 -8.4820004 1.626 1
5.4580002 -8.4940004 1.4069999 1
5.4580002 -8.4870005 1.717 1
5.4629998 -8.4790001 1.603 1
5.4530001 -8.4940004 1.796 1
5.4580002 -8.4940004 1.45 1
5.454 -8.5 1.5420001 1
5.4559999 -8.4960003 1.5039999 1
5.4660001 -8.474 1.507 1
5.4530001 -8.4940004 1.818 1
5.4530001 -8.4969997 1.768 1
5.4710002 -8.4659996 1.428 1
5.4660001 -8.4759998 1.433 1
5.4640002 -8.4790001 1.536 1
5.461 -8.4849997 1.525 1
5.4549999 -8.4969997 1.515 1
5.4699998 -8.4689999 1.425 1
5.4530001 -8.4969997 1.701 1
5.461 -8.4870005 1.448 1
5.4499998 -8.5 1.8839999 1
5.4650002 -8.4779997 1.4680001 1
5.4569998 -8.4919996 1.584 1
5.4520001 -8.4989996 1.732 1
5.448 -8.5019999 1.931 1
5.4679999 -8.4720001 1.4579999 1
5.4619999 -8.4860001 1.4299999 1
5.4549999 -8.493 1.733 1
5.4569998 -8.4910002 1.601 1
5.4549999 -8.493 1.692 1
5.4549999 -8.493 1.727 1
5.4559999 -8.4910002 1.715 1
5.4640002 -8.4799995 1.4960001 1
5.4590001 -8.4879999 1.589 1
5.4699998 -8.4680004 1.433 1
5.4650002 -8.4770002 1.472 1
5.4569998 -8.4940004 1.48 1
5.4640002 -8.4790001 1.567 1
5.4569998 -8.4890003 1.707 1
5.4559999 -8.4980001 1.462 1
5.4699998 -8.4680004 1.461 1
5.467 -8.474 1.483 1
5.4499998 -8.5039997 1.666 1
5.4530001 -8.4960003 1.775 1
5.4549999 -8.5 1.4170001 1
5.4559999 -8.493 1.6339999 1
5.4580002 -8.4910002 1.5650001 1
5.4569998 -8.4940004 1.5369999 1
5.4549999 -8.493 1.725 1
5.4640002 -8.4779997 1.525 1
5.4580002 -8.4910002 1.55 1
5.454 -8.5019999 1.4299999 1
5.4580002 -8.4890003 1.619 1
5.4559999 -8.4890003 1.77 1
5.4569998 -8.4899998 1.691 1
5.4530001 -8.4949999 1.791 1
5.4640002 -8.4770002 1.554 1
5.4559999 -8.4890003 1.738 1
5.4510002 -8.4989996 1.798 1
5.4510002 -8.5 1.734 1
5.4499998 -8.4989996 1.92 1
5.4549999 -8.4989996 1.4299999 1
5.4629998 -8.4820004 1.482 1
5.4689999 -8.4700003 1.441 1
5.461 -8.4809999 1.654 1
5.46 -8.4860001 1.517 1
5.4580002 -8.4910002 1.559 1
5.4549999 -8.4940004 1.719 1
5.4580002 -8.4899998 1.559 1
5.4580002 -8.4919996 1.488 1
5.461 -8.4840002 1.59 1
5.4619999 -8.4820004 1.5880001 1
5.4559999 -8.4969997 1.446 1
5.4549999 -8.4969997 1.595 1
5.454 -8.4960003 1.649 1
5.4530001 -8.4980001 1.6720001 1
5.4569998 -8.4919996 1.589 1
5.4590001 -8.4870005 1.6339999 1
5.4569998 -8.4879999 1.725 1
5.4640002 -8.4790001 1.497 1
5.4499998 -8.4980001 1.92 1
5.4580002 -8.4910002 1.552 1
5.4520001 -8.5019999 1.551 1
5.447 -8.5019999 1.983 1
5.4679999 -8.4700003 1.4809999 1
5.454 -8.4940004 1.791 1
5.4530001 -8.5 1.5650001 1
5.4580002 -8.4890003 1.608 1
5.4530001 -8.5010004 1.533 1
5.4549999 -8.5 1.425 1
5.454 -8.4960003 1.7130001 1
5.4499998 -8.5010004 1.826 1
5.4549999 -8.4949999 1.663 1
5.4549999 -8.4969997 1.517 1
5.4549999 -8.4940004 1.674 1
5.4510002 -8.4980001 1.832 1
5.4629998 -8.4779997 1.608 1
5.4660001 -8.4770002 1.478 1
5.4530001 -8.4940004 1.857 1
5.4569998 -8.4940004 1.51 1
5.448 -8.5010004 1.961 1
5.454 -8.5019999 1.431 1
5.4549999 -8.4980001 1.523 1
5.454 -8.4949999 1.686 1
5.4580002 -8.4910002 1.522 1
5.461 -8.4870005 1.4529999 1
5.4580002 -8.4919996 1.444 1
5.4499998 -8.5010004 1.836 1
5.454 -8.5010004 1.471 1
5.4580002 -8.4879999 1.64 1
5.4559999 -8.4899998 1.752 1
5.4569998 -8.4960003 1.409 1
5.4520001 -8.4989996 1.739 1
5.461 -8.4840002 1.566 1
5.4569998 -8.4829998 1.902 1
5.46 -8.4790001 1.789 1
5.4569998 -8.4860001 1.781 1
5.461 -8.4759998 1.8279999 1
5.4660001 -8.4650002 1.819 1
5.46 -8.4750004 1.924 1
5.4650002 -8.4709997 1.697 1
5.4679999 -8.4680004 1.638 1
5.4660001 -8.4700003 1.66 1
5.4559999 -8.4870005 1.883 1
5.4689999 -8.4659996 1.62 1
5.4549999 -8.4860001 1.95 1
5.4640002 -8.4650002 1.961 1
5.4520001 -8.4940004 1.909 1
5.4619999 -8.474 1.864 1
5.4499998 -8.4969997 1.982 1
5.4640002 -8.4709997 1.814 1
5.4530001 -8.493 1.921 1
5.4629998 -8.4750004 1.778 1
5.4489999 -8.4980001 1.983 1
5.4640002 -8.4689999 1.87 1
5.4640002 -8.4700003 1.785 1
5.461 -8.4720001 1.9630001 1
5.4679999 -8.467 1.636 1
5.46 -8.4790001 1.806 1
5.4569998 -8.4870005 1.7690001 1
5.4629998 -8.4680004 1.932 1
5.4650002 -8.4680004 1.8 1
5.4619999 -8.4770002 1.77 1
5.4520001 -8.4960003 1.891 1
5.4640002 -8.4689999 1.8660001 1
5.46 -8.4750004 1.9809999 1
5.4590001 -8.4809999 1.808 1
5.4590001 -8.4809999 1.836 1
5.4569998 -8.4829998 1.893 1
5.4640002 -8.4729996 1.7640001 1
5.4640002 -8.4759998 1.645 1
5.4559999 -8.4829998 1.987 1
5.4629998 -8.474 1.799 1
5.4569998 -8.4820004 1.956 1
5.4580002 -8.4799995 1.9529999 1
5.4530001 -8.493 1.8890001 1
5.4629998 -8.4770002 1.661 1
5.454 -8.4899998 1.911 1
5.4520001 -8.4919996 1.966 1
5.4650002 -8.474 1.645 1
5.4590001 -8.4820004 1.777 1
5.4679999 -8.4689999 1.581 1
5.4660001 -8.4709997 1.6390001 1
5.46 -8.4750004 1.966 1
5.4640002 -8.474 1.699 1
5.4619999 -8.4729996 1.906 1
5.4660001 -8.4659996 1.803 1
5.4660001 -8.4720001 1.602 1
5.46 -8.4790001 1.8279999 1
5.4580002 -8.4809999 1.944 1
5.4569998 -8.4870005 1.8049999 1
5.4549999 -8.4870005 1.942 1
5.4559999 -8.4849997 1.9299999 1
5.4679999 -8.4700003 1.502 1
5.4569998 -8.4799995 1.971 1
5.4510002 -8.4940004 1.955 1
5.4689999 -8.467 1.549 1
5.4580002 -8.4790001 1.9910001 1
5.4580002 -8.4790001 1.97 1
5.4619999 -8.4759998 1.776 1
5.461 -8.474 1.9119999 1
5.4689999 -8.4680004 1.534 1
5.4650002 -8.474 1.589 1
5.4640002 -8.4659996 1.9960001 1
5.4640002 -8.4700003 1.842 1
5.4580002 -8.4820004 1.865 1
5.461 -8.4720001 1.977 1
5.4590001 -8.4820004 1.8049999 1
5.4640002 -8.4700003 1.846 1
5.4629998 -8.4720001 1.831 1
5.4650002 -8.4659996 1.874 1
5.4689999 -8.467 1.573 1
5.4580002 -8.4860001 1.74 1
5.4689999 -8.4659996 1.585 1
5.4629998 -8.4729996 1.793 1
5.4640002 -8.4759998 1.597 1
5.4619999 -8.4709997 1.974 1
5.467 -8.4700003 1.6289999 1
5.461 -8.4779997 1.761 1
5.461 -8.4729996 1.971 1
5.4629998 -8.4750004 1.751 1
5.4640002 -8.4680004 1.891 1
5.4559999 -8.4890003 1.8049999 1
5.4699998 -8.4659996 1.518 1
5.46 -8.4820004 1.705 1
5.467 -8.467 1.719 1
5.4580002 -8.4809999 1.891 1
5.454 -8.4890003 1.914 1
