# .PCD v0.7 - Point Cloud Data file format
VERSION 0.7
FIELDS x y z label
SIZE 4 4 4 4
TYPE F F F U
COUNT 1 1 1 1
WIDTH 1598
HEIGHT 1
VIEWPOINT 0 0 0 1 0 0 0
POINTS 1598
DATA ascii
7.849 -8.4429998 1.13 1
7.8600001 -8.4399996 1.317 1
7.8449998 -8.4460001 1.155 1
7.8600001 -8.4399996 1.3279999 1
7.842 -8.4490004 1.2130001 1
7.8439999 -8.448 1.215 1
7.8470001 -8.4490004 1.323 1
7.8509998 -8.4469995 1.354 1
7.842 -8.4499998 1.2410001 1
7.8530002 -8.441 1.194 1
7.8590002 -8.4420004 1.357 1
7.8499999 -8.4420004 1.1619999 1
7.848 -8.4420004 1.112 1
7.8400002 -8.4549999 1.354 1
7.8540001 -8.4449997 1.3609999 1
7.848 -8.4420004 1.105 1
7.8499999 -8.4469995 1.334 1
7.8600001 -8.4420004 1.382 1
7.8590002 -8.4399996 1.322 1
7.8460002 -8.441 1.0140001 1
7.8600001 -8.4399996 1.33 1
7.8400002 -8.4530001 1.308 1
7.849 -8.4420004 1.125 1
7.848 -8.4499998 1.373 1
7.849 -8.4429998 1.143 1
7.8569999 -8.441 1.294 1
7.848 -8.441 1.057 1
7.8449998 -8.4469995 1.188 1
7.8449998 -8.4490004 1.288 1
7.8429999 -8.4499998 1.273 1
7.848 -8.4429998 1.133 1
7.8470001 -8.441 1.036 1
7.8540001 -8.441 1.225 1
7.848 -8.4460001 1.24 1
7.8530002 -8.441 1.209 1
7.8390002 -8.4560003 1.399 1
7.8439999 -8.4510002 1.306 1
7.8540001 -8.4449997 1.353 1
7.8530002 -8.4399996 1.135 1
7.8509998 -8.4399996 1.091 1
7.8460002 -8.4429998 1.056 1
7.8439999 -8.4469995 1.183 1
7.8460002 -8.4399996 0.97000003 1
7.848 -8.4490004 1.3559999 1
7.8449998 -8.4510002 1.349 1
7.8579998 -8.4420004 1.3710001 1
7.8509998 -8.441 1.143 1
7.848 -8.4399996 1.0039999 1
7.849 -8.4440002 1.2029999 1
7.8390002 -8.4549999 1.355 1
7.8439999 -8.4469995 1.163 1
7.8400002 -8.4560003 1.387 1
7.8449998 -8.4469995 1.2130001 1
7.848 -8.4440002 1.152 1
7.8439999 -8.4449997 1.097 1
7.8520002 -8.4440002 1.272 1
7.8509998 -8.4469995 1.363 1
7.8540001 -8.4440002 1.339 1
7.8499999 -8.4420004 1.131 1
7.8600001 -8.441 1.373 1
7.8449998 -8.4440002 1.099 1
7.8590002 -8.4420004 1.355 1
7.8509998 -8.441 1.1289999 1
7.8530002 -8.4440002 1.273 1
7.8460002 -8.4440002 1.128 1
7.8449998 -8.4469995 1.199 1
7.8530002 -8.4429998 1.277 1
7.8509998 -8.4460001 1.477 1
7.8540001 -8.4440002 1.462 1
7.855 -8.4399996 1.628 1
7.8569999 -8.441 1.503 1
7.8540001 -8.4420004 1.559 1
7.8429999 -8.4530001 1.421 1
7.8520002 -8.4449997 1.48 1
7.8540001 -8.441 1.605 1
7.862 -8.4399996 1.413 1
7.8410001 -8.4549999 1.4 1
7.848 -8.4469995 1.531 1
7.8509998 -8.4460001 1.48 1
7.855 -8.4399996 1.589 1
7.8530002 -8.4460001 1.441 1
7.8569999 -8.4399996 1.52 1
7.8429999 -8.4530001 1.429 1
7.8410001 -8.4540005 1.449 1
7.8540001 -8.441 1.598 1
7.855 -8.4440002 1.4299999 1
7.8509998 -8.4429998 1.577 1
7.8470001 -8.4490004 1.475 1
7.8499999 -8.4460001 1.497 1
7.855 -8.4440002 1.452 1
7.849 -8.4469995 1.49 1
7.8540001 -8.4420004 1.535 1
7.8540001 -8.441 1.589 1
7.8520002 -8.4429998 1.568 1
7.848 -8.4490004 1.449 1
7.8439999 -8.4519997 1.449 1
7.855 -8.4449997 1.414 1
7.8509998 -8.4440002 1.577 1
7.8470001 -8.4490004 1.446 1
7.8410001 -8.4549999 1.413 1
7.8499999 -8.4460001 1.487 1
7.849 -8.4460001 1.541 1
7.848 -8.448 1.471 1
7.862 -8.4399996 1.396 1
7.8520002 -8.4469995 1.416 1
7.842 -8.4540005 1.409 1
7.855 -8.4429998 1.473 1
7.8590002 -8.441 1.448 1
7.8460002 -8.4499998 1.442 1
7.8559999 -8.4399996 1.598 1
7.8600001 -8.441 1.3940001 1
7.848 -8.4490004 1.419 1
7.855 -8.4420004 1.541 1
7.8649998 -8.441 2.319 1
7.8699999 -8.4399996 2.3180001 1
7.855 -8.4420004 2.2620001 1
7.8600001 -8.441 2.273 1
7.855 -8.4440002 2.3050001 1
7.8639998 -8.4420004 2.3210001 1
7.8460002 -8.4460001 2.29 1
7.848 -8.4460001 2.309 1
7.8499999 -8.4440002 2.28 1
7.8429999 -8.448 2.302 1
7.8509998 -8.4440002 2.2750001 1
7.8530002 -8.4429998 2.2709999 1
7.8530002 -8.4429998 2.276 1
7.8410001 -8.4490004 2.3039999 1
7.8639998 -8.4399996 2.2750001 1
7.8400002 -8.552 2.3180001 1
7.8460002 -8.573 2.3150001 1
7.8390002 -8.5670004 2.319 1
7.8390002 -8.5649996 2.319 1
7.8429999 -8.5450001 2.316 1
7.8400002 -8.5109997 2.316 1
7.8429999 -8.5340004 2.316 1
7.8369999 -8.5290003 2.319 1
7.8410001 -8.5299997 2.316 1
7.8369999 -8.5539999 2.3199999 1
7.8390002 -8.4879999 2.316 1
7.8400002 -8.54 2.3180001 1
7.8449998 -8.5600004 2.3150001 1
7.8410001 -8.507 2.316 1
7.8540001 -8.5299997 0.090000004 1
7.8540001 -8.5209999 0.21699999 1
7.8540001 -8.5209999 0.098999999 1
7.855 -8.5419998 0.266 1
7.8540001 -8.5439997 0.13 1
7.8540001 -8.5430002 0.072999999 1
7.8530002 -8.4840002 0.118 1
7.8540001 -8.5360003 0.075000003 1
7.855 -8.5629997 0.31200001 1
7.8530002 -8.5080004 0.134 1
7.855 -8.5740004 0.27900001 1
7.8530002 -8.4949999 0.059 1
7.8530002 -8.4989996 0.13600001 1
7.8530002 -8.4790001 0.052999999 1
7.8530002 -8.5200005 0.088 1
7.8530002 -8.4940004 0.17299999 1
7.8540001 -8.5240002 0.176 1
7.8540001 -8.5559998 0.15700001 1
7.855 -8.5539999 0.26499999 1
7.8540001 -8.5430002 0.19400001 1
7.855 -8.5679998 0.19599999 1
7.8540001 -8.5389996 0.109 1
7.855 -8.5710001 0.26300001 1
7.8540001 -8.5459995 0.131 1
7.8530002 -8.526 0.055 1
7.8530002 -8.5190001 0.082999997 1
7.8540001 -8.5299997 0.21799999 1
7.8540001 -8.5249996 0.114 1
7.8540001 -8.5159998 0.176 1
7.8540001 -8.5629997 0.112 1
7.8530002 -8.4820004 0.134 1
7.8530002 -8.4820004 0.094999999 1
7.855 -8.5609999 0.30199999 1
7.855 -8.5740004 0.206 1
7.8540001 -8.5419998 0.16500001 1
7.8540001 -8.5220003 0.16 1
7.855 -8.5640001 0.23 1
7.8540001 -8.5299997 0.19599999 1
7.8540001 -8.5389996 0.177 1
7.8530002 -8.474 0.061000001 1
7.8530002 -8.4820004 0.050999999 1
7.8530002 -8.4849997 0.124 1
7.8530002 -8.4849997 0.059 1
7.8540001 -8.5380001 0.221 1
7.855 -8.5570002 0.278 1
7.855 -8.5530005 0.24699999 1
7.8540001 -8.5699997 0.14300001 1
7.855 -8.5579996 0.30000001 1
7.8530002 -8.5179996 0.07 1
7.8530002 -8.4969997 0.067000002 1
7.8540001 -8.5059996 0.15000001 1
7.8540001 -8.533 0.052999999 1
7.855 -8.5749998 0.149 1
7.855 -8.5620003 0.31 1
7.8540001 -8.5469999 0.086999997 1
7.8530002 -8.5240002 0.056000002 1
7.8540001 -8.5419998 0.1 1
7.8530002 -8.4849997 0.152 1
7.855 -8.5439997 0.27200001 1
7.8540001 -8.5290003 0.25600001 1
7.8540001 -8.5690002 0.056000002 1
7.8540001 -8.5389996 0.17200001 1
7.855 -8.5710001 0.23899999 1
7.8540001 -8.5389996 0.123 1
7.855 -8.566 0.18099999 1
7.8530002 -8.5080004 0.134 1
7.8540001 -8.5459995 0.127 1
7.8530002 -8.4809999 0.12800001 1
7.8540001 -8.5450001 0.086999997 1
7.8540001 -8.5270004 0.15000001 1
7.8540001 -8.5319996 0.23800001 1
7.855 -8.5579996 0.20999999 1
7.8540001 -8.5649996 0.115 1
7.8540001 -8.5570002 0.182 1
7.8530002 -8.4770002 0.097000003 1
7.8530002 -8.493 0.117 1
7.8540001 -8.5229998 0.18000001 1
7.8530002 -8.4910002 0.154 1
7.8540001 -8.5299997 0.22 1
7.8540001 -8.5200005 0.175 1
7.855 -8.5439997 0.255 1
7.8530002 -8.4720001 0.119 1
7.855 -8.5740004 0.31600001 1
7.8530002 -8.5249996 0.068999998 1
7.8540001 -8.5530005 0.184 1
7.855 -8.5699997 0.229 1
7.8540001 -8.5299997 0.13600001 1
7.855 -8.5749998 0.255 1
7.8530002 -8.4879999 0.074000001 1
7.8540001 -8.5279999 0.17299999 1
7.8540001 -8.5450001 0.148 1
7.855 -8.5690002 0.182 1
7.8540001 -8.5579996 0.176 1
7.8540001 -8.507 0.15099999 1
7.855 -8.5500002 0.24600001 1
7.8540001 -8.5229998 0.125 1
7.8530002 -8.5039997 0.123 1
7.8540001 -8.5310001 0.090999998 1
7.855 -8.5620003 0.207 1
7.855 -8.559 0.242 1
7.8540001 -8.5500002 0.16500001 1
7.8540001 -8.5609999 0.115 1
7.855 -8.573 0.30899999 1
7.8540001 -8.5380001 0.123 1
7.8540001 -8.5290003 0.223 1
7.855 -8.5640001 0.30899999 1
7.8540001 -8.5550003 0.132 1
7.855 -8.5430002 0.257 1
7.855 -8.5539999 0.219 1
7.855 -8.5699997 0.31900001 1
7.8530002 -8.4989996 0.12 1
7.8540001 -8.5649996 0.079000004 1
7.8540001 -8.5430002 0.063000001 1
7.8530002 -8.4700003 0.098999999 1
7.8540001 -8.5459995 0.17900001 1
7.8540001 -8.533 0.183 1
7.855 -8.5489998 0.257 1
7.8530002 -8.474 0.052999999 1
7.8530002 -8.4890003 0.111 1
7.855 -8.566 0.237 1
7.8540001 -8.5559998 0.14399999 1
7.8540001 -8.5340004 0.266 1
7.855 -8.5530005 0.23899999 1
7.8540001 -8.5500002 0.132 1
7.8540001 -8.5419998 0.183 1
7.855 -8.5649996 0.26100001 1
7.8540001 -8.5690002 0.077 1
7.8540001 -8.5469999 0.162 1
7.8530002 -8.4820004 0.057999998 1
7.8540001 -8.559 0.048999999 1
7.8540001 -8.5740004 0.101 1
7.8530002 -8.4720001 0.052999999 1
7.855 -8.5740004 0.336 1
7.855 -8.5699997 0.27700001 1
7.8530002 -8.526 0.067000002 1
7.8540001 -8.5670004 0.154 1
7.8530002 -8.4860001 0.093000002 1
7.8530002 -8.5019999 0.061000001 1
7.855 -8.5570002 0.28299999 1
7.8540001 -8.5459995 0.161 1
7.8540001 -8.5600004 0.066 1
7.8530002 -8.4940004 0.052000001 1
7.8530002 -8.5220003 0.081 1
7.8530002 -8.5089998 0.096000001 1
7.8540001 -8.552 0.071999997 1
7.855 -8.5690002 0.25999999 1
7.855 -8.5609999 0.308 1
7.8540001 -8.507 0.199 1
7.8530002 -8.5170002 0.050999999 1
7.8540001 -8.5200005 0.175 1
7.8540001 -8.5349998 0.249 1
7.855 -8.5670004 0.175 1
7.8540001 -8.5489998 0.17 1
7.8540001 -8.5469999 0.19499999 1
7.855 -8.552 0.21600001 1
7.8530002 -8.5010004 0.048 1
7.855 -8.5690002 0.31999999 1
7.8530002 -8.4809999 0.121 1
7.855 -8.573 0.236 1
7.8540001 -8.5170002 0.12800001 1
7.8540001 -8.5389996 0.20900001 1
7.8530002 -8.5109997 0.082999997 1
7.8540001 -8.5299997 0.192 1
7.8540001 -8.5469999 0.193 1
7.855 -8.5640001 0.33899999 1
7.8520002 -8.4519997 0.063000001 1
7.8530002 -8.4799995 0.068999998 1
7.8530002 -8.5019999 0.117 1
7.8540001 -8.5209999 0.227 1
7.855 -8.5539999 0.31600001 1
7.8540001 -8.5380001 0.198 1
7.8540001 -8.5129995 0.162 1
7.855 -8.5719995 0.257 1
7.8540001 -8.566 0.15000001 1
7.8530002 -8.4689999 0.081 1
7.855 -8.5600004 0.245 1
7.8540001 -8.5100002 0.178 1
7.8530002 -8.467 0.071000002 1
7.8540001 -8.4969997 0.177 1
7.8540001 -8.5229998 0.163 1
7.8540001 -8.5279999 0.149 1
7.8530002 -8.5089998 0.048999999 1
7.8540001 -8.5380001 0.118 1
7.8540001 -8.5240002 0.106 1
7.855 -8.5749998 0.208 1
7.8530002 -8.5059996 0.115 1
7.8540001 -8.5209999 0.20900001 1
7.855 -8.5719995 0.34799999 1
7.8530002 -8.4849997 0.113 1
7.8530002 -8.5240002 0.082000002 1
7.855 -8.5539999 0.29499999 1
7.8530002 -8.5010004 0.057 1
7.8540001 -8.5279999 0.249 1
7.855 -8.5629997 0.192 1
7.8530002 -8.5 0.057 1
7.8540001 -8.5530005 0.050999999 1
7.8540001 -8.559 0.138 1
7.8530002 -8.5120001 0.124 1
7.8540001 -8.5290003 0.15000001 1
7.855 -8.5699997 0.22499999 1
7.855 -8.5640001 0.278 1
7.8540001 -8.5439997 0.227 1
7.8530002 -8.4750004 0.055 1
7.8540001 -8.5530005 0.161 1
7.855 -8.5609999 0.22400001 1
7.8540001 -8.5419998 0.17900001 1
7.8530002 -8.5030003 0.064000003 1
7.8540001 -8.5299997 0.198 1
7.8540001 -8.5290003 0.125 1
7.8540001 -8.5229998 0.154 1
7.8540001 -8.5459995 0.118 1
7.855 -8.573 0.322 1
7.8530002 -8.4630003 0.090000004 1
7.8530002 -8.5620003 0.045000002 1
7.8509998 -8.5340004 0.039999999 1
7.8499999 -8.552 0.035 1
7.849 -8.5629997 0.030999999 1
7.8499999 -8.507 0.037999999 1
7.8509998 -8.5410004 0.039000001 1
7.849 -8.5699997 0.029999999 1
7.8520002 -8.4919996 0.044 1
7.8530002 -8.5740004 0.044 1
7.8530002 -8.5570002 0.046999998 1
7.8499999 -8.5209999 0.037999999 1
7.8509998 -8.5620003 0.037999999 1
7.8520002 -8.448 0.044 1
7.8499999 -8.5539999 0.035999998 1
7.8509998 -8.573 0.037 1
7.8520002 -8.4799995 0.046 1
7.8509998 -8.5240002 0.041000001 1
7.8520002 -8.5539999 0.041000001 1
7.8540001 -8.5579996 0.048 1
7.8579998 -8.4879999 0.45100001 1
7.8540001 -8.4849997 0.185 1
7.855 -8.5229998 0.31299999 1
7.855 -8.5100002 0.26699999 1
7.855 -8.4840002 0.28799999 1
7.8600001 -8.5010004 0.57599998 1
7.8559999 -8.493 0.345 1
7.855 -8.4589996 0.25 1
7.8530002 -8.4490004 0.117 1
7.8540001 -8.4650002 0.21699999 1
7.8559999 -8.4949999 0.31099999 1
7.8559999 -8.5699997 0.37799999 1
7.8540001 -8.4849997 0.2 1
7.8540001 -8.4680004 0.169 1
7.855 -8.4589996 0.228 1
7.8540001 -8.4580002 0.199 1
7.8540001 -8.4569998 0.16599999 1
7.8590002 -8.4960003 0.52200001 1
7.8590002 -8.4989996 0.523 1
7.8540001 -8.5200005 0.25799999 1
7.8569999 -8.5579996 0.46599999 1
7.8590002 -8.5249996 0.54299998 1
7.8590002 -8.5120001 0.55599999 1
7.8579998 -8.5360003 0.48100001 1
7.8559999 -8.5129995 0.33899999 1
7.855 -8.5089998 0.30000001 1
7.8540001 -8.4940004 0.21699999 1
7.8579998 -8.5559998 0.50300002 1
7.8559999 -8.5539999 0.37900001 1
7.8579998 -8.5380001 0.47 1
7.8590002 -8.5740004 0.56300002 1
7.8540001 -8.4910002 0.19599999 1
7.8569999 -8.4919996 0.38 1
7.855 -8.4639997 0.24600001 1
7.855 -8.4969997 0.28099999 1
7.855 -8.4940004 0.301 1
7.8559999 -8.5319996 0.35499999 1
7.8579998 -8.5480003 0.49599999 1
7.8569999 -8.566 0.465 1
7.8569999 -8.5340004 0.433 1
7.855 -8.4849997 0.264 1
7.8540001 -8.5129995 0.241 1
7.8559999 -8.5690002 0.39500001 1
7.855 -8.4949999 0.26199999 1
7.8579998 -8.5310001 0.50599998 1
7.855 -8.4709997 0.23199999 1
7.855 -8.5600004 0.347 1
7.8559999 -8.5349998 0.35699999 1
7.8590002 -8.5389996 0.55299997 1
7.8579998 -8.5 0.49200001 1
7.8569999 -8.4989996 0.373 1
7.8569999 -8.5600004 0.45899999 1
7.8559999 -8.4680004 0.34200001 1
7.8569999 -8.5229998 0.442 1
7.8569999 -8.5380001 0.40400001 1
7.8559999 -8.5200005 0.33000001 1
7.8569999 -8.5620003 0.461 1
7.8559999 -8.5710001 0.405 1
7.8569999 -8.493 0.40200001 1
7.8569999 -8.474 0.37400001 1
7.855 -8.5050001 0.31 1
7.8559999 -8.474 0.352 1
7.8590002 -8.5570002 0.551 1
7.8559999 -8.5559998 0.40900001 1
7.8559999 -8.4680004 0.347 1
7.8559999 -8.5349998 0.37400001 1
7.8530002 -8.4580002 0.121 1
7.8590002 -8.5279999 0.56599998 1
7.8569999 -8.5 0.39300001 1
7.8590002 -8.4969997 0.52399999 1
7.855 -8.4820004 0.287 1
7.8579998 -8.5550003 0.51599997 1
7.855 -8.5249996 0.27200001 1
7.8559999 -8.5019999 0.354 1
7.8559999 -8.5410004 0.38600001 1
7.8579998 -8.5410004 0.491 1
7.8579998 -8.5740004 0.542 1
7.8540001 -8.4809999 0.21600001 1
7.8579998 -8.5290003 0.514 1
7.8540001 -8.467 0.189 1
7.8569999 -8.5179996 0.43000001 1
7.855 -8.5039997 0.27399999 1
7.8559999 -8.5270004 0.384 1
7.8579998 -8.5500002 0.47799999 1
7.855 -8.4870005 0.23800001 1
7.855 -8.4960003 0.30500001 1
7.855 -8.5389996 0.30199999 1
7.8579998 -8.5489998 0.5 1
7.8579998 -8.5010004 0.47999999 1
7.8569999 -8.474 0.39500001 1
7.8569999 -8.5620003 0.43200001 1
7.855 -8.493 0.285 1
7.8569999 -8.4759998 0.375 1
7.8559999 -8.5299997 0.37400001 1
7.8590002 -8.5150003 0.52200001 1
7.855 -8.4680004 0.255 1
7.855 -8.46 0.22400001 1
7.8579998 -8.5469999 0.47600001 1
7.8530002 -8.4490004 0.116 1
7.8569999 -8.5469999 0.449 1
7.8579998 -8.4790001 0.44999999 1
7.8590002 -8.4790001 0.48699999 1
7.8579998 -8.4910002 0.49200001 1
7.8579998 -8.5240002 0.49000001 1
7.8569999 -8.5200005 0.39500001 1
7.8579998 -8.4890003 0.486 1
7.8579998 -8.5710001 0.52999997 1
7.855 -8.5310001 0.29100001 1
7.855 -8.533 0.31999999 1
7.8569999 -8.4879999 0.41 1
7.8540001 -8.5129995 0.236 1
7.855 -8.4729996 0.26300001 1
7.8540001 -8.46 0.191 1
7.8569999 -8.5249996 0.421 1
7.8569999 -8.4919996 0.39700001 1
7.8590002 -8.4890003 0.51099998 1
7.8590002 -8.5450001 0.54699999 1
7.8590002 -8.4899998 0.495 1
7.8540001 -8.4960003 0.23800001 1
7.8579998 -8.552 0.47600001 1
7.8540001 -8.4619999 0.177 1
7.8540001 -8.4650002 0.17900001 1
7.855 -8.5340004 0.30599999 1
7.8579998 -8.4829998 0.47799999 1
7.8590002 -8.5369997 0.546 1
7.8579998 -8.5059996 0.491 1
7.8540001 -8.5019999 0.23999999 1
7.8579998 -8.5279999 0.50300002 1
7.8559999 -8.5209999 0.37 1
7.8590002 -8.5679998 0.55400002 1
7.8540001 -8.4849997 0.184 1
7.8559999 -8.5690002 0.38100001 1
7.8579998 -8.5710001 0.50700003 1
7.855 -8.4650002 0.26100001 1
7.8559999 -8.5600004 0.40599999 1
7.8530002 -8.4790001 0.148 1
7.8559999 -8.4910002 0.30700001 1
7.855 -8.4870005 0.26199999 1
7.8579998 -8.4919996 0.49000001 1
7.8579998 -8.507 0.50199997 1
7.8559999 -8.4630003 0.30899999 1
7.8590002 -8.5690002 0.56199998 1
7.855 -8.4580002 0.21699999 1
7.8579998 -8.4860001 0.433 1
7.855 -8.4580002 0.242 1
7.855 -8.4759998 0.26699999 1
7.8559999 -8.5279999 0.38999999 1
7.8590002 -8.5010004 0.50300002 1
7.8569999 -8.5310001 0.41600001 1
7.8569999 -8.5139999 0.38600001 1
7.8579998 -8.5150003 0.479 1
7.8579998 -8.5530005 0.495 1
7.8579998 -8.4899998 0.47600001 1
7.8579998 -8.4870005 0.44499999 1
7.855 -8.5120001 0.31200001 1
7.855 -8.4809999 0.28799999 1
7.8579998 -8.5249996 0.493 1
7.8590002 -8.573 0.56699997 1
7.8590002 -8.4840002 0.493 1
7.8579998 -8.4840002 0.44499999 1
7.8559999 -8.4949999 0.34799999 1
7.8559999 -8.4709997 0.30000001 1
7.8540001 -8.4910002 0.228 1
7.8590002 -8.5 0.52899998 1
7.8559999 -8.5089998 0.352 1
7.855 -8.5299997 0.27399999 1
7.8559999 -8.5410004 0.35299999 1
7.8579998 -8.4919996 0.47400001 1
7.8559999 -8.5500002 0.39899999 1
7.8579998 -8.5740004 0.53600001 1
7.8569999 -8.467 0.35699999 1
7.8579998 -8.5299997 0.50599998 1
7.8530002 -8.4610004 0.101 1
7.8559999 -8.552 0.38499999 1
7.8559999 -8.4689999 0.34200001 1
7.8569999 -8.5159998 0.44499999 1
7.8559999 -8.552 0.36399999 1
7.8540001 -8.4659996 0.21699999 1
7.8579998 -8.5109997 0.46200001 1
7.8590002 -8.5129995 0.55299997 1
7.8569999 -8.5190001 0.39700001 1
7.855 -8.4720001 0.243 1
7.8569999 -8.4919996 0.373 1
7.8590002 -8.4799995 0.5 1
7.8590002 -8.5319996 0.53200001 1
7.8579998 -8.4779997 0.47499999 1
7.8540001 -8.46 0.205 1
7.8559999 -8.4770002 0.34099999 1
7.8540001 -8.4750004 0.17299999 1
7.8579998 -8.5200005 0.505 1
7.8590002 -8.533 0.54500002 1
7.8579998 -8.5699997 0.49900001 1
7.8569999 -8.5459995 0.42300001 1
7.855 -8.4759998 0.229 1
7.8530002 -8.4820004 0.153 1
7.8590002 -8.5010004 0.51499999 1
7.8579998 -8.5019999 0.47999999 1
7.8569999 -8.4809999 0.38 1
7.855 -8.5360003 0.32800001 1
7.8559999 -8.5129995 0.35600001 1
7.8590002 -8.5209999 0.56800002 1
7.8559999 -8.5299997 0.37400001 1
7.8520002 -8.4440002 0.067000002 1
7.8579998 -8.4960003 0.47299999 1
7.8569999 -8.5609999 0.47299999 1
7.8559999 -8.5710001 0.36199999 1
7.855 -8.5349998 0.273 1
7.8590002 -8.552 0.54400003 1
7.8590002 -8.5030003 0.542 1
7.8590002 -8.5419998 0.57200003 1
7.855 -8.5530005 0.329 1
7.8559999 -8.5249996 0.35800001 1
7.8559999 -8.467 0.34099999 1
7.855 -8.5100002 0.28400001 1
7.8590002 -8.5019999 0.528 1
7.8590002 -8.5220003 0.565 1
7.8569999 -8.5059996 0.396 1
7.8540001 -8.4580002 0.178 1
7.8579998 -8.5760002 0.523 1
7.8579998 -8.4919996 0.479 1
7.8559999 -8.4980001 0.33899999 1
7.8579998 -8.5749998 0.51099998 1
7.8579998 -8.5649996 0.50199997 1
7.8530002 -8.4580002 0.109 1
7.8579998 -8.4870005 0.479 1
7.8590002 -8.5220003 0.54799998 1
7.8569999 -8.4989996 0.384 1
7.8579998 -8.5340004 0.50599998 1
7.8579998 -8.5360003 0.51300001 1
7.8559999 -8.5010004 0.34900001 1
7.8559999 -8.5290003 0.34999999 1
7.8559999 -8.5509996 0.389 1
7.8559999 -8.5010004 0.32300001 1
7.8559999 -8.4879999 0.31900001 1
7.8590002 -8.5089998 0.56099999 1
7.8590002 -8.4980001 0.56300002 1
7.8530002 -8.4519997 0.13 1
7.8579998 -8.5539999 0.498 1
7.8559999 -8.5559998 0.38699999 1
7.8579998 -8.5220003 0.50199997 1
7.8590002 -8.5640001 0.56400001 1
7.8579998 -8.4799995 0.46599999 1
7.8590002 -8.4980001 0.50199997 1
7.8569999 -8.5600004 0.46200001 1
7.8590002 -8.5150003 0.57499999 1
7.8590002 -8.4949999 0.50800002 1
7.8540001 -8.4499998 0.146 1
7.8569999 -8.5509996 0.44100001 1
7.8579998 -8.4820004 0.42899999 1
7.8540001 -8.5030003 0.245 1
7.8579998 -8.4919996 0.491 1
7.8590002 -8.4849997 0.50199997 1
7.8559999 -8.5139999 0.361 1
7.8590002 -8.54 0.574 1
7.855 -8.5220003 0.26800001 1
7.8579998 -8.4840002 0.46700001 1
7.855 -8.5089998 0.29800001 1
7.8579998 -8.566 0.54100001 1
7.8579998 -8.5129995 0.495 1
7.8559999 -8.5640001 0.41299999 1
7.8590002 -8.5030003 0.51899999 1
7.8590002 -8.4870005 0.51899999 1
7.8590002 -8.5389996 0.56599998 1
7.8579998 -8.5629997 0.528 1
7.8559999 -8.566 0.37 1
7.8559999 -8.467 0.34400001 1
7.8579998 -8.4960003 0.49599999 1
7.855 -8.5059996 0.308 1
7.8530002 -8.448 0.085000001 1
7.8579998 -8.5170002 0.498 1
7.855 -8.493 0.27000001 1
7.8530002 -8.4610004 0.14 1
7.8590002 -8.5190001 0.52999997 1
7.8569999 -8.4969997 0.39199999 1
7.8559999 -8.5249996 0.38800001 1
7.8590002 -8.4849997 0.51700002 1
7.8579998 -8.4860001 0.45899999 1
7.8569999 -8.5019999 0.39199999 1
7.8569999 -8.5550003 0.417 1
7.855 -8.5469999 0.31799999 1
7.855 -8.4849997 0.244 1
7.8569999 -8.4910002 0.38 1
7.8579998 -8.4809999 0.47999999 1
7.8559999 -8.4890003 0.31099999 1
7.8540001 -8.4779997 0.212 1
7.855 -8.4779997 0.25600001 1
7.855 -8.4849997 0.25799999 1
7.8559999 -8.5319996 0.36399999 1
7.8569999 -8.4989996 0.382 1
7.8559999 -8.5120001 0.37 1
7.855 -8.5089998 0.31200001 1
7.8569999 -8.5100002 0.40900001 1
7.8590002 -8.5459995 0.54299998 1
7.8590002 -8.5550003 0.56699997 1
7.8540001 -8.4960003 0.237 1
7.8569999 -8.5170002 0.39300001 1
7.8590002 -8.566 0.55599999 1
7.8559999 -8.4899998 0.35299999 1
7.8590002 -8.5349998 0.55400002 1
7.8569999 -8.4779997 0.359 1
7.8559999 -8.5530005 0.382 1
7.855 -8.5500002 0.31900001 1
7.855 -8.5089998 0.26199999 1
7.8540001 -8.4630003 0.167 1
7.8579998 -8.4809999 0.479 1
7.8559999 -8.5410004 0.375 1
7.8590002 -8.5559998 0.55400002 1
7.8579998 -8.566 0.53500003 1
7.8569999 -8.4879999 0.40400001 1
7.855 -8.5340004 0.29699999 1
7.8590002 -8.5279999 0.56300002 1
7.8590002 -8.4989996 0.55900002 1
7.8590002 -8.5240002 0.574 1
7.855 -8.5030003 0.29499999 1
7.8579998 -8.526 0.5 1
7.8579998 -8.4890003 0.43900001 1
7.8540001 -8.4899998 0.208 1
7.8590002 -8.4989996 0.52899998 1
7.8590002 -8.5150003 0.54299998 1
7.8569999 -8.5690002 0.472 1
7.855 -8.46 0.25799999 1
7.8590002 -8.5190001 0.54799998 1
7.8559999 -8.5209999 0.38299999 1
7.855 -8.5050001 0.266 1
7.8540001 -8.4589996 0.177 1
7.8540001 -8.4910002 0.204 1
7.8579998 -8.5719995 0.54100001 1
7.8569999 -8.4840002 0.396 1
7.8569999 -8.474 0.36700001 1
7.8559999 -8.5019999 0.31600001 1
7.8600001 -8.4899998 0.56 1
7.8569999 -8.4849997 0.39700001 1
7.8559999 -8.5129995 0.34900001 1
7.8540001 -8.4759998 0.19400001 1
7.8530002 -8.448 0.093000002 1
7.8569999 -8.566 0.479 1
7.8579998 -8.5419998 0.52600002 1
7.855 -8.5279999 0.28099999 1
7.8559999 -8.4680004 0.30199999 1
7.8579998 -8.5050001 0.486 1
7.8559999 -8.4860001 0.31099999 1
7.855 -8.4779997 0.28799999 1
7.8530002 -8.4560003 0.117 1
7.8569999 -8.5159998 0.43200001 1
7.8569999 -8.5600004 0.43099999 1
7.8530002 -8.4610004 0.121 1
7.8569999 -8.5559998 0.46200001 1
7.8559999 -8.4689999 0.324 1
7.855 -8.5019999 0.25299999 1
7.855 -8.493 0.245 1
7.8569999 -8.4989996 0.42199999 1
7.8530002 -8.4729996 0.15899999 1
7.8579998 -8.4969997 0.44100001 1
7.8569999 -8.4840002 0.36700001 1
7.8540001 -8.4910002 0.18000001 1
7.8579998 -8.5159998 0.50400001 1
7.855 -8.507 0.30599999 1
7.8569999 -8.4779997 0.38699999 1
7.8600001 -8.4879999 0.56699997 1
7.8579998 -8.5699997 0.509 1
7.8569999 -8.5360003 0.44999999 1
7.8530002 -8.474 0.152 1
7.8569999 -8.5389996 0.456 1
7.8579998 -8.5270004 0.465 1
7.8590002 -8.5139999 0.54000002 1
7.8569999 -8.4849997 0.41499999 1
7.8579998 -8.4879999 0.44999999 1
7.8540001 -8.4849997 0.23199999 1
7.8600001 -8.4940004 0.56900001 1
7.855 -8.5050001 0.28200001 1
7.8559999 -8.5550003 0.36500001 1
7.8559999 -8.4940004 0.361 1
7.8530002 -8.4510002 0.12 1
7.8559999 -8.4779997 0.34999999 1
7.8590002 -8.5139999 0.55599999 1
7.8540001 -8.474 0.212 1
7.8540001 -8.4879999 0.21799999 1
7.8579998 -8.4949999 0.45100001 1
7.855 -8.5290003 0.30399999 1
7.8540001 -8.4809999 0.169 1
7.8590002 -8.4980001 0.5 1
7.8579998 -8.5270004 0.51700002 1
7.8559999 -8.5089998 0.33899999 1
7.8559999 -8.4860001 0.32300001 1
7.855 -8.5500002 0.336 1
7.8559999 -8.5290003 0.33899999 1
7.8530002 -8.4720001 0.124 1
7.8579998 -8.5690002 0.52399999 1
7.8569999 -8.566 0.465 1
7.8530002 -8.4540005 0.146 1
7.8540001 -8.4849997 0.222 1
7.8590002 -8.5209999 0.56 1
7.8540001 -8.4680004 0.19400001 1
7.8569999 -8.5600004 0.458 1
7.848 -8.474 0.024 1
7.8460002 -8.5450001 0.018999999 1
7.8470001 -8.5360003 0.021 1
7.849 -8.493 0.029999999 1
7.848 -8.5109997 0.026000001 1
7.849 -8.5089998 0.034000002 1
7.8470001 -8.5559998 0.021 1
7.8470001 -8.4429998 0.017000001 1
7.8460002 -8.4720001 0.016000001 1
7.8470001 -8.4870005 0.018999999 1
7.8470001 -8.4659996 0.017999999 1
7.849 -8.4870005 0.028000001 1
7.848 -8.5509996 0.027000001 1
7.8470001 -8.5139999 0.022 1
7.8470001 -8.5649996 0.024 1
7.8470001 -8.5489998 0.022 1
7.849 -8.5120001 0.033 1
7.8470001 -8.4729996 0.021 1
7.8499999 -8.4969997 0.037 1
7.848 -8.4420004 0.027000001 1
7.849 -8.4809999 0.030999999 1
7.8470001 -8.5310001 0.022 1
7.849 -8.4569998 0.032000002 1
7.8509998 -8.4610004 0.039999999 1
7.848 -8.559 0.026000001 1
7.848 -8.4759998 0.024 1
7.848 -8.4510002 0.026000001 1
7.8460002 -8.5679998 0.017999999 1
7.848 -8.5360003 0.028999999 1
7.8470001 -8.4729996 0.017999999 1
7.8400002 -8.4680004 0.73799998 1
7.8449998 -8.4729996 0.71899998 1
7.8379998 -8.4689999 0.88099998 1
7.8439999 -8.474 0.81300002 1
7.8470001 -8.4750004 0.67900002 1
7.8470001 -8.4729996 0.62300003 1
7.8509998 -8.4779997 0.68599999 1
7.842 -8.4680004 0.65499997 1
7.8410001 -8.4709997 0.83499998 1
7.8449998 -8.474 0.74800003 1
7.8460002 -8.4729996 0.65600002 1
7.8429999 -8.4720001 0.79900002 1
7.8470001 -8.4750004 0.67500001 1
7.842 -8.4700003 0.75099999 1
7.8400002 -8.467 0.70499998 1
7.8410001 -8.4709997 0.86500001 1
7.8400002 -8.4689999 0.81999999 1
7.8410001 -8.4680004 0.66399997 1
7.8470001 -8.4759998 0.741 1
7.8579998 -8.4840002 0.59100002 1
7.8369999 -8.4659996 0.79500002 1
7.842 -8.4689999 0.69 1
7.8400002 -8.467 0.67500001 1
7.8369999 -8.4639997 0.69700003 1
7.8379998 -8.4680004 0.84600002 1
7.8470001 -8.4750004 0.71100003 1
7.8509998 -8.4779997 0.63499999 1
7.8400002 -8.467 0.68599999 1
7.8429999 -8.4720001 0.78399998 1
7.8590002 -8.4849997 0.58099997 1
7.8400002 -8.4709997 0.88200003 1
7.8460002 -8.4720001 0.64600003 1
7.8520002 -8.4799995 0.65899998 1
7.8400002 -8.467 0.66900003 1
7.8369999 -8.4680004 0.89399999 1
7.8509998 -8.4790001 0.71499997 1
7.8379998 -8.4680004 0.87300003 1
7.8379998 -8.467 0.81300002 1
7.8400002 -8.4689999 0.79699999 1
7.8439999 -8.4720001 0.73699999 1
7.849 -8.4759998 0.65600002 1
7.8470001 -8.4750004 0.704 1
7.8439999 -8.4729996 0.78799999 1
7.848 -8.4770002 0.741 1
7.848 -8.4759998 0.722 1
7.8449998 -8.474 0.73100001 1
7.8470001 -8.4750004 1.313 1
7.855 -8.4899998 1.24 1
7.848 -8.4809999 1.168 1
7.849 -8.4779997 1.3200001 1
7.842 -8.4659996 1.382 1
7.8499999 -8.4799995 1.302 1
7.8509998 -8.4809999 1.319 1
7.8520002 -8.4820004 1.349 1
7.8579998 -8.4910002 1.355 1
7.8379998 -8.4700003 1.0190001 1
7.8379998 -8.4680004 1.074 1
7.849 -8.4790001 1.265 1
7.8400002 -8.4700003 1.082 1
7.8610001 -8.4969997 1.337 1
7.8499999 -8.4829998 1.197 1
7.8400002 -8.4709997 1.0700001 1
7.848 -8.4820004 1.15 1
7.855 -8.4890003 1.2359999 1
7.8449998 -8.4729996 1.251 1
7.8390002 -8.467 1.182 1
7.8429999 -8.4720001 1.223 1
7.8400002 -8.4700003 1.122 1
7.8390002 -8.4700003 1.063 1
7.8379998 -8.46 1.3710001 1
7.8509998 -8.4849997 1.194 1
7.8390002 -8.4680004 1.153 1
7.8400002 -8.4720001 1.069 1
7.8379998 -8.4650002 1.153 1
7.8400002 -8.4619999 1.376 1
7.848 -8.4779997 1.283 1
7.8390002 -8.46 1.395 1
7.8390002 -8.4689999 1.1109999 1
7.8520002 -8.4829998 1.302 1
7.8400002 -8.4680004 1.141 1
7.8559999 -8.4899998 1.263 1
7.8470001 -8.4750004 1.294 1
7.855 -8.4899998 1.25 1
7.8390002 -8.4619999 1.304 1
7.8390002 -8.4700003 1.057 1
7.8460002 -8.4770002 1.177 1
7.8600001 -8.4940004 1.33 1
7.8379998 -8.4589996 1.3430001 1
7.8400002 -8.4709997 1.099 1
7.848 -8.4790001 1.194 1
7.8540001 -8.4849997 1.342 1
7.8400002 -8.4630003 1.374 1
7.8369999 -8.4650002 1.0930001 1
7.8540001 -8.4879999 1.2359999 1
7.8629999 -8.4989996 1.34 1
7.8520002 -8.4840002 1.255 1
7.849 -8.4779997 1.311 1
7.8470001 -8.4750004 1.3329999 1
7.8390002 -8.46 1.374 1
7.862 -8.4980001 1.3329999 1
7.8379998 -8.4589996 1.382 1
7.8390002 -8.4689999 1.112 1
7.8460002 -8.474 1.283 1
7.855 -8.4870005 1.307 1
7.8429999 -8.4759998 1.084 1
7.8439999 -8.4770002 1.104 1
7.8470001 -8.4770002 1.245 1
7.842 -8.4720001 1.142 1
7.842 -8.4659996 1.3430001 1
7.8449998 -8.4720001 1.303 1
7.8579998 -8.4910002 1.306 1
7.8369999 -8.4619999 1.251 1
7.8460002 -8.4770002 1.177 1
7.842 -8.467 1.34 1
7.8429999 -8.4709997 1.2460001 1
7.8400002 -8.4689999 1.146 1
7.848 -8.4750004 1.3710001 1
7.8400002 -8.4659996 1.2180001 1
7.8520002 -8.4849997 1.263 1
7.849 -8.4809999 1.194 1
7.8439999 -8.4720001 1.276 1
7.8390002 -8.4659996 1.224 1
7.8400002 -8.4709997 1.085 1
7.862 -8.4980001 1.33 1
7.8369999 -8.4650002 1.118 1
7.8429999 -8.4759998 1.085 1
7.8410001 -8.467 1.248 1
7.842 -8.474 1.084 1
7.8610001 -8.4960003 1.3329999 1
7.8530002 -8.4860001 1.253 1
7.8509998 -8.4820004 1.266 1
7.8410001 -8.474 1.069 1
7.8499999 -8.4799995 1.314 1
7.8410001 -8.4680004 1.223 1
7.8369999 -8.4689999 1.0039999 1
7.842 -8.4659996 1.352 1
7.8379998 -8.4680004 1.112 1
7.8369999 -8.4680004 1.049 1
7.8400002 -8.4709997 1.075 1
7.8460002 -8.4750004 1.243 1
7.855 -8.4870005 1.3430001 1
7.8390002 -8.46 1.396 1
7.849 -8.4799995 1.271 1
7.8530002 -8.4829998 1.3559999 1
7.8460002 -8.4720001 1.347 1
7.8379998 -8.4639997 1.238 1
7.8600001 -8.4849997 1.452 1
7.8579998 -8.4890003 1.375 1
7.8499999 -8.4659996 1.512 1
7.8600001 -8.493 1.359 1
7.8590002 -8.4759998 1.562 1
7.8509998 -8.4750004 1.429 1
7.8610001 -8.4809999 1.535 1
7.8410001 -8.4630003 1.402 1
7.8600001 -8.493 1.372 1
7.855 -8.4829998 1.395 1
7.855 -8.4709997 1.534 1
7.8579998 -8.4799995 1.498 1
7.862 -8.4949999 1.383 1
7.8499999 -8.4709997 1.447 1
7.8530002 -8.4729996 1.482 1
7.8559999 -8.4770002 1.4910001 1
7.842 -8.4610004 1.439 1
7.8590002 -8.4790001 1.5190001 1
7.8429999 -8.467 1.393 1
7.849 -8.4720001 1.436 1
7.842 -8.4639997 1.409 1
7.8610001 -8.4960003 1.3559999 1
7.8530002 -8.4820004 1.372 1
7.8530002 -8.4770002 1.437 1
7.8559999 -8.474 1.5369999 1
7.8400002 -8.4589996 1.418 1
7.8509998 -8.4750004 1.419 1
7.8610001 -8.4820004 1.5140001 1
7.8579998 -8.4729996 1.564 1
7.848 -8.4659996 1.4809999 1
7.855 -8.4829998 1.401 1
7.8509998 -8.4790001 1.38 1
7.8470001 -8.4720001 1.3890001 1
7.8590002 -8.4860001 1.436 1
7.8610001 -8.4870005 1.443 1
7.8530002 -8.4829998 1.369 1
7.8499999 -8.4750004 1.41 1
7.848 -8.4659996 1.469 1
7.8559999 -8.4750004 1.511 1
7.8600001 -8.4940004 1.353 1
7.849 -8.4650002 1.51 1
7.8429999 -8.4659996 1.393 1
7.8499999 -8.474 1.4119999 1
7.8499999 -8.4659996 1.51 1
7.8590002 -8.474 1.566 1
7.8600001 -8.4729996 1.6 1
7.8530002 -8.4820004 1.369 1
7.8610001 -8.4870005 1.459 1
7.8579998 -8.4729996 1.562 1
7.8499999 -8.4779997 1.376 1
7.8579998 -8.4720001 1.58 1
7.8559999 -8.4809999 1.429 1
7.8590002 -8.4759998 1.557 1
7.8600001 -8.4879999 1.424 1
7.8569999 -8.4779997 1.487 1
7.8429999 -8.4639997 1.425 1
7.8590002 -8.4879999 1.418 1
7.8429999 -8.4619999 1.442 1
7.8499999 -8.4770002 1.381 1
7.849 -8.4659996 1.495 1
7.8590002 -8.4919996 1.859 1
7.8600001 -8.4949999 1.859 1
7.8610001 -8.4829998 1.714 1
7.8579998 -8.4820004 1.776 1
7.8460002 -8.4759998 1.9400001 1
7.8569999 -8.4860001 1.823 1
7.8509998 -8.4729996 1.809 1
7.848 -8.4750004 1.886 1
7.8530002 -8.4799995 1.836 1
7.8520002 -8.4870005 1.9299999 1
7.848 -8.4709997 1.842 1
7.8530002 -8.4860001 1.893 1
7.8569999 -8.4879999 1.851 1
7.8579998 -8.4890003 1.847 1
7.8639998 -8.4940004 1.777 1
7.8610001 -8.4870005 1.755 1
7.8600001 -8.493 1.852 1
7.8569999 -8.4790001 1.752 1
7.8569999 -8.4820004 1.785 1
7.8429999 -8.4709997 1.9299999 1
7.8649998 -8.5059996 1.883 1
7.862 -8.5019999 1.908 1
7.862 -8.4899998 1.778 1
7.8569999 -8.4790001 1.76 1
7.8540001 -8.4729996 1.745 1
7.8559999 -8.4840002 1.837 1
7.8610001 -8.4840002 1.728 1
7.855 -8.4759998 1.77 1
7.8439999 -8.4709997 1.9119999 1
7.8660002 -8.5050001 1.855 1
7.8569999 -8.4910002 1.88 1
7.8530002 -8.4799995 1.839 1
7.8499999 -8.4750004 1.849 1
7.8639998 -8.4989996 1.835 1
7.8610001 -8.4809999 1.707 1
7.8590002 -8.4980001 1.924 1
7.8610001 -8.4989996 1.885 1
7.862 -8.5019999 1.916 1
7.8439999 -8.4720001 1.92 1
7.849 -8.4759998 1.87 1
7.862 -8.4899998 1.766 1
7.8610001 -8.4940004 1.846 1
7.8569999 -8.4919996 1.885 1
7.848 -8.4729996 1.874 1
7.8590002 -8.4940004 1.8839999 1
7.8579998 -8.4770002 1.714 1
7.8629999 -8.4899998 1.763 1
7.8569999 -8.4899998 1.868 1
7.8569999 -8.4940004 1.92 1
7.8520002 -8.474 1.803 1
7.8639998 -8.4910002 1.752 1
7.8520002 -8.474 1.807 1
7.8660002 -8.5089998 1.9 1
7.8520002 -8.4779997 1.841 1
7.8559999 -8.474 1.724 1
7.8600001 -8.4759998 1.674 1
7.8629999 -8.4980001 1.845 1
7.8590002 -8.4949999 1.878 1
7.8530002 -8.4720001 1.77 1
7.8629999 -8.4960003 1.818 1
7.855 -8.4829998 1.839 1
7.8579998 -8.4809999 1.753 1
7.8660002 -8.5109997 1.9119999 1
7.8579998 -8.4919996 1.864 1
7.8569999 -8.4829998 1.799 1
7.8670001 -8.5120001 1.911 1
7.8579998 -8.4799995 1.749 1
7.8660002 -8.507 1.88 1
7.8439999 -8.4729996 1.9450001 1
7.849 -8.4799995 1.909 1
7.8579998 -8.4899998 1.851 1
7.8600001 -8.4729996 1.6390001 1
7.8600001 -8.4759998 1.661 1
7.8579998 -8.4949999 1.905 1
7.8610001 -8.4949999 1.85 1
7.8600001 -8.4919996 1.824 1
7.862 -8.4870005 1.742 1
7.8610001 -8.4910002 1.806 1
7.8610001 -8.4840002 1.733 1
7.8439999 -8.4709997 1.915 1
7.8590002 -8.4840002 1.768 1
7.8569999 -8.4910002 1.876 1
7.8559999 -8.4729996 1.707 1
7.8579998 -8.493 1.885 1
7.8559999 -8.4910002 1.99 1
7.8649998 -8.5089998 1.929 1
7.8449998 -8.474 1.992 1
7.848 -8.4750004 2.096 1
7.8449998 -8.4689999 2.1270001 1
7.849 -8.4809999 1.967 1
7.8429999 -8.4700003 1.994 1
7.849 -8.4790001 1.997 1
7.8410001 -8.46 2.175 1
7.8530002 -8.4870005 2.0039999 1
7.8579998 -8.4969997 1.934 1
7.842 -8.467 2.0239999 1
7.8540001 -8.4870005 2.052 1
7.8460002 -8.4700003 2.154 1
7.842 -8.4650002 2.108 1
7.8559999 -8.493 1.936 1
7.8449998 -8.4720001 2.036 1
7.8410001 -8.4639997 2.085 1
7.8460002 -8.4689999 2.1559999 1
7.862 -8.5019999 1.988 1
7.8520002 -8.4870005 1.946 1
7.849 -8.4799995 1.983 1
7.8639998 -8.5059996 1.928 1
7.848 -8.4790001 1.971 1
7.8470001 -8.4779997 1.969 1
7.8520002 -8.4820004 2.0510001 1
7.8470001 -8.4759998 2.016 1
7.8449998 -8.4680004 2.165 1
7.8429999 -8.4709997 1.995 1
7.8390002 -8.4540005 2.2920001 1
7.8410001 -8.467 1.9859999 1
7.842 -8.4689999 2.0009999 1
7.8649998 -8.5080004 1.929 1
7.8439999 -8.4659996 2.178 1
7.8579998 -8.4960003 1.967 1
7.8499999 -8.4759998 2.138 1
7.8439999 -8.4709997 1.999 1
7.8470001 -8.4720001 2.1210001 1
7.842 -8.467 2.0309999 1
7.8600001 -8.5010004 1.923 1
7.8470001 -8.474 2.0469999 1
7.848 -8.4759998 2.069 1
7.8509998 -8.4820004 2.0150001 1
7.8429999 -8.4720001 1.97 1
7.8530002 -8.4860001 1.984 1
7.8400002 -8.4560003 2.263 1
7.862 -8.5019999 1.977 1
7.8670001 -8.5120001 1.9170001 1
7.8579998 -8.4940004 2.0150001 1
7.8530002 -8.4870005 1.964 1
7.842 -8.46 2.2309999 1
7.8439999 -8.4659996 2.197 1
7.8460002 -8.474 2.0469999 1
7.8559999 -8.4879999 2.0650001 1
7.8569999 -8.4910002 2.043 1
7.8429999 -8.4630003 2.2030001 1
7.848 -8.4750004 2.0899999 1
7.849 -8.4779997 2.0510001 1
7.855 -8.4899998 1.9809999 1
7.8499999 -8.4799995 2.059 1
7.8499999 -8.4779997 2.118 1
7.8610001 -8.5010004 1.926 1
7.8379998 -8.4510002 2.312 1
7.842 -8.4619999 2.2030001 1
7.8629999 -8.5050001 1.934 1
7.8499999 -8.4779997 2.073 1
7.8390002 -8.4560003 2.224 1
7.8410001 -8.4610004 2.1719999 1
7.8460002 -8.4729996 2.0550001 1
7.8600001 -8.5010004 1.929 1
7.8600001 -8.5 1.941 1
7.8449998 -8.4689999 2.102 1
7.8400002 -8.4630003 2.0829999 1
7.842 -8.4610004 2.2360001 1
7.849 -8.4770002 2.046 1
7.8629999 -8.5050001 1.932 1
7.8449998 -8.4720001 2.043 1
7.8410001 -8.4610004 2.138 1
7.8449998 -8.4680004 2.1819999 1
7.842 -8.4659996 2.066 1
7.8410001 -8.4650002 2.0209999 1
7.8540001 -8.4849997 2.085 1
7.8449998 -8.4720001 2.02 1
7.8509998 -8.4820004 2.0250001 1
7.8410001 -8.4639997 2.075 1
7.8610001 -8.4989996 1.9960001 1
7.8520002 -8.4799995 2.119 1
7.8449998 -8.4700003 2.119 1
7.8439999 -8.4720001 1.994 1
7.8520002 -8.4809999 2.0699999 1
7.8410001 -8.4589996 2.2309999 1
7.8439999 -8.4720001 1.979 1
7.8660002 -8.5159998 2.201 1
7.8569999 -8.493 2.0969999 1
7.8610001 -8.4989996 2.007 1
7.8699999 -8.5249996 2.1240001 1
7.8649998 -8.507 1.967 1
7.8520002 -8.4840002 2.2539999 1
7.8499999 -8.4770002 2.165 1
7.8569999 -8.493 2.1600001 1
7.8660002 -8.5120001 2.0450001 1
7.8460002 -8.4700003 2.302 1
7.8610001 -8.5019999 2.1270001 1
7.8629999 -8.507 2.0829999 1
7.8600001 -8.4989996 2.063 1
7.868 -8.5240002 2.234 1
7.8670001 -8.5209999 2.2149999 1
7.862 -8.5059996 2.1470001 1
7.848 -8.4750004 2.3039999 1
7.8520002 -8.4849997 2.256 1
7.862 -8.5050001 2.1570001 1
7.862 -8.507 2.2290001 1
7.8649998 -8.5129995 2.1659999 1
7.849 -8.4750004 2.21 1
7.8600001 -8.5050001 2.27 1
7.869 -8.5249996 2.1849999 1
7.8509998 -8.4790001 2.161 1
7.8569999 -8.4960003 2.214 1
7.8649998 -8.5139999 2.204 1
7.849 -8.4759998 2.256 1
7.868 -8.5240002 2.2650001 1
7.868 -8.5179996 2.108 1
7.862 -8.5089998 2.2650001 1
7.8649998 -8.5150003 2.267 1
7.8629999 -8.5039997 1.99 1
7.8660002 -8.5150003 2.1619999 1
7.8610001 -8.5010004 2.066 1
7.855 -8.4879999 2.1600001 1
7.8559999 -8.4940004 2.2639999 1
7.8530002 -8.4860001 2.2650001 1
7.8460002 -8.4700003 2.2149999 1
7.8590002 -8.5010004 2.2780001 1
7.8639998 -8.5109997 2.174 1
7.869 -8.5249996 2.2060001 1
7.869 -8.5229998 2.152 1
7.855 -8.4890003 2.1830001 1
7.8600001 -8.4980001 2.029 1
7.8429999 -8.4630003 2.257 1
7.8629999 -8.5129995 2.2809999 1
7.8590002 -8.5 2.2260001 1
7.8660002 -8.5089998 1.949 1
7.862 -8.5030003 2.096 1
7.862 -8.5089998 2.2349999 1
7.8629999 -8.5100002 2.2019999 1
7.8639998 -8.5050001 2.0009999 1
7.8569999 -8.493 2.1429999 1
7.8579998 -8.4949999 2.1240001 1
7.8590002 -8.5019999 2.3 1
7.8610001 -8.507 2.2839999 1
7.8639998 -8.5139999 2.2869999 1
7.8509998 -8.4820004 2.2679999 1
7.8600001 -8.4969997 2.0550001 1
7.8569999 -8.4969997 2.2520001 1
7.862 -8.5059996 2.1760001 1
7.8660002 -8.5200005 2.2690001 1
7.8509998 -8.4799995 2.2260001 1
7.8439999 -8.4639997 2.23 1
7.8649998 -8.5150003 2.25 1
7.862 -8.5089998 2.227 1
7.869 -8.5190001 2.0380001 1
7.848 -8.4750004 2.289 1
7.8699999 -8.526 2.1730001 1
7.8649998 -8.5129995 2.151 1
7.8559999 -8.4890003 2.108 1
7.8660002 -8.5109997 1.989 1
7.8569999 -8.4919996 2.1329999 1
7.8460002 -8.4680004 2.2320001 1
7.855 -8.4879999 2.1370001 1
7.8540001 -8.4879999 2.197 1
7.8660002 -8.5120001 2.0039999 1
7.868 -8.5150003 2.003 1
7.8540001 -8.4879999 2.1960001 1
7.848 -8.474 2.2219999 1
7.8639998 -8.5059996 1.9809999 1
7.8569999 -8.4940004 2.1730001 1
7.8590002 -8.4989996 2.1689999 1
7.848 -8.4720001 2.2060001 1
7.8600001 -8.5010004 2.112 1
7.8639998 -8.5080004 2.073 1
7.8509998 -8.4790001 2.2149999 1
7.8460002 -8.4689999 2.237 1
7.8649998 -8.507 1.976 1
7.8600001 -8.5050001 2.28 1
7.848 -8.4750004 2.257 1
7.8639998 -8.5129995 2.2149999 1
7.8649998 -8.5139999 2.1860001 1
7.8400002 -8.4549999 2.29 1
7.855 -8.4919996 2.2720001 1
7.8470001 -8.4729996 2.2349999 1
7.8639998 -8.5129995 2.244 1
7.855 -8.4919996 2.29 1
7.8499999 -8.4799995 2.28 1
7.849 -8.4779997 2.266 1
7.862 -8.5080004 2.211 1
7.8559999 -8.4899998 2.066 1
7.8579998 -8.4969997 2.1819999 1
7.855 -8.4919996 2.2309999 1
7.8660002 -8.5190001 2.2590001 1
7.8499999 -8.4799995 2.2720001 1
7.8460002 -8.4709997 2.3039999 1
7.848 -8.4750004 2.279 1
7.8600001 -8.5010004 2.1199999 1
7.855 -8.493 2.3010001 1
7.8569999 -8.4919996 2.0799999 1
7.8559999 -8.493 2.2290001 1
7.868 -8.5209999 2.175 1
7.8390002 -8.4540005 2.303 1
7.8660002 -8.5109997 2.0179999 1
7.862 -8.5030003 2.0320001 1
7.8579998 -8.4949999 2.096 1
7.8559999 -8.4940004 2.296 1
7.8639998 -8.5059996 1.979 1
7.8530002 -8.4879999 2.299 1
7.8629999 -8.5120001 2.299 1
7.8649998 -8.5139999 2.175 1
7.8629999 -8.5100002 2.2060001 1
7.8569999 -8.4919996 2.138 1
7.8720002 -8.533 2.2550001 1
7.868 -8.5220003 2.191 1
7.8670001 -8.5170002 2.102 1
7.8600001 -8.4980001 2.0810001 1
7.8569999 -8.4949999 2.23 1
7.8649998 -8.5089998 2.023 1
7.8520002 -8.4860001 2.2820001 1
7.8520002 -8.4829998 2.21 1
7.869 -8.5249996 2.234 1
7.8660002 -8.5120001 2.0580001 1
7.8540001 -8.4870005 2.1860001 1
7.8600001 -8.5010004 2.1849999 1
7.8639998 -8.5139999 2.267 1
7.855 -8.4919996 2.2449999 1
7.8520002 -8.4820004 2.191 1
7.8699999 -8.5270004 2.247 1
7.855 -8.4879999 2.1719999 1
7.8699999 -8.5270004 2.224 1
7.8520002 -8.4820004 2.1470001 1
7.8460002 -8.4700003 2.257 1
7.855 -8.4899998 2.2219999 1
7.869 -8.5240002 2.1459999 1
7.8629999 -8.5100002 2.2149999 1
7.8660002 -8.5179996 2.2309999 1
7.8670001 -8.5200005 2.1900001 1
7.8660002 -8.5139999 2.0999999 1
7.8610001 -8.5039997 2.1659999 1
7.8520002 -8.4820004 2.1619999 1
7.8540001 -8.4879999 2.164 1
7.869 -8.5200005 2.033 1
7.8470001 -8.4729996 2.2809999 1
7.8639998 -8.5150003 2.2739999 1
7.8540001 -8.4879999 2.221 1
7.8709998 -8.5319996 2.2590001 1
7.8579998 -8.4940004 2.0910001 1
7.855 -8.4940004 2.2950001 1
7.8639998 -8.5100002 2.1010001 1
7.8590002 -8.4980001 2.1140001 1
7.8600001 -8.4960003 2.0380001 1
7.8610001 -8.5019999 2.1259999 1
7.8520002 -8.4799995 2.1340001 1
7.8649998 -8.5109997 2.0710001 1
7.8660002 -8.5170002 2.217 1
7.8559999 -8.4899998 2.089 1
7.8610001 -8.5039997 2.2 1
7.869 -8.5220003 2.0780001 1
7.8600001 -8.5030003 2.2 1
7.8499999 -8.4790001 2.2679999 1
7.869 -8.5249996 2.2620001 1
7.8590002 -8.5010004 2.2839999 1
7.8559999 -8.4890003 2.086 1
7.869 -8.5220003 2.1289999 1
7.8449998 -8.4659996 2.22 1
7.8699999 -8.5240002 2.132 1
7.849 -8.4540005 0.498 1
7.8520002 -8.46 0.44499999 1
7.8509998 -8.4449997 0.213 1
7.849 -8.4499998 0.41999999 1
7.8579998 -8.4729996 0.43000001 1
7.8559999 -8.4729996 0.486 1
7.8530002 -8.4580002 0.34599999 1
7.8509998 -8.4499998 0.29800001 1
7.8520002 -8.4610004 0.49200001 1
7.848 -8.4499998 0.442 1
7.8590002 -8.4820004 0.54299998 1
7.8530002 -8.4619999 0.41999999 1
7.8470001 -8.4399996 0.29699999 1
7.8460002 -8.4440002 0.43099999 1
7.8569999 -8.4709997 0.41100001 1
7.8499999 -8.4440002 0.245 1
7.855 -8.467 0.43900001 1
7.855 -8.4630003 0.366 1
7.8530002 -8.4449997 0.12899999 1
7.8530002 -8.46 0.42500001 1
7.848 -8.4469995 0.40200001 1
7.8540001 -8.4510002 0.18799999 1
7.8569999 -8.4700003 0.42500001 1
7.8470001 -8.4429998 0.38 1
7.8520002 -8.4619999 0.477 1
7.8509998 -8.4429998 0.163 1
7.8460002 -8.4429998 0.42300001 1
7.8470001 -8.4440002 0.37400001 1
7.8559999 -8.4659996 0.354 1
7.8540001 -8.4510002 0.18000001 1
7.8559999 -8.4700003 0.44600001 1
7.849 -8.4399996 0.21799999 1
7.8499999 -8.4490004 0.34099999 1
7.8530002 -8.4639997 0.509 1
7.8520002 -8.4589996 0.45100001 1
7.8509998 -8.4429998 0.168 1
7.8499999 -8.4460001 0.29699999 1
7.8520002 -8.4499998 0.23800001 1
7.8499999 -8.448 0.32699999 1
7.8540001 -8.4540005 0.244 1
7.849 -8.4420004 0.229 1
7.848 -8.4399996 0.241 1
7.8579998 -8.4779997 0.49900001 1
7.8499999 -8.4560003 0.47799999 1
7.8520002 -8.4460001 0.15899999 1
7.8460002 -8.441 0.40400001 1
7.8559999 -8.4650002 0.34799999 1
7.848 -8.4460001 0.39199999 1
7.8509998 -8.4569998 0.43799999 1
7.848 -8.4440002 0.345 1
7.8449998 -8.441 0.45699999 1
7.8520002 -8.4449997 0.15099999 1
7.8579998 -8.4750004 0.454 1
7.8520002 -8.4519997 0.26499999 1
7.8499999 -8.4469995 0.31 1
7.8530002 -8.4549999 0.333 1
7.8509998 -8.441 0.134 1
7.848 -8.448 0.44499999 1
7.8530002 -8.4619999 0.454 1
7.848 -8.448 0.43200001 1
7.8569999 -8.474 0.47099999 1
7.8520002 -8.4499998 0.26699999 1
7.8520002 -8.4610004 0.5 1
7.8509998 -8.4490004 0.26300001 1
7.8509998 -8.4530001 0.34999999 1
7.855 -8.4589996 0.27000001 1
7.8509998 -8.4540005 0.414 1
7.855 -8.4709997 0.50999999 1
7.8540001 -8.4709997 0.54799998 1
7.8449998 -8.4420004 0.433 1
7.8509998 -8.4530001 0.36700001 1
7.8509998 -8.4499998 0.28400001 1
7.855 -8.4619999 0.34200001 1
7.8569999 -8.474 0.491 1
7.8530002 -8.4549999 0.31999999 1
7.8470001 -8.441 0.35600001 1
7.8540001 -8.4610004 0.373 1
7.8470001 -8.4429998 0.37099999 1
7.8530002 -8.4589996 0.35299999 1
7.855 -8.4630003 0.37099999 1
7.8520002 -8.4569998 0.403 1
7.8559999 -8.4720001 0.48500001 1
7.8569999 -8.4720001 0.43900001 1
7.8470001 -8.4469995 0.44299999 1
7.8540001 -8.4630003 0.389 1
7.8530002 -8.4639997 0.48800001 1
7.848 -8.4490004 0.463 1
7.848 -8.4469995 0.39300001 1
7.848 -8.4449997 0.352 1
7.8499999 -8.4530001 0.40000001 1
7.8499999 -8.4540005 0.45699999 1
7.8449998 -8.4399996 0.43200001 1
7.848 -8.4469995 0.417 1
7.855 -8.4720001 0.51499999 1
7.8530002 -8.4540005 0.28400001 1
7.8530002 -8.4540005 0.28799999 1
7.8540001 -8.4650002 0.447 1
7.8499999 -8.4510002 0.34400001 1
7.8509998 -8.4499998 0.33500001 1
7.8530002 -8.4540005 0.285 1
7.8520002 -8.4549999 0.34200001 1
7.8579998 -8.4759998 0.472 1
7.855 -8.4720001 0.52200001 1
7.8449998 -8.4399996 0.42500001 1
7.8530002 -8.4619999 0.435 1
7.8520002 -8.4540005 0.32600001 1
7.8530002 -8.4519997 0.222 1
7.849 -8.4469995 0.32800001 1
7.8520002 -8.4519997 0.30399999 1
7.849 -8.4499998 0.42500001 1
7.8509998 -8.4540005 0.41 1
7.8390002 -8.4540005 0.796 1
7.8439999 -8.4440002 0.89300001 1
7.8429999 -8.4449997 0.84399998 1
7.8369999 -8.46 0.88200003 1
7.8369999 -8.4589996 0.78299999 1
7.8379998 -8.4560003 0.76700002 1
7.8400002 -8.4519997 0.79900002 1
7.842 -8.448 0.84200001 1
7.8379998 -8.4580002 0.82300001 1
7.8369999 -8.4610004 0.84399998 1
7.8390002 -8.4540005 0.84100002 1
7.842 -8.4469995 0.85699999 1
7.8369999 -8.4610004 0.89499998 1
7.8410001 -8.4510002 0.90499997 1
7.8449998 -8.4420004 0.898 1
7.8410001 -8.4499998 0.81599998 1
7.842 -8.4499998 0.90899998 1
7.8410001 -8.4510002 0.86299998 1
7.8369999 -8.46 0.82499999 1
7.8379998 -8.4580002 0.90200001 1
7.8369999 -8.4619999 0.954 1
7.8400002 -8.4519997 0.78100002 1
7.8369999 -8.4589996 0.78399998 1
7.8400002 -8.4530001 0.829 1
7.8429999 -8.4449997 0.852 1
7.842 -8.4469995 0.86400002 1
7.8400002 -8.4530001 0.85299999 1
7.8369999 -8.4580002 0.75300002 1
7.8390002 -8.4540005 0.75099999 1
7.842 -8.448 0.92500001 1
7.8410001 -8.448 0.80699998 1
7.8400002 -8.4540005 1.027 1
7.8410001 -8.4499998 1.015 1
7.8410001 -8.4499998 1.114 1
7.842 -8.448 1.0650001 1
7.8429999 -8.4460001 1.03 1
7.8410001 -8.4490004 1.091 1
7.8390002 -8.4549999 1.0779999 1
7.8429999 -8.4460001 0.93900001 1
7.8400002 -8.4540005 1.14 1
7.8379998 -8.4580002 1.127 1
7.8400002 -8.4530001 0.98000002 1
7.8369999 -8.4610004 0.98000002 1
7.842 -8.448 1.105 1
7.8400002 -8.4530001 1.069 1
7.8369999 -8.4610004 1.1339999 1
7.842 -8.4499998 0.94499999 1
7.8390002 -8.4540005 1.258 1
7.8400002 -8.4530001 1.089 1
7.8390002 -8.4569998 1.071 1
7.8429999 -8.4449997 0.93000001 1
7.8400002 -8.4540005 1.05 1
7.8410001 -8.4510002 1.094 1
7.8400002 -8.4540005 1.05 1
7.8410001 -8.4510002 1.1 1
7.8379998 -8.4560003 1.256 1
7.8369999 -8.46 1.071 1
7.8390002 -8.4540005 1.2180001 1
7.8410001 -8.4510002 1.1210001 1
7.8429999 -8.4449997 0.93099999 1
7.8400002 -8.4540005 0.97500002 1
7.842 -8.4490004 0.98199999 1
7.8369999 -8.4619999 1.016 1
7.8439999 -8.4420004 1.012 1
7.8369999 -8.4610004 1.082 1
7.8379998 -8.4580002 1.066 1
7.8379998 -8.4580002 1.04 1
7.8410001 -8.4499998 1.025 1
7.8439999 -8.4429998 1.0039999 1
7.8390002 -8.4549999 1.207 1
7.8379998 -8.4560003 1.33 1
7.8439999 -8.4440002 1.008 1
7.8390002 -8.4540005 1.274 1
7.8379998 -8.4580002 0.97899997 1
7.8379998 -8.4569998 1.311 1
7.8379998 -8.4580002 1.0599999 1
7.8400002 -8.4540005 1.153 1
7.8379998 -8.4549999 1.33 1
7.8369999 -8.4610004 1.001 1
7.8400002 -8.4530001 1.247 1
7.8369999 -8.4580002 1.34 1
7.8379998 -8.4569998 1.188 1
7.8400002 -8.4540005 0.94099998 1
7.8429999 -8.4460001 1.0880001 1
7.8439999 -8.4440002 1.001 1
7.842 -8.448 1.072 1
7.842 -8.448 0.954 1
7.8379998 -8.4569998 1.299 1
7.8369999 -8.4589996 1.276 1
7.8390002 -8.4549999 1.013 1
7.8410001 -8.4510002 1.0930001 1
7.8429999 -8.4460001 0.99299997 1
7.8400002 -8.4519997 1.132 1
7.8390002 -8.4569998 0.97500002 1
7.8379998 -8.4560003 1.308 1
7.8579998 -8.4689999 1.604 1
7.8569999 -8.4420004 1.658 1
7.8559999 -8.4560003 1.613 1
7.8470001 -8.46 1.4960001 1
7.8530002 -8.4619999 1.567 1
7.848 -8.4540005 1.5319999 1
7.848 -8.4610004 1.51 1
7.8559999 -8.4639997 1.59 1
7.8509998 -8.4610004 1.538 1
7.8579998 -8.4569998 1.628 1
7.8499999 -8.4499998 1.5599999 1
7.8449998 -8.46 1.483 1
7.842 -8.4560003 1.457 1
7.8559999 -8.4510002 1.619 1
7.8540001 -8.467 1.564 1
7.849 -8.4519997 1.54 1
7.8600001 -8.4610004 1.64 1
7.8540001 -8.4560003 1.587 1
7.8569999 -8.4530001 1.633 1
7.849 -8.4630003 1.515 1
7.8439999 -8.4589996 1.467 1
7.8569999 -8.4499998 1.642 1
7.8499999 -8.4549999 1.544 1
7.8579998 -8.4639997 1.617 1
7.8540001 -8.4569998 1.586 1
7.8509998 -8.4519997 1.563 1
7.8579998 -8.4490004 1.653 1
7.8569999 -8.4440002 1.649 1
7.8600001 -8.4680004 1.622 1
7.8449998 -8.4569998 1.488 1
7.8579998 -8.4610004 1.619 1
7.8569999 -8.4420004 1.658 1
7.8410001 -8.4549999 1.452 1
