# .PCD v0.7 - Point Cloud Data file format
VERSION 0.7
FIELDS x y z label
SIZE 4 4 4 4
TYPE F F F U
COUNT 1 1 1 1
WIDTH 1737
HEIGHT 1
VIEWPOINT 0 0 0 1 0 0 0
POINTS 1737
DATA ascii
9.3470001 -1.507 0.245 1
9.3360004 -1.508 0.223 1
9.573 -1.511 0.23199999 1
9.493 -1.51 0.22 1
9.4280005 -1.508 0.27000001 1
9.3929996 -1.5089999 0.19400001 1
9.4849997 -1.5089999 0.25299999 1
9.4239998 -1.5089999 0.205 1
9.5349998 -1.507 0.36700001 1
9.4560003 -1.5089999 0.23 1
9.5469999 -1.5089999 0.273 1
9.5270004 -1.508 0.336 1
9.349 -1.508 0.20100001 1
9.4110003 -1.5089999 0.20999999 1
9.4370003 -1.5089999 0.229 1
9.5360003 -1.507 0.36399999 1
9.2740002 -1.507 0.20299999 1
9.3210001 -1.508 0.20100001 1
9.2770004 -1.507 0.20100001 1
9.3760004 -1.508 0.223 1
9.4870005 -1.5089999 0.26100001 1
9.2799997 -1.507 0.208 1
9.3330002 -1.507 0.252 1
9.4549999 -1.5089999 0.213 1
9.3120003 -1.507 0.234 1
9.493 -1.508 0.30700001 1
9.4639997 -1.5089999 0.236 1
9.5139999 -1.507 0.33700001 1
9.4849997 -1.5089999 0.25799999 1
9.4060001 -1.507 0.271 1
9.3940001 -1.508 0.242 1
9.4829998 -1.508 0.28299999 1
9.4899998 -1.5089999 0.26199999 1
9.4519997 -1.508 0.26800001 1
9.3549995 -1.507 0.255 1
9.2989998 -1.508 0.193 1
9.3780003 -1.507 0.26499999 1
9.3669996 -1.508 0.22 1
9.3800001 -1.508 0.236 1
9.3710003 -1.507 0.26300001 1
9.4619999 -1.507 0.32100001 1
9.5129995 -1.508 0.29100001 1
9.4320002 -1.5089999 0.214 1
9.3579998 -1.508 0.20900001 1
9.4799995 -1.5089999 0.22400001 1
9.5170002 -1.507 0.34 1
9.4230003 -1.508 0.244 1
9.3579998 -1.507 0.25799999 1
9.3559999 -1.507 0.26300001 1
9.533 -1.508 0.338 1
9.427 -1.5089999 0.221 1
9.3970003 -1.508 0.237 1
9.3079996 -1.507 0.236 1
9.4790001 -1.508 0.27200001 1
9.4619999 -1.5089999 0.215 1
9.5179996 -1.51 0.223 1
9.3339996 -1.508 0.189 1
9.2639999 -1.507 0.205 1
9.4549999 -1.507 0.30399999 1
9.3240004 -1.507 0.24600001 1
9.2969999 -1.506 0.25299999 1
9.3640003 -1.506 0.324 1
9.1879997 -1.5039999 0.329 1
9.3520002 -1.506 0.32699999 1
9.2880001 -1.5039999 0.41100001 1
9.3430004 -1.506 0.30500001 1
9.2810001 -1.503 0.428 1
9.2550001 -1.5039999 0.398 1
9.2889996 -1.505 0.35499999 1
9.3079996 -1.5039999 0.391 1
9.4390001 -1.506 0.368 1
9.4949999 -1.506 0.38600001 1
9.2159996 -1.506 0.235 1
9.25 -1.503 0.42899999 1
9.2770004 -1.506 0.28099999 1
9.29 -1.5039999 0.421 1
9.283 -1.506 0.30000001 1
9.2880001 -1.506 0.264 1
9.2200003 -1.5039999 0.384 1
9.2679996 -1.5039999 0.40200001 1
9.2629995 -1.506 0.25799999 1
9.2390003 -1.506 0.219 1
9.3889999 -1.506 0.33700001 1
9.2790003 -1.506 0.271 1
9.2030001 -1.5039999 0.34799999 1
9.3400002 -1.506 0.30500001 1
9.3059998 -1.507 0.25600001 1
9.2629995 -1.506 0.23999999 1
9.158 -1.502 0.45199999 1
9.2460003 -1.5039999 0.34900001 1
9.5150003 -1.507 0.37099999 1
9.3479996 -1.506 0.30399999 1
9.4189997 -1.506 0.377 1
9.1619997 -1.502 0.45100001 1
9.2460003 -1.5039999 0.37799999 1
9.4119997 -1.506 0.37099999 1
9.4840002 -1.506 0.396 1
9.1780005 -1.502 0.44100001 1
9.5450001 -1.507 0.389 1
9.29 -1.507 0.235 1
9.2130003 -1.506 0.25799999 1
9.3269997 -1.506 0.28999999 1
9.2040005 -1.505 0.25600001 1
9.3109999 -1.505 0.37799999 1
9.2229996 -1.5039999 0.35800001 1
9.2550001 -1.505 0.31 1
9.2550001 -1.505 0.28999999 1
9.2399998 -1.5039999 0.368 1
9.4580002 -1.506 0.39399999 1
9.1630001 -1.502 0.41499999 1
9.2320004 -1.505 0.30700001 1
9.2449999 -1.506 0.26199999 1
9.2930002 -1.505 0.36399999 1
9.2019997 -1.502 0.43599999 1
9.3809996 -1.506 0.34400001 1
9.493 -1.506 0.38 1
9.2930002 -1.507 0.24600001 1
9.224 -1.505 0.324 1
9.2580004 -1.5039999 0.36700001 1
9.4189997 -1.505 0.40400001 1
9.4720001 -1.507 0.34 1
9.2410002 -1.5039999 0.36000001 1
9.2629995 -1.506 0.28299999 1
9.2080002 -1.506 0.24699999 1
9.3070002 -1.505 0.352 1
9.2180004 -1.506 0.223 1
9.2139997 -1.506 0.215 1
9.3369999 -1.505 0.36700001 1
9.2040005 -1.506 0.242 1
9.3109999 -1.5039999 0.391 1
9.29 -1.5039999 0.37799999 1
9.1949997 -1.503 0.41299999 1
9.2580004 -1.503 0.42500001 1
9.375 -1.505 0.414 1
9.2229996 -1.505 0.32100001 1
9.4860001 -1.507 0.35499999 1
9.3920002 -1.505 0.398 1
9.2320004 -1.5039999 0.37599999 1
9.4619999 -1.506 0.37799999 1
9.3929996 -1.505 0.412 1
9.4680004 -1.506 0.40200001 1
9.2180004 -1.505 0.30700001 1
9.4209995 -1.507 0.32100001 1
9.3339996 -1.506 0.31299999 1
9.2779999 -1.503 0.428 1
9.4610004 -1.507 0.336 1
9.4490004 -1.507 0.32600001 1
9.2069998 -1.506 0.215 1
9.2399998 -1.506 0.241 1
9.2080002 -1.506 0.248 1
9.1899996 -1.503 0.382 1
9.401 -1.506 0.36399999 1
9.2959995 -1.507 0.233 1
9.3620005 -1.505 0.36300001 1
9.4700003 -1.507 0.34400001 1
9.1890001 -1.505 0.26699999 1
9.3369999 -1.506 0.32300001 1
9.2379999 -1.5039999 0.39199999 1
9.1870003 -1.505 0.29300001 1
9.4250002 -1.507 0.322 1
9.1969995 -1.503 0.38100001 1
9.5360003 -1.507 0.38499999 1
9.3780003 -1.506 0.32300001 1
9.4420004 -1.506 0.37599999 1
9.2449999 -1.505 0.31400001 1
9.1730003 -1.5039999 0.35100001 1
9.3140001 -1.506 0.294 1
9.5120001 -1.507 0.36199999 1
9.3540001 -1.505 0.39300001 1
9.3170004 -1.505 0.34799999 1
9.4440002 -1.507 0.322 1
9.4860001 -1.507 0.35800001 1
9.29 -1.506 0.27599999 1
9.2119999 -1.505 0.29899999 1
9.3479996 -1.506 0.30700001 1
9.217 -1.505 0.30500001 1
9.3000002 -1.505 0.333 1
9.2469997 -1.506 0.27500001 1
9.1940002 -1.5039999 0.315 1
9.2969999 -1.507 0.248 1
9.2629995 -1.503 0.41299999 1
9.3409996 -1.5039999 0.421 1
9.3800001 -1.507 0.28600001 1
9.4799995 -1.506 0.398 1
9.2480001 -1.505 0.292 1
9.3800001 -1.506 0.347 1
9.2309999 -1.505 0.28999999 1
9.3280001 -1.505 0.36899999 1
9.3129997 -1.506 0.28400001 1
9.323 -1.5039999 0.40599999 1
9.3079996 -1.505 0.35299999 1
9.1859999 -1.5039999 0.347 1
9.224 -1.5039999 0.37200001 1
9.342 -1.507 0.25999999 1
9.5310001 -1.507 0.38 1
9.2799997 -1.505 0.347 1
9.2010002 -1.5039999 0.34400001 1
9.4879999 -1.506 0.37400001 1
9.1879997 -1.503 0.366 1
9.4390001 -1.506 0.38499999 1
9.2659998 -1.506 0.236 1
9.2530003 -1.506 0.23800001 1
9.3380003 -1.507 0.27700001 1
9.2919998 -1.505 0.34900001 1
9.2609997 -1.503 0.41999999 1
9.217 -1.5039999 0.32600001 1
9.1999998 -1.5039999 0.37200001 1
9.224 -1.507 0.20200001 1
9.2379999 -1.503 0.428 1
9.2440004 -1.5039999 0.34 1
9.3380003 -1.505 0.35299999 1
9.2180004 -1.5039999 0.36199999 1
9.4200001 -1.506 0.36199999 1
9.4630003 -1.506 0.35800001 1
9.1660004 -1.502 0.42399999 1
9.323 -1.505 0.37400001 1
9.2290001 -1.507 0.211 1
9.3669996 -1.505 0.39500001 1
9.2259998 -1.505 0.301 1
9.2670002 -1.506 0.235 1
9.2299995 -1.503 0.40900001 1
9.2440004 -1.505 0.331 1
9.2340002 -1.505 0.31999999 1
9.3920002 -1.506 0.31200001 1
9.3389997 -1.505 0.382 1
9.3509998 -1.505 0.38600001 1
9.184 -1.5039999 0.359 1
9.1940002 -1.503 0.373 1
9.3660002 -1.506 0.34900001 1
9.3059998 -1.5039999 0.42399999 1
9.1829996 -1.503 0.40599999 1
9.3319998 -1.506 0.31999999 1
9.2360001 -1.505 0.29100001 1
9.3149996 -1.5039999 0.41999999 1
9.2119999 -1.506 0.237 1
9.3999996 -1.507 0.296 1
9.4060001 -1.507 0.31299999 1
9.3760004 -1.505 0.41100001 1
9.3240004 -1.506 0.27399999 1
9.3669996 -1.506 0.33399999 1
9.2399998 -1.503 0.42699999 1
9.5120001 -1.507 0.382 1
9.1619997 -1.503 0.38699999 1
9.3030005 -1.505 0.36199999 1
9.3339996 -1.5039999 0.40200001 1
9.4130001 -1.505 0.403 1
9.217 -1.5039999 0.347 1
9.3269997 -1.505 0.37599999 1
9.2880001 -1.506 0.27399999 1
9.2709999 -1.505 0.347 1
9.3360004 -1.505 0.38999999 1
9.2290001 -1.503 0.40799999 1
9.2799997 -1.506 0.25999999 1
9.382 -1.505 0.414 1
9.1709995 -1.503 0.40200001 1
9.2419996 -1.507 0.21600001 1
9.3950005 -1.506 0.32699999 1
9.4399996 -1.507 0.324 1
9.4589996 -1.506 0.38800001 1
9.408 -1.507 0.29899999 1
9.2390003 -1.5039999 0.396 1
9.3240004 -1.507 0.26199999 1
9.2159996 -1.506 0.208 1
9.2580004 -1.503 0.426 1
9.3269997 -1.505 0.336 1
9.29 -1.5039999 0.384 1
9.1759996 -1.503 0.412 1
9.4359999 -1.505 0.405 1
9.4280005 -1.507 0.32100001 1
9.3389997 -1.506 0.331 1
9.25 -1.506 0.27599999 1
9.4209995 -1.506 0.38 1
9.2700005 -1.505 0.35299999 1
9.2440004 -1.506 0.227 1
9.276 -1.507 0.23 1
9.4099998 -1.505 0.405 1
9.29 -1.506 0.30000001 1
9.1569996 -1.502 0.41299999 1
9.2200003 -1.503 0.41999999 1
9.2639999 -1.506 0.248 1
9.2130003 -1.5039999 0.34200001 1
9.408 -1.507 0.317 1
9.2259998 -1.503 0.428 1
9.3599997 -1.507 0.28200001 1
9.2139997 -1.5039999 0.36000001 1
9.4060001 -1.506 0.375 1
9.2559996 -1.506 0.23999999 1
9.4980001 -1.506 0.396 1
9.2410002 -1.503 0.41299999 1
9.3100004 -1.507 0.25799999 1
9.3310003 -1.506 0.33199999 1
9.3940001 -1.507 0.294 1
9.1949997 -1.505 0.294 1
9.1680002 -1.502 0.41999999 1
9.2360001 -1.5039999 0.352 1
9.3800001 -1.505 0.38299999 1
9.5170002 -1.506 0.39199999 1
9.3559999 -1.507 0.26800001 1
9.1940002 -1.505 0.25999999 1
9.3900003 -1.506 0.361 1
9.2130003 -1.506 0.249 1
9.1730003 -1.5039999 0.34299999 1
9.2530003 -1.505 0.287 1
9.3549995 -1.5039999 0.41100001 1
9.2469997 -1.5039999 0.384 1
9.349 -1.506 0.33500001 1
9.1940002 -1.505 0.29899999 1
9.2320004 -1.5039999 0.37599999 1
9.2790003 -1.506 0.29499999 1
9.4969997 -1.507 0.37200001 1
9.2939997 -1.506 0.31099999 1
9.4610004 -1.506 0.37400001 1
9.3039999 -1.506 0.26499999 1
9.3170004 -1.5039999 0.40000001 1
9.1829996 -1.5039999 0.30700001 1
9.368 -1.505 0.37099999 1
9.2539997 -1.5039999 0.361 1
9.2580004 -1.503 0.43399999 1
9.4359999 -1.506 0.34 1
9.257 -1.505 0.34799999 1
9.224 -1.507 0.197 1
9.3739996 -1.505 0.36500001 1
9.2360001 -1.503 0.40099999 1
9.1960001 -1.503 0.41100001 1
9.1850004 -1.503 0.38299999 1
9.25 -1.506 0.252 1
9.2150002 -1.503 0.39399999 1
9.526 -1.507 0.38 1
9.2130003 -1.506 0.241 1
9.4060001 -1.507 0.31 1
9.323 -1.506 0.32800001 1
9.3120003 -1.505 0.32600001 1
9.2250004 -1.506 0.23899999 1
9.224 -1.503 0.414 1
9.1669998 -1.503 0.38800001 1
9.3389997 -1.5039999 0.419 1
9.1949997 -1.505 0.28400001 1
9.3599997 -1.506 0.32600001 1
9.2410002 -1.503 0.42199999 1
9.4619999 -1.506 0.391 1
9.2349997 -1.505 0.315 1
9.5319996 -1.507 0.377 1
9.335 -1.5039999 0.419 1
9.3059998 -1.507 0.248 1
9.3959999 -1.505 0.412 1
9.4350004 -1.506 0.38299999 1
9.5150003 -1.507 0.37599999 1
9.3179998 -1.506 0.303 1
9.1730003 -1.502 0.435 1
9.3479996 -1.507 0.28200001 1
9.1820002 -1.502 0.44299999 1
9.2930002 -1.505 0.31299999 1
9.1960001 -1.503 0.405 1
9.2480001 -1.506 0.25299999 1
9.2379999 -1.505 0.28099999 1
9.4289999 -1.506 0.35800001 1
9.2030001 -1.5039999 0.37099999 1
9.3380003 -1.506 0.33000001 1
9.5089998 -1.506 0.384 1
9.2040005 -1.5039999 0.338 1
9.2089996 -1.505 0.29100001 1
9.2270002 -1.505 0.31299999 1
9.2290001 -1.505 0.324 1
9.4849997 -1.507 0.35800001 1
9.1870003 -1.502 0.42899999 1
9.4549999 -1.506 0.37200001 1
9.2790003 -1.5039999 0.36700001 1
9.3809996 -1.506 0.32800001 1
9.3529997 -1.506 0.31099999 1
9.2419996 -1.5039999 0.38800001 1
9.4259996 -1.506 0.34 1
9.4160004 -1.506 0.38299999 1
9.4510002 -1.506 0.377 1
9.3920002 -1.507 0.29899999 1
9.2650003 -1.5039999 0.39899999 1
9.2659998 -1.505 0.30899999 1
9.2080002 -1.5039999 0.375 1
9.5030003 -1.506 0.391 1
9.198 -1.503 0.37599999 1
9.2620001 -1.506 0.28600001 1
9.368 -1.505 0.38299999 1
9.2010002 -1.506 0.222 1
9.3789997 -1.506 0.331 1
9.3929996 -1.506 0.317 1
9.283 -1.507 0.233 1
9.2139997 -1.503 0.39500001 1
9.2259998 -1.503 0.42699999 1
9.3079996 -1.506 0.317 1
9.3170004 -1.507 0.257 1
9.2250004 -1.506 0.212 1
9.4460001 -1.507 0.32600001 1
9.2340002 -1.507 0.20900001 1
9.198 -1.505 0.28400001 1
9.191 -1.505 0.27200001 1
9.2790003 -1.505 0.34099999 1
9.2080002 -1.503 0.39899999 1
9.2600002 -1.505 0.31900001 1
9.2189999 -1.505 0.30399999 1
9.2250004 -1.5039999 0.33700001 1
9.2349997 -1.505 0.28 1
9.198 -1.506 0.234 1
9.3950005 -1.505 0.403 1
9.2089996 -1.5039999 0.345 1
9.4139996 -1.505 0.39199999 1
9.2810001 -1.507 0.236 1
9.2779999 -1.505 0.34799999 1
9.2550001 -1.5039999 0.36000001 1
9.3439999 -1.505 0.396 1
9.1960001 -1.502 0.43700001 1
9.3500004 -1.506 0.34299999 1
9.4759998 -1.506 0.39399999 1
9.2950001 -1.506 0.28 1
9.2720003 -1.506 0.28099999 1
9.1829996 -1.503 0.41600001 1
9.3030005 -1.507 0.25600001 1
9.2299995 -1.503 0.40700001 1
9.1709995 -1.502 0.41999999 1
9.4429998 -1.506 0.38699999 1
9.1660004 -1.502 0.44400001 1
9.3470001 -1.507 0.27700001 1
9.3299999 -1.505 0.39199999 1
9.2819996 -1.506 0.25299999 1
9.3719997 -1.507 0.28799999 1
9.217 -1.505 0.31600001 1
9.1850004 -1.505 0.30399999 1
9.4420004 -1.506 0.347 1
9.2980003 -1.505 0.338 1
9.3280001 -1.506 0.29499999 1
9.2910004 -1.506 0.292 1
9.3859997 -1.505 0.396 1
9.2270002 -1.505 0.289 1
9.2650003 -1.5039999 0.40700001 1
9.2980003 -1.505 0.35699999 1
9.2440004 -1.506 0.241 1
9.1750002 -1.503 0.39700001 1
9.3929996 -1.506 0.331 1
9.2959995 -1.5039999 0.375 1
9.3339996 -1.506 0.31999999 1
9.3529997 -1.507 0.28400001 1
9.4200001 -1.506 0.38499999 1
9.3730001 -1.505 0.38600001 1
9.2869997 -1.506 0.294 1
9.3669996 -1.507 0.29100001 1
9.2229996 -1.506 0.23100001 1
9.3039999 -1.506 0.308 1
9.335 -1.507 0.264 1
9.493 -1.506 0.39199999 1
9.1739998 -1.502 0.428 1
9.243 -1.505 0.32800001 1
9.184 -1.5039999 0.31600001 1
9.2270002 -1.503 0.39500001 1
9.3690004 -1.506 0.34400001 1
9.5010004 -1.507 0.375 1
9.4630003 -1.506 0.37099999 1
9.2440004 -1.5039999 0.366 1
9.2650003 -1.505 0.303 1
9.2749996 -1.506 0.296 1
9.2320004 -1.506 0.26899999 1
9.1610003 -1.502 0.45199999 1
9.3500004 -1.505 0.38100001 1
9.3900003 -1.506 0.338 1
9.3990002 -1.505 0.39899999 1
9.3590002 -1.507 0.26899999 1
9.368 -1.505 0.39899999 1
9.4200001 -1.506 0.382 1
9.3920002 -1.506 0.336 1
9.3950005 -1.506 0.36300001 1
9.3079996 -1.506 0.31 1
9.21 -1.503 0.398 1
9.2150002 -1.506 0.235 1
9.3149996 -1.505 0.32699999 1
9.3100004 -1.507 0.259 1
9.5170002 -1.507 0.36899999 1
9.3389997 -1.506 0.31600001 1
9.3950005 -1.505 0.41 1
9.1829996 -1.5039999 0.31200001 1
9.2130003 -1.506 0.26100001 1
9.3280001 -1.507 0.26800001 1
9.2139997 -1.507 0.185 1
9.3459997 -1.506 0.28600001 1
9.1999998 -1.502 0.44400001 1
9.2220001 -1.505 0.273 1
9.3140001 -1.505 0.359 1
9.4659996 -1.506 0.361 1
9.4569998 -1.507 0.33899999 1
9.2539997 -1.5039999 0.39300001 1
9.2259998 -1.505 0.31400001 1
9.2969999 -1.506 0.28799999 1
9.3219995 -1.505 0.38699999 1
9.1759996 -1.503 0.38499999 1
9.2030001 -1.503 0.375 1
9.2370005 -1.505 0.27700001 1
9.5080004 -1.506 0.38800001 1
9.2510004 -1.506 0.25799999 1
9.2980003 -1.507 0.24600001 1
9.2770004 -1.505 0.33700001 1
9.3170004 -1.5039999 0.405 1
9.3380003 -1.506 0.31799999 1
9.3170004 -1.505 0.36300001 1
9.3909998 -1.505 0.405 1
9.3500004 -1.506 0.32600001 1
9.2539997 -1.5039999 0.405 1
9.2539997 -1.505 0.32300001 1
9.3690004 -1.506 0.35600001 1
9.2370005 -1.505 0.292 1
9.2950001 -1.5039999 0.398 1
9.2650003 -1.5039999 0.373 1
9.2349997 -1.505 0.317 1
9.1829996 -1.5039999 0.308 1
9.3249998 -1.505 0.375 1
9.2220001 -1.503 0.43399999 1
9.2460003 -1.5039999 0.352 1
9.3219995 -1.5039999 0.40900001 1
9.3450003 -1.506 0.287 1
9.3599997 -1.505 0.382 1
9.3380003 -1.506 0.33700001 1
9.257 -1.503 0.42300001 1
9.3479996 -1.506 0.324 1
9.2729998 -1.505 0.317 1
9.3459997 -1.505 0.37200001 1
9.3290005 -1.506 0.317 1
9.2629995 -1.505 0.301 1
9.3000002 -1.5039999 0.37900001 1
9.3109999 -1.506 0.30700001 1
9.2950001 -1.507 0.243 1
9.1709995 -1.502 0.42699999 1
9.4700003 -1.506 0.39700001 1
9.1890001 -1.5039999 0.35100001 1
9.276 -1.507 0.22499999 1
9.2729998 -1.507 0.23100001 1
9.3479996 -1.507 0.28400001 1
9.3830004 -1.506 0.352 1
9.2180004 -1.506 0.222 1
9.2700005 -1.506 0.252 1
9.5249996 -1.507 0.389 1
9.1859999 -1.502 0.44 1
9.2980003 -1.507 0.245 1
9.1800003 -1.5039999 0.32699999 1
9.4029999 -1.507 0.31400001 1
9.4940004 -1.507 0.354 1
9.4429998 -1.507 0.34200001 1
9.2700005 -1.506 0.259 1
9.2749996 -1.505 0.34299999 1
9.4650002 -1.507 0.33700001 1
9.2019997 -1.506 0.235 1
9.3149996 -1.505 0.33399999 1
9.3389997 -1.5039999 0.41999999 1
9.1759996 -1.503 0.40000001 1
9.46 -1.507 0.33199999 1
9.2889996 -1.5039999 0.38499999 1
9.4510002 -1.506 0.398 1
9.3620005 -1.505 0.40799999 1
9.4870005 -1.507 0.34599999 1
9.309 -1.5039999 0.38600001 1
9.3500004 -1.505 0.39399999 1
9.1529999 -1.502 0.43900001 1
9.21 -1.503 0.41299999 1
9.283 -1.505 0.352 1
9.4280005 -1.506 0.347 1
9.3310003 -1.506 0.33000001 1
9.3590002 -1.507 0.27399999 1
9.3610001 -1.505 0.37200001 1
9.3409996 -1.505 0.35100001 1
9.1850004 -1.505 0.29300001 1
9.1719999 -1.503 0.396 1
9.4350004 -1.506 0.37099999 1
9.4770002 -1.506 0.36700001 1
9.2659998 -1.5039999 0.36399999 1
9.1850004 -1.5039999 0.34200001 1
9.4499998 -1.507 0.34400001 1
9.2379999 -1.5039999 0.34299999 1
9.2840004 -1.506 0.266 1
9.276 -1.505 0.34 1
9.4189997 -1.505 0.39300001 1
9.2200003 -1.506 0.259 1
9.2019997 -1.5039999 0.35800001 1
9.2749996 -1.503 0.42500001 1
9.4250002 -1.505 0.396 1
9.2209997 -1.506 0.26199999 1
9.2180004 -1.5039999 0.32699999 1
9.2589998 -1.506 0.271 1
9.448 -1.506 0.38299999 1
9.276 -1.505 0.34 1
9.3999996 -1.506 0.35699999 1
9.4329996 -1.506 0.37799999 1
9.4860001 -1.506 0.37200001 1
9.3240004 -1.506 0.28299999 1
9.4560003 -1.506 0.361 1
9.2539997 -1.5039999 0.39300001 1
9.2279997 -1.505 0.30399999 1
9.3640003 -1.505 0.35800001 1
9.2320004 -1.506 0.248 1
9.3389997 -1.505 0.377 1
9.4040003 -1.506 0.33399999 1
9.5150003 -1.507 0.377 1
9.401 -1.505 0.40799999 1
9.2790003 -1.506 0.264 1
9.2290001 -1.5039999 0.38800001 1
9.2650003 -1.505 0.32699999 1
9.4820004 -1.506 0.39899999 1
9.1929998 -1.5039999 0.32499999 1
9.2810001 -1.505 0.35499999 1
9.191 -1.5039999 0.324 1
9.2959995 -1.506 0.29800001 1
9.2110004 -1.503 0.40000001 1
9.3699999 -1.506 0.35499999 1
9.3319998 -1.507 0.25400001 1
9.3319998 -1.505 0.36000001 1
9.2159996 -1.502 0.44400001 1
9.3319998 -1.505 0.354 1
9.2849998 -1.507 0.228 1
9.2250004 -1.488 1.899 1
9.3570004 -1.487 1.858 1
9.2449999 -1.488 1.864 1
9.375 -1.487 1.883 1
9.1809998 -1.49 1.688 1
9.2390003 -1.488 1.808 1
9.2709999 -1.488 1.7869999 1
9.2469997 -1.488 1.864 1
9.448 -1.4859999 1.977 1
9.2539997 -1.488 1.885 1
9.25 -1.488 1.862 1
9.1820002 -1.4910001 1.592 1
9.2770004 -1.488 1.848 1
9.302 -1.487 1.954 1
9.2530003 -1.489 1.719 1
9.276 -1.489 1.751 1
9.3690004 -1.487 1.948 1
9.1969995 -1.49 1.651 1
9.2910004 -1.489 1.763 1
9.2889996 -1.488 1.804 1
9.3839998 -1.487 1.904 1
9.2880001 -1.488 1.807 1
9.2390003 -1.488 1.822 1
9.1820002 -1.488 1.9119999 1
9.3780003 -1.4859999 1.975 1
9.2480001 -1.488 1.868 1
9.2110004 -1.488 1.831 1
9.2379999 -1.488 1.801 1
9.1960001 -1.488 1.864 1
9.3730001 -1.487 1.885 1
9.2250004 -1.49 1.668 1
9.3400002 -1.487 1.87 1
9.3079996 -1.487 1.905 1
9.2810001 -1.487 1.9349999 1
9.3950005 -1.487 1.91 1
9.302 -1.487 1.932 1
9.4189997 -1.4859999 1.979 1
9.2519999 -1.488 1.8890001 1
9.2810001 -1.488 1.859 1
9.2679996 -1.488 1.829 1
9.3830004 -1.487 1.943 1
9.2010002 -1.489 1.721 1
9.3369999 -1.487 1.921 1
9.2270002 -1.488 1.842 1
9.3520002 -1.487 1.9400001 1
9.2550001 -1.488 1.825 1
9.243 -1.488 1.885 1
9.2770004 -1.487 1.9630001 1
9.21 -1.489 1.756 1
9.3190002 -1.487 1.948 1
9.2040005 -1.488 1.842 1
9.3439999 -1.487 1.898 1
9.1739998 -1.49 1.691 1
9.2709999 -1.487 1.9630001 1
9.2709999 -1.488 1.799 1
9.3699999 -1.487 1.864 1
9.4049997 -1.487 1.916 1
9.3649998 -1.4859999 1.966 1
9.1800003 -1.49 1.669 1
9.2299995 -1.488 1.835 1
9.3430004 -1.487 1.911 1
9.2080002 -1.489 1.756 1
9.3579998 -1.487 1.9 1
9.2189999 -1.487 1.928 1
9.3319998 -1.487 1.869 1
9.2950001 -1.487 1.918 1
9.25 -1.489 1.742 1
9.3380003 -1.487 1.956 1
9.1920004 -1.489 1.75 1
9.2320004 -1.488 1.854 1
9.4449997 -1.4859999 1.984 1
9.309 -1.487 1.957 1
9.3059998 -1.488 1.8609999 1
9.2010002 -1.488 1.8839999 1
9.3970003 -1.4859999 1.95 1
9.2030001 -1.49 1.641 1
9.1739998 -1.49 1.6440001 1
9.2819996 -1.488 1.794 1
9.2229996 -1.487 1.951 1
9.3620005 -1.488 1.8430001 1
9.3459997 -1.488 1.824 1
9.2349997 -1.489 1.7130001 1
9.3389997 -1.488 1.848 1
9.3109999 -1.488 1.816 1
9.2939997 -1.487 1.936 1
9.1789999 -1.489 1.77 1
9.29 -1.488 1.8559999 1
9.2480001 -1.488 1.8380001 1
9.335 -1.487 1.92 1
9.1899996 -1.489 1.774 1
9.2180004 -1.487 1.913 1
9.1940002 -1.489 1.78 1
9.3900003 -1.4859999 1.9630001 1
9.4610004 -1.4859999 1.9859999 1
9.3149996 -1.488 1.867 1
9.309 -1.487 1.924 1
9.3830004 -1.487 1.949 1
9.4289999 -1.4859999 1.9680001 1
9.3339996 -1.488 1.841 1
9.2419996 -1.487 1.96 1
9.2069998 -1.489 1.711 1
9.3059998 -1.488 1.859 1
9.3970003 -1.4859999 1.967 1
9.2469997 -1.488 1.847 1
9.2290001 -1.489 1.735 1
9.2110004 -1.489 1.699 1
9.2910004 -1.488 1.795 1
9.2679996 -1.489 1.7410001 1
9.2150002 -1.488 1.899 1
9.1990004 -1.489 1.7410001 1
9.3889999 -1.4859999 1.956 1
9.2559996 -1.487 1.919 1
9.3470001 -1.487 1.952 1
9.2449999 -1.489 1.784 1
9.3470001 -1.488 1.847 1
9.2379999 -1.488 1.827 1
9.3450003 -1.487 1.892 1
9.1999998 -1.488 1.9119999 1
9.2019997 -1.49 1.687 1
9.3859997 -1.487 1.903 1
9.2539997 -1.489 1.775 1
9.3940001 -1.487 1.896 1
9.2250004 -1.489 1.701 1
9.2229996 -1.488 1.8609999 1
9.1940002 -1.489 1.728 1
9.283 -1.487 1.887 1
9.1929998 -1.488 1.822 1
9.2980003 -1.488 1.7970001 1
9.3120003 -1.487 1.876 1
9.2840004 -1.488 1.8049999 1
9.1960001 -1.489 1.7079999 1
9.4200001 -1.4859999 1.941 1
9.2159996 -1.489 1.779 1
9.3520002 -1.487 1.955 1
9.2360001 -1.488 1.825 1
9.3299999 -1.488 1.839 1
9.3149996 -1.488 1.789 1
9.2480001 -1.489 1.7640001 1
9.2629995 -1.488 1.8099999 1
9.2290001 -1.488 1.8049999 1
9.2049999 -1.487 1.9529999 1
9.2799997 -1.487 1.897 1
9.2799997 -1.488 1.88 1
9.2580004 -1.488 1.845 1
9.243 -1.488 1.84 1
9.2209997 -1.49 1.653 1
9.1920004 -1.49 1.6619999 1
9.2779999 -1.488 1.781 1
9.2259998 -1.489 1.73 1
9.3520002 -1.487 1.929 1
9.4560003 -1.4859999 1.98 1
9.2329998 -1.489 1.7460001 1
9.1870003 -1.489 1.715 1
9.3579998 -1.4859999 1.966 1
9.2019997 -1.489 1.799 1
9.2030001 -1.489 1.747 1
9.3789997 -1.487 1.911 1
9.2550001 -1.488 1.85 1
9.2130003 -1.489 1.758 1
9.1739998 -1.49 1.697 1
9.3009996 -1.488 1.816 1
9.3389997 -1.487 1.947 1
9.4399996 -1.4859999 1.971 1
9.2659998 -1.487 1.957 1
9.3900003 -1.4859999 1.9579999 1
9.2299995 -1.488 1.798 1
9.2510004 -1.489 1.702 1
9.2799997 -1.487 1.89 1
9.2370005 -1.489 1.77 1
9.2919998 -1.488 1.8430001 1
9.2150002 -1.49 1.646 1
9.191 -1.488 1.862 1
9.1879997 -1.49 1.656 1
9.2419996 -1.489 1.7180001 1
9.3719997 -1.487 1.899 1
9.2620001 -1.488 1.8 1
9.1759996 -1.4910001 1.5829999 1
9.3330002 -1.487 1.9349999 1
9.1929998 -1.488 1.893 1
9.1899996 -1.49 1.655 1
9.2539997 -1.488 1.804 1
9.3570004 -1.487 1.895 1
9.2559996 -1.488 1.87 1
9.2799997 -1.487 1.926 1
9.3629999 -1.487 1.891 1
9.1870003 -1.489 1.7410001 1
9.1820002 -1.488 1.86 1
9.3400002 -1.487 1.924 1
9.4099998 -1.4859999 1.947 1
9.2670002 -1.488 1.859 1
9.3260002 -1.488 1.812 1
9.3579998 -1.487 1.868 1
9.2510004 -1.488 1.791 1
9.1940002 -1.488 1.839 1
9.349 -1.487 1.878 1
9.1969995 -1.489 1.727 1
9.2019997 -1.487 1.9400001 1
9.1850004 -1.488 1.844 1
9.1759996 -1.489 1.791 1
9.2880001 -1.489 1.7690001 1
9.4169998 -1.487 1.936 1
9.2180004 -1.487 1.937 1
9.2060003 -1.49 1.689 1
9.1890001 -1.49 1.613 1
9.2259998 -1.489 1.716 1
9.2329998 -1.487 1.92 1
9.1929998 -1.489 1.705 1
9.1870003 -1.489 1.7640001 1
9.2889996 -1.488 1.794 1
9.2159996 -1.487 1.934 1
9.184 -1.489 1.738 1
9.3959999 -1.487 1.895 1
9.184 -1.487 1.9529999 1
9.2360001 -1.489 1.7029999 1
9.3109999 -1.487 1.943 1
9.1929998 -1.489 1.712 1
9.1929998 -1.488 1.818 1
9.441 -1.4859999 1.969 1
9.2589998 -1.488 1.823 1
9.2410002 -1.489 1.723 1
9.2559996 -1.489 1.707 1
9.3100004 -1.487 1.89 1
9.1960001 -1.489 1.727 1
9.257 -1.487 1.91 1
9.2930002 -1.488 1.874 1
9.1899996 -1.49 1.649 1
9.2209997 -1.489 1.791 1
9.2069998 -1.49 1.635 1
9.2749996 -1.489 1.777 1
9.217 -1.488 1.818 1
9.1949997 -1.487 1.924 1
9.217 -1.488 1.86 1
9.1879997 -1.489 1.73 1
9.224 -1.487 1.924 1
9.3439999 -1.487 1.931 1
9.2670002 -1.487 1.959 1
9.2019997 -1.488 1.83 1
9.2390003 -1.488 1.8430001 1
9.2880001 -1.488 1.859 1
9.2790003 -1.489 1.771 1
9.184 -1.49 1.625 1
9.3240004 -1.488 1.827 1
9.2889996 -1.487 1.92 1
9.3389997 -1.488 1.848 1
9.3179998 -1.487 1.88 1
9.3629999 -1.487 1.8890001 1
9.1829996 -1.488 1.816 1
9.2209997 -1.489 1.7309999 1
9.2340002 -1.488 1.803 1
9.1960001 -1.489 1.772 1
9.2880001 -1.487 1.943 1
9.382 -1.487 1.8789999 1
9.2510004 -1.489 1.778 1
9.2299995 -1.489 1.757 1
9.2799997 -1.487 1.954 1
9.415 -1.4859999 1.95 1
9.2399998 -1.489 1.704 1
9.1859999 -1.489 1.78 1
9.1789999 -1.49 1.624 1
9.2679996 -1.488 1.855 1
9.2290001 -1.487 1.949 1
9.2609997 -1.488 1.784 1
9.3579998 -1.4859999 1.975 1
9.1879997 -1.49 1.627 1
9.184 -1.49 1.693 1
9.21 -1.488 1.8150001 1
9.2019997 -1.49 1.671 1
9.3100004 -1.487 1.92 1
9.1789999 -1.489 1.721 1
9.1920004 -1.489 1.7410001 1
9.2299995 -1.487 1.9529999 1
9.408 -1.487 1.938 1
9.276 -1.487 1.892 1
9.3889999 -1.487 1.924 1
9.1879997 -1.488 1.84 1
9.1890001 -1.489 1.804 1
9.2150002 -1.489 1.793 1
9.2720003 -1.487 1.954 1
9.3190002 -1.488 1.802 1
9.1960001 -1.49 1.679 1
9.198 -1.489 1.7029999 1
9.2010002 -1.489 1.776 1
9.2089996 -1.49 1.631 1
9.1820002 -1.488 1.834 1
9.309 -1.488 1.834 1
9.2460003 -1.488 1.895 1
9.3760004 -1.487 1.95 1
9.3739996 -1.487 1.946 1
9.243 -1.488 1.808 1
9.3070002 -1.488 1.804 1
9.3039999 -1.487 1.9119999 1
9.1899996 -1.487 1.947 1
9.2810001 -1.487 1.914 1
9.2010002 -1.489 1.774 1
9.283 -1.487 1.9579999 1
9.2790003 -1.488 1.847 1
9.2609997 -1.487 1.915 1
9.2259998 -1.489 1.777 1
9.335 -1.488 1.851 1
9.3830004 -1.4859999 1.971 1
9.3570004 -1.4859999 1.967 1
9.2130003 -1.489 1.756 1
9.2440004 -1.487 1.9220001 1
9.1850004 -1.49 1.701 1
9.3039999 -1.487 1.903 1
9.3500004 -1.4859999 1.97 1
9.2040005 -1.49 1.661 1
9.3760004 -1.487 1.881 1
9.184 -1.49 1.631 1
9.2349997 -1.487 1.911 1
9.3059998 -1.488 1.816 1
9.177 -1.489 1.778 1
9.3999996 -1.4859999 1.975 1
9.1949997 -1.489 1.756 1
9.2989998 -1.487 1.903 1
9.2019997 -1.489 1.795 1
9.3120003 -1.487 1.929 1
9.3310003 -1.487 1.9579999 1
9.2200003 -1.489 1.725 1
9.4040003 -1.4859999 1.961 1
9.4239998 -1.4859999 1.948 1
9.2030001 -1.489 1.755 1
9.2690001 -1.487 1.919 1
9.1809998 -1.488 1.834 1
9.2980003 -1.488 1.8049999 1
9.2419996 -1.488 1.8710001 1
9.3850002 -1.487 1.891 1
9.4119997 -1.4859999 1.97 1
9.2740002 -1.488 1.791 1
9.2810001 -1.488 1.817 1
9.2320004 -1.489 1.719 1
9.3470001 -1.487 1.862 1
9.2880001 -1.488 1.8279999 1
9.4580002 -1.4859999 1.978 1
9.2259998 -1.49 1.674 1
9.3009996 -1.488 1.8099999 1
9.2510004 -1.487 1.957 1
9.2790003 -1.488 1.83 1
9.2650003 -1.487 1.902 1
9.3439999 -1.487 1.9400001 1
9.3120003 -1.487 1.913 1
9.1969995 -1.487 1.9349999 1
9.3509998 -1.487 1.929 1
9.3970003 -1.4859999 1.9450001 1
9.3210001 -1.488 1.817 1
9.2440004 -1.488 1.796 1
9.2320004 -1.489 1.765 1
9.1960001 -1.489 1.803 1
9.4040003 -1.487 1.9170001 1
9.2110004 -1.488 1.826 1
9.2329998 -1.489 1.697 1
9.3000002 -1.488 1.835 1
9.3540001 -1.487 1.9529999 1
9.2959995 -1.488 1.876 1
9.2309999 -1.489 1.693 1
9.3900003 -1.487 1.897 1
9.3559999 -1.487 1.915 1
9.2130003 -1.488 1.818 1
9.3940001 -1.487 1.914 1
9.2690001 -1.487 1.929 1
9.2370005 -1.488 1.836 1
9.191 -1.489 1.7539999 1
9.1759996 -1.49 1.665 1
9.3319998 -1.487 1.944 1
9.3199997 -1.487 1.939 1
9.2589998 -1.489 1.748 1
9.283 -1.489 1.743 1
9.3070002 -1.488 1.795 1
9.2360001 -1.489 1.752 1
9.2679996 -1.489 1.76 1
9.2180004 -1.487 1.909 1
9.2229996 -1.489 1.747 1
9.3629999 -1.487 1.952 1
9.21 -1.489 1.7819999 1
9.217 -1.488 1.808 1
9.257 -1.489 1.698 1
9.3610001 -1.487 1.903 1
9.257 -1.487 1.9630001 1
9.2580004 -1.489 1.7460001 1
9.1940002 -1.49 1.637 1
9.2589998 -1.489 1.7640001 1
9.3570004 -1.488 1.84 1
9.2010002 -1.488 1.883 1
9.224 -1.488 1.817 1
9.3380003 -1.488 1.835 1
9.3070002 -1.488 1.78 1
9.1890001 -1.49 1.648 1
9.3450003 -1.488 1.835 1
9.2720003 -1.487 1.932 1
9.2060003 -1.49 1.675 1
9.3570004 -1.488 1.8380001 1
9.2659998 -1.488 1.8099999 1
9.3839998 -1.487 1.9450001 1
9.1990004 -1.488 1.88 1
9.3400002 -1.487 1.8940001 1
9.2159996 -1.487 1.91 1
9.1730003 -1.489 1.758 1
9.1999998 -1.489 1.804 1
9.2700005 -1.487 1.897 1
9.2700005 -1.487 1.895 1
9.3129997 -1.487 1.9 1
9.1929998 -1.487 1.933 1
9.3369999 -1.487 1.915 1
9.2980003 -1.488 1.868 1
9.3459997 -1.4859999 1.9680001 1
9.2690001 -1.487 1.8890001 1
9.2609997 -1.488 1.834 1
9.4370003 -1.4859999 1.974 1
9.2250004 -1.488 1.832 1
9.2550001 -1.489 1.698 1
9.1780005 -1.49 1.651 1
9.2290001 -1.488 1.868 1
9.2049999 -1.489 1.702 1
9.1879997 -1.489 1.723 1
9.276 -1.488 1.8150001 1
9.2840004 -1.488 1.845 1
9.2229996 -1.489 1.7410001 1
9.2609997 -1.489 1.779 1
9.1890001 -1.49 1.664 1
9.2629995 -1.488 1.847 1
9.3800001 -1.487 1.869 1
9.217 -1.489 1.728 1
9.2810001 -1.489 1.743 1
9.2650003 -1.487 1.961 1
9.2659998 -1.488 1.823 1
9.2119999 -1.489 1.757 1
9.2489996 -1.489 1.71 1
9.2670002 -1.489 1.7640001 1
9.283 -1.488 1.862 1
9.2299995 -1.49 1.67 1
9.3179998 -1.488 1.847 1
9.2819996 -1.487 1.955 1
9.2110004 -1.487 1.928 1
9.2299995 -1.489 1.6900001 1
9.1829996 -1.49 1.674 1
9.2889996 -1.487 1.906 1
9.3050003 -1.488 1.796 1
9.217 -1.487 1.938 1
9.2670002 -1.487 1.957 1
9.3470001 -1.487 1.959 1
9.2550001 -1.488 1.8890001 1
9.2639999 -1.488 1.875 1
9.2670002 -1.487 1.896 1
9.3389997 -1.487 1.962 1
9.2959995 -1.487 1.924 1
9.1879997 -1.489 1.7539999 1
9.2410002 -1.489 1.752 1
9.2209997 -1.488 1.878 1
9.4020004 -1.487 1.905 1
9.2880001 -1.487 1.9400001 1
9.1850004 -1.488 1.888 1
9.375 -1.487 1.9220001 1
9.1879997 -1.488 1.816 1
9.3210001 -1.487 1.969 1
9.2729998 -1.487 1.916 1
9.3269997 -1.488 1.857 1
9.2349997 -1.488 1.795 1
9.2290001 -1.488 1.799 1
9.1789999 -1.49 1.635 1
9.2919998 -1.487 1.897 1
9.4359999 -1.4859999 1.983 1
9.2089996 -1.488 1.818 1
9.1800003 -1.488 1.868 1
9.3870001 -1.487 1.929 1
9.2629995 -1.487 1.964 1
9.2639999 -1.487 1.962 1
9.3559999 -1.487 1.895 1
9.2209997 -1.489 1.716 1
9.276 -1.487 1.9630001 1
9.2460003 -1.488 1.858 1
9.335 -1.487 1.911 1
9.1759996 -1.489 1.798 1
9.2360001 -1.487 1.937 1
9.3059998 -1.487 1.877 1
9.191 -1.489 1.726 1
9.2550001 -1.489 1.757 1
9.2969999 -1.488 1.798 1
9.184 -1.489 1.793 1
9.2010002 -1.489 1.726 1
9.2419996 -1.487 1.939 1
9.2679996 -1.488 1.849 1
9.2419996 -1.487 1.936 1
9.2930002 -1.488 1.8 1
9.21 -1.488 1.87 1
9.3310003 -1.488 1.817 1
9.2159996 -1.488 1.8200001 1
9.2089996 -1.489 1.735 1
9.2349997 -1.489 1.773 1
9.191 -1.489 1.75 1
9.3009996 -1.487 1.906 1
9.2410002 -1.488 1.8710001 1
9.2259998 -1.487 1.908 1
9.2469997 -1.489 1.725 1
9.2159996 -1.49 1.648 1
9.3959999 -1.487 1.918 1
9.3079996 -1.488 1.7869999 1
9.2320004 -1.488 1.867 1
9.1730003 -1.49 1.6569999 1
9.448 -1.4859999 1.97 1
9.2030001 -1.488 1.874 1
9.25 -1.488 1.791 1
9.3439999 -1.488 1.842 1
9.1809998 -1.49 1.7 1
9.4359999 -1.4859999 1.947 1
9.2930002 -1.487 1.9529999 1
9.2220001 -1.488 1.806 1
9.2189999 -1.49 1.65 1
9.3109999 -1.487 1.875 1
9.1940002 -1.488 1.845 1
9.3649998 -1.487 1.865 1
9.3629999 -1.487 1.875 1
9.2639999 -1.489 1.738 1
9.2880001 -1.489 1.739 1
9.2840004 -1.487 1.9 1
9.4040003 -1.487 1.904 1
9.2209997 -1.49 1.671 1
9.3520002 -1.487 1.862 1
9.2989998 -1.487 1.9069999 1
9.434 -1.4859999 1.964 1
9.2919998 -1.487 1.909 1
9.3400002 -1.488 1.854 1
9.3780003 -1.487 1.95 1
9.1829996 -1.4910001 1.598 1
9.2659998 -1.488 1.859 1
9.2320004 -1.487 1.91 1
9.302 -1.488 1.854 1
9.2950001 -1.488 1.809 1
9.2200003 -1.488 1.837 1
9.2969999 -1.488 1.8559999 1
9.2650003 -1.488 1.85 1
9.1949997 -1.49 1.682 1
9.3920002 -1.487 1.939 1
9.1719999 -1.4910001 1.581 1
9.2189999 -1.487 1.911 1
9.2320004 -1.488 1.806 1
9.283 -1.488 1.827 1
9.21 -1.488 1.827 1
9.2530003 -1.488 1.855 1
9.1940002 -1.489 1.7869999 1
9.2200003 -1.489 1.772 1
9.2080002 -1.489 1.709 1
9.3470001 -1.487 1.865 1
9.4399996 -1.4859999 1.984 1
9.1780005 -1.489 1.783 1
9.2329998 -1.489 1.719 1
9.2700005 -1.487 1.905 1
9.2550001 -1.489 1.73 1
9.2229996 -1.489 1.74 1
9.1859999 -1.49 1.607 1
9.3050003 -1.488 1.786 1
9.335 -1.4859999 1.969 1
9.1669998 -1.49 1.63 1
9.1890001 -1.489 1.707 1
9.401 -1.4859999 1.975 1
9.4180002 -1.4960001 1.018 1
9.3380003 -1.495 1.056 1
9.3030005 -1.495 1.086 1
9.4639997 -1.4960001 1.031 1
9.4700003 -1.4960001 1.1160001 1
9.3649998 -1.495 1.056 1
9.323 -1.495 1.01 1
9.2770004 -1.495 0.98699999 1
9.2180004 -1.494 1.0829999 1
9.4040003 -1.4960001 0.99400002 1
9.2419996 -1.495 1.003 1
9.3699999 -1.4960001 0.99599999 1
9.2950001 -1.4960001 0.85100001 1
9.3859997 -1.495 1.086 1
9.3570004 -1.495 1.099 1
9.2360001 -1.495 0.94599998 1
9.3699999 -1.4960001 0.926 1
9.2370005 -1.495 1.066 1
9.3120003 -1.4960001 0.88200003 1
9.2460003 -1.495 1.105 1
9.2980003 -1.4960001 0.95599997 1
9.2819996 -1.4960001 0.93300003 1
9.3409996 -1.495 1.0930001 1
9.3100004 -1.497 0.815 1
9.3269997 -1.495 1.107 1
9.316 -1.4960001 0.83499998 1
9.21 -1.495 1.005 1
9.4160004 -1.495 1.1109999 1
9.323 -1.4960001 0.84200001 1
9.2950001 -1.4960001 0.85799998 1
9.2709999 -1.495 0.95999998 1
9.3389997 -1.4960001 0.95200002 1
9.2320004 -1.495 1.0420001 1
9.2650003 -1.495 1.001 1
9.283 -1.4960001 0.89300001 1
9.2519999 -1.495 1.003 1
9.2709999 -1.495 1.0829999 1
9.3120003 -1.4960001 0.94199997 1
9.4549999 -1.4960001 1.038 1
9.302 -1.495 0.986 1
9.4289999 -1.495 1.113 1
9.3990002 -1.495 1.075 1
9.2969999 -1.495 1.01 1
9.3889999 -1.4960001 1.0420001 1
9.2749996 -1.4960001 0.90200001 1
9.375 -1.4960001 0.95200002 1
9.4790001 -1.4960001 1.027 1
9.2510004 -1.4960001 0.93800002 1
9.2930002 -1.495 1.094 1
9.2279997 -1.494 1.101 1
9.2440004 -1.495 0.98400003 1
9.2580004 -1.495 1.026 1
9.3719997 -1.4960001 1.005 1
9.323 -1.4960001 0.954 1
9.2530003 -1.495 1.096 1
9.2869997 -1.4960001 0.84500003 1
9.3129997 -1.4960001 0.852 1
9.3739996 -1.4960001 0.97000003 1
9.3879995 -1.4960001 0.97899997 1
9.2089996 -1.495 1.022 1
9.2659998 -1.4960001 0.88 1
9.177 -1.494 1.0829999 1
9.309 -1.495 1.0319999 1
9.3920002 -1.4960001 0.92400002 1
9.3269997 -1.495 1.084 1
9.3059998 -1.4960001 0.824 1
9.3950005 -1.4960001 0.972 1
9.2919998 -1.4960001 0.90200001 1
9.3889999 -1.4960001 1.001 1
9.2889996 -1.495 0.98699999 1
9.4440002 -1.4960001 1.018 1
9.4549999 -1.4960001 1.115 1
9.3719997 -1.495 1.084 1
9.4069996 -1.4960001 1.001 1
9.3529997 -1.4960001 0.89700001 1
9.283 -1.4960001 0.84500003 1
9.323 -1.4960001 0.89899999 1
9.2620001 -1.4960001 0.93900001 1
9.349 -1.4960001 0.95999998 1
9.5120001 -1.4960001 1.105 1
9.3070002 -1.495 1.038 1
9.2320004 -1.495 1.051 1
9.3179998 -1.495 1.044 1
9.2790003 -1.495 1.075 1
9.4189997 -1.4960001 1.0650001 1
9.3280001 -1.495 1.033 1
9.4639997 -1.4960001 1.105 1
9.5209999 -1.4960001 1.08 1
9.2959995 -1.495 1.039 1
9.3199997 -1.495 1.023 1
9.3120003 -1.4960001 0.847 1
9.3629999 -1.4960001 0.90200001 1
9.2620001 -1.4960001 0.94800001 1
9.2880001 -1.495 1.1109999 1
9.3079996 -1.495 1.057 1
9.3760004 -1.4960001 0.93599999 1
9.3970003 -1.4960001 0.94499999 1
9.2969999 -1.4960001 0.91799998 1
9.4680004 -1.4960001 1.048 1
9.1990004 -1.495 1.052 1
9.3660002 -1.4960001 0.991 1
9.3959999 -1.4960001 0.93400002 1
9.4390001 -1.495 1.114 1
9.3129997 -1.4960001 0.93800002 1
9.1890001 -1.494 1.075 1
9.4650002 -1.4960001 1.022 1
9.2740002 -1.495 1 1
9.3380003 -1.4960001 0.87599999 1
9.2639999 -1.495 1.0549999 1
9.2370005 -1.495 0.99900001 1
9.2419996 -1.495 1.058 1
9.401 -1.4960001 0.94199997 1
9.2740002 -1.495 1.086 1
9.243 -1.4960001 0.92699999 1
9.4069996 -1.495 1.102 1
9.3299999 -1.4960001 0.84299999 1
9.408 -1.4960001 1.036 1
9.4090004 -1.4960001 1.003 1
9.3190002 -1.495 1.084 1
9.302 -1.4960001 0.917 1
9.3579998 -1.4960001 0.92400002 1
9.3800001 -1.4960001 0.97000003 1
9.2399998 -1.495 1.016 1
9.29 -1.4960001 0.85000002 1
9.4090004 -1.4960001 0.99599999 1
9.2270002 -1.495 0.97100002 1
9.3649998 -1.4960001 0.93099999 1
9.2989998 -1.4960001 0.96200001 1
9.3719997 -1.4960001 1 1
9.2609997 -1.4960001 0.93400002 1
9.2799997 -1.4960001 0.86000001 1
9.3620005 -1.495 1.105 1
9.3140001 -1.4960001 0.949 1
9.2159996 -1.495 1.077 1
9.3039999 -1.495 1.087 1
9.4370003 -1.4960001 1.011 1
9.4300003 -1.4960001 1.013 1
9.2309999 -1.495 0.98500001 1
9.4540005 -1.4960001 1.0779999 1
9.3190002 -1.497 0.82499999 1
9.309 -1.4960001 0.89099997 1
9.1969995 -1.494 1.103 1
9.3269997 -1.495 1.0650001 1
9.3629999 -1.495 1.1109999 1
9.3210001 -1.4960001 0.85799998 1
9.2729998 -1.4960001 0.926 1
9.382 -1.4960001 1.046 1
9.4569998 -1.4960001 1.107 1
9.3769999 -1.4960001 1.0089999 1
9.2460003 -1.495 1.094 1
9.3290005 -1.4960001 0.93000001 1
9.3830004 -1.495 1.084 1
9.4689999 -1.4960001 1.016 1
9.3540001 -1.4960001 0.87300003 1
9.2440004 -1.495 1.097 1
9.4110003 -1.495 1.108 1
9.4790001 -1.4960001 1.09 1
9.2860003 -1.495 1.096 1
9.3839998 -1.4960001 0.977 1
9.3009996 -1.4960001 0.898 1
9.3889999 -1.4960001 0.99699998 1
9.4069996 -1.4960001 1.054 1
9.2469997 -1.495 1.098 1
9.3540001 -1.4960001 1.025 1
9.276 -1.4960001 0.89600003 1
9.2869997 -1.4960001 0.912 1
9.3009996 -1.4960001 0.93000001 1
9.198 -1.495 1.052 1
9.2679996 -1.495 1.069 1
9.2729998 -1.495 1.0420001 1
9.368 -1.495 1.081 1
9.335 -1.4960001 0.98400003 1
9.2550001 -1.495 0.97500002 1
9.5 -1.4960001 1.114 1
9.3039999 -1.4960001 0.94099998 1
9.3149996 -1.4960001 0.917 1
9.4540005 -1.4960001 1.022 1
9.1750002 -1.494 1.099 1
9.2259998 -1.495 1.013 1
9.4119997 -1.4960001 1.0470001 1
9.2860003 -1.495 1.022 1
9.4770002 -1.4960001 1.066 1
9.4259996 -1.4960001 1.021 1
9.3999996 -1.4960001 1.054 1
9.4840002 -1.4960001 1.102 1
9.2969999 -1.495 1.1109999 1
9.25 -1.495 0.96200001 1
9.3079996 -1.495 1.023 1
9.3380003 -1.495 1.054 1
9.3999996 -1.495 1.105 1
9.46 -1.4960001 1.057 1
9.3269997 -1.4960001 0.88499999 1
9.4200001 -1.4960001 1.087 1
9.25 -1.495 1.0549999 1
9.3079996 -1.495 1.008 1
9.4209995 -1.4960001 1.08 1
9.3850002 -1.4960001 0.98299998 1
9.3599997 -1.4960001 0.95700002 1
9.3620005 -1.4960001 1.035 1
9.184 -1.494 1.076 1
9.2770004 -1.495 1.105 1
9.3710003 -1.4960001 0.99400002 1
9.3699999 -1.4960001 1 1
9.2349997 -1.495 0.98699999 1
9.2930002 -1.4960001 0.85500002 1
9.3760004 -1.4960001 0.89899999 1
9.4899998 -1.4960001 1.095 1
9.2159996 -1.494 1.0930001 1
9.4829998 -1.4960001 1.082 1
9.4460001 -1.4960001 0.991 1
9.2840004 -1.4960001 0.95899999 1
9.349 -1.495 1.05 1
9.2659998 -1.495 0.954 1
9.3479996 -1.4960001 1.0190001 1
9.2790003 -1.4960001 0.93099999 1
9.2790003 -1.4960001 0.95999998 1
9.2080002 -1.494 1.0930001 1
9.3050003 -1.495 1.1059999 1
9.4219999 -1.495 1.103 1
9.4160004 -1.495 1.108 1
9.3559999 -1.4960001 0.88499999 1
9.316 -1.495 1.0039999 1
9.2939997 -1.495 1.0470001 1
9.3079996 -1.4960001 0.86299998 1
9.3900003 -1.4960001 0.986 1
9.2720003 -1.495 1.024 1
9.4989996 -1.4960001 1.089 1
9.3070002 -1.495 1.0549999 1
9.3950005 -1.4960001 0.94999999 1
9.46 -1.4960001 1.0930001 1
9.3000002 -1.4960001 0.87900001 1
9.3260002 -1.4960001 0.84600002 1
9.3249998 -1.495 1.033 1
9.3299999 -1.495 1.03 1
9.3549995 -1.4960001 0.94800001 1
9.2749996 -1.4960001 0.87599999 1
9.3179998 -1.4960001 0.92900002 1
9.4610004 -1.4960001 1.048 1
9.3520002 -1.4960001 0.94400001 1
9.2290001 -1.495 0.96799999 1
9.2539997 -1.495 1.056 1
9.3900003 -1.495 1.066 1
9.2220001 -1.495 1.026 1
9.3579998 -1.4960001 0.91399997 1
9.3310003 -1.4960001 0.98000002 1
9.2299995 -1.495 1.051 1
9.5450001 -1.4960001 1.119 1
9.302 -1.4960001 0.85799998 1
9.4309998 -1.4960001 1.082 1
9.2419996 -1.495 1.09 1
9.2440004 -1.495 1 1
9.2749996 -1.495 0.98000002 1
9.5159998 -1.4960001 1.117 1
9.4919996 -1.4960001 1.063 1
9.3450003 -1.495 1.054 1
9.2969999 -1.495 1.076 1
9.3380003 -1.4960001 0.99699998 1
9.2480001 -1.495 1.074 1
9.243 -1.495 0.991 1
9.2539997 -1.4960001 0.94099998 1
9.5200005 -1.4960001 1.114 1
9.3830004 -1.4960001 0.91900003 1
9.3699999 -1.4960001 0.94400001 1
9.4799995 -1.4960001 1.074 1
9.2309999 -1.495 0.97799999 1
9.5039997 -1.4960001 1.113 1
9.507 -1.4960001 1.1160001 1
9.2959995 -1.4960001 0.94099998 1
9.2290001 -1.495 0.99400002 1
9.2939997 -1.495 1.013 1
9.3430004 -1.4960001 0.96499997 1
9.3570004 -1.4960001 1.016 1
9.3260002 -1.495 1.056 1
9.3290005 -1.495 1.095 1
9.2629995 -1.495 1.079 1
9.2679996 -1.4960001 0.92500001 1
9.368 -1.4960001 0.92000002 1
9.335 -1.497 0.83999997 1
9.2880001 -1.4960001 0.889 1
9.5209999 -1.4960001 1.0880001 1
9.2950001 -1.4960001 0.96399999 1
9.3430004 -1.4960001 0.92000002 1
9.2080002 -1.495 1.0089999 1
9.2869997 -1.4960001 0.89200002 1
9.2910004 -1.4960001 0.85000002 1
9.3009996 -1.4960001 0.84899998 1
9.2860003 -1.4960001 0.93599999 1
9.316 -1.4960001 0.87900001 1
9.3540001 -1.4960001 0.97000003 1
9.3339996 -1.4960001 0.94199997 1
9.5109997 -1.4960001 1.079 1
9.3950005 -1.495 1.104 1
9.4180002 -1.4960001 1.077 1
9.243 -1.495 1.045 1
9.2849998 -1.495 1.099 1
9.2950001 -1.4960001 0.95999998 1
9.3500004 -1.4960001 0.93099999 1
9.2609997 -1.495 1.008 1
9.2749996 -1.495 1.016 1
9.3870001 -1.4960001 0.98199999 1
9.3470001 -1.495 1.103 1
9.2290001 -1.495 1.082 1
9.283 -1.495 1.0039999 1
9.3430004 -1.4960001 0.93099999 1
9.316 -1.4960001 0.96700001 1
9.448 -1.4960001 1.017 1
9.4440002 -1.4960001 1.044 1
9.276 -1.495 0.972 1
9.5080004 -1.4960001 1.063 1
9.2489996 -1.495 0.95999998 1
9.2460003 -1.495 1.0369999 1
9.2629995 -1.495 1.0549999 1
9.2229996 -1.495 0.97899997 1
9.3719997 -1.4960001 0.93800002 1
9.2629995 -1.495 1.0880001 1
9.2790003 -1.4960001 0.96200001 1
9.3389997 -1.495 1.109 1
9.224 -1.495 0.96899998 1
9.349 -1.495 1.0880001 1
9.2419996 -1.495 1.025 1
9.4619999 -1.4960001 1.09 1
9.3190002 -1.495 1.039 1
9.4300003 -1.4960001 1.062 1
9.2749996 -1.495 1.058 1
9.4230003 -1.4960001 1.067 1
9.3470001 -1.495 1.073 1
9.3240004 -1.495 1.053 1
9.3809996 -1.495 1.09 1
9.4619999 -1.4960001 1.108 1
9.4379997 -1.4960001 0.99599999 1
9.2559996 -1.495 0.94800001 1
9.3369999 -1.4960001 0.96499997 1
9.2410002 -1.495 1.028 1
9.5089998 -1.4960001 1.064 1
9.3140001 -1.4960001 0.86900002 1
9.2449999 -1.495 1.076 1
9.533 -1.4960001 1.108 1
9.3280001 -1.4960001 0.986 1
9.3559999 -1.495 1.054 1
9.2690001 -1.495 1.05 1
9.3439999 -1.4960001 0.986 1
9.3640003 -1.4960001 1.008 1
9.4870005 -1.4960001 1.0599999 1
9.3529997 -1.4960001 0.875 1
9.2930002 -1.4960001 0.89399999 1
9.3039999 -1.495 1.01 1
9.4530001 -1.4960001 1.0599999 1
9.3439999 -1.495 1.058 1
9.2530003 -1.495 1.053 1
9.3039999 -1.495 1.067 1
9.3380003 -1.495 1.038 1
9.3079996 -1.4960001 0.88999999 1
9.3000002 -1.4960001 0.83200002 1
9.4370003 -1.4960001 1.0470001 1
9.4589996 -1.4960001 1.105 1
9.2650003 -1.495 0.99900001 1
9.2049999 -1.494 1.105 1
9.368 -1.4960001 0.99900001 1
9.2559996 -1.495 1.086 1
9.3430004 -1.495 1.0779999 1
9.3120003 -1.495 0.99699998 1
9.2910004 -1.4960001 0.90799999 1
9.3149996 -1.4960001 0.93000001 1
9.4779997 -1.4960001 1.0700001 1
9.2110004 -1.494 1.102 1
9.4610004 -1.4960001 1.086 1
9.2679996 -1.495 0.95899999 1
9.2810001 -1.4960001 0.86799997 1
9.4130001 -1.495 1.104 1
9.2700005 -1.4960001 0.93199998 1
9.2519999 -1.495 0.954 1
9.4259996 -1.4960001 0.963 1
9.3109999 -1.495 1.016 1
9.5089998 -1.4960001 1.115 1
9.3319998 -1.4960001 0.85699999 1
9.5170002 -1.4960001 1.109 1
9.4119997 -1.4960001 0.98900002 1
9.1879997 -1.494 1.101 1
9.4250002 -1.4960001 1.074 1
9.2989998 -1.495 1.069 1
9.415 -1.495 1.0829999 1
9.3190002 -1.4960001 0.99599999 1
9.2600002 -1.495 1.0420001 1
9.2200003 -1.495 1.056 1
9.2410002 -1.495 1.0599999 1
9.2720003 -1.495 1.0700001 1
9.2779999 -1.4960001 0.94 1
9.3839998 -1.4960001 0.93000001 1
9.2770004 -1.495 1.011 1
9.3450003 -1.4960001 0.97500002 1
9.3179998 -1.4960001 0.93099999 1
9.2559996 -1.495 1.099 1
9.2749996 -1.4960001 0.88300002 1
9.3540001 -1.495 1.05 1
9.3039999 -1.495 0.995 1
9.2639999 -1.495 1.033 1
9.5010004 -1.4960001 1.101 1
9.3439999 -1.495 1.11 1
9.217 -1.495 1.045 1
9.21 -1.494 1.1059999 1
9.2550001 -1.4960001 0.92699999 1
9.4200001 -1.4960001 1.012 1
9.5030003 -1.4960001 1.11 1
9.2650003 -1.4960001 0.92000002 1
9.3369999 -1.495 1.0549999 1
9.2709999 -1.4960001 0.91000003 1
9.2869997 -1.4960001 0.83099997 1
9.2939997 -1.4960001 0.84100002 1
9.2700005 -1.495 1.073 1
9.2989998 -1.495 1.044 1
9.4849997 -1.4960001 1.0369999 1
9.4960003 -1.4960001 1.089 1
9.4119997 -1.495 1.086 1
9.2729998 -1.4960001 0.91299999 1
9.3210001 -1.495 1.067 1
9.2539997 -1.495 0.96499997 1
9.2410002 -1.495 0.97899997 1
9.3439999 -1.4960001 0.91299999 1
9.3190002 -1.4960001 0.93400002 1
9.335 -1.4960001 0.97299999 1
9.2370005 -1.495 1.04 1
9.5220003 -1.4960001 1.113 1
9.3339996 -1.4960001 0.94400001 1
9.3500004 -1.4960001 0.92799997 1
9.4029999 -1.4960001 1.052 1
9.2989998 -1.4960001 0.84799999 1
9.3000002 -1.495 1.067 1
9.3479996 -1.4960001 0.95599997 1
9.3559999 -1.495 1.05 1
9.4849997 -1.4960001 1.076 1
9.2980003 -1.4960001 0.903 1
9.2390003 -1.495 1.061 1
9.5190001 -1.4960001 1.091 1
9.2250004 -1.495 0.96899998 1
9.3310003 -1.495 1.092 1
9.2069998 -1.495 1.022 1
9.401 -1.4960001 0.98500001 1
9.2950001 -1.4960001 0.94999999 1
9.3450003 -1.495 1.096 1
9.2290001 -1.495 1.0089999 1
9.3210001 -1.4960001 0.88200003 1
9.2770004 -1.495 0.99900001 1
9.4160004 -1.495 1.101 1
9.2659998 -1.495 1.058 1
9.342 -1.4960001 1.01 1
9.3559999 -1.4960001 0.87699997 1
9.3769999 -1.4960001 0.90600002 1
9.243 -1.495 1.043 1
9.3470001 -1.4960001 0.89300001 1
9.3699999 -1.4960001 0.98400003 1
9.2519999 -1.495 1.002 1
9.3500004 -1.495 1.0420001 1
9.3719997 -1.4960001 0.92400002 1
9.415 -1.4960001 0.96499997 1
9.2860003 -1.495 1.0700001 1
9.2410002 -1.495 0.94800001 1
9.3219995 -1.4960001 0.88700002 1
9.2869997 -1.4960001 0.92500001 1
9.309 -1.495 1.048 1
9.3400002 -1.495 1.035 1
9.342 -1.495 1.1109999 1
9.3400002 -1.4960001 0.86199999 1
9.2950001 -1.4960001 0.91900003 1
9.3240004 -1.4960001 0.912 1
9.2040005 -1.495 1.024 1
9.302 -1.495 1.103 1
9.3129997 -1.4960001 0.83499998 1
9.5240002 -1.4960001 1.11 1
9.3109999 -1.4960001 0.93300003 1
9.3839998 -1.4960001 1.0319999 1
9.3470001 -1.4960001 1.012 1
9.3009996 -1.4960001 0.85100001 1
9.4940004 -1.4960001 1.067 1
9.1940002 -1.494 1.073 1
9.3249998 -1.4960001 0.94499999 1
9.3210001 -1.495 1.097 1
9.3400002 -1.4960001 0.97399998 1
9.1949997 -1.495 1.039 1
9.3290005 -1.4960001 0.84100002 1
9.2860003 -1.495 1 1
9.2130003 -1.495 1.029 1
9.243 -1.495 0.98100001 1
9.3170004 -1.495 1.091 1
9.3360004 -1.495 1.087 1
9.4300003 -1.4960001 0.97299999 1
9.3389997 -1.4960001 0.98799998 1
9.3739996 -1.4960001 1.0089999 1
9.3739996 -1.4960001 0.89200002 1
9.3590002 -1.495 1.0369999 1
9.3299999 -1.495 1.079 1
9.3269997 -1.495 1.1109999 1
9.3319998 -1.495 1.026 1
9.2720003 -1.495 0.97600001 1
9.342 -1.495 1.094 1
9.3509998 -1.4960001 0.96200001 1
9.3549995 -1.4960001 0.96899998 1
9.4040003 -1.4960001 0.93300003 1
9.3940001 -1.495 1.084 1
9.3500004 -1.495 1.063 1
9.2220001 -1.495 0.97899997 1
9.3280001 -1.495 1.085 1
9.25 -1.495 1.0700001 1
9.21 -1.494 1.076 1
9.4499998 -1.4960001 1.067 1
9.2650003 -1.4960001 0.89200002 1
9.382 -1.495 1.107 1
9.2270002 -1.495 0.99199998 1
9.283 -1.4960001 0.847 1
9.2889996 -1.495 1.054 1
9.3889999 -1.495 1.101 1
9.4329996 -1.4960001 1.024 1
9.2399998 -1.495 1.057 1
9.3430004 -1.4960001 0.92699999 1
9.3249998 -1.4960001 0.97899997 1
9.408 -1.4960001 0.99199998 1
9.2779999 -1.495 1.027 1
9.2790003 -1.4960001 0.89999998 1
9.3699999 -1.4960001 0.93699998 1
9.2139997 -1.495 1.072 1
9.2629995 -1.495 1.031 1
9.2489996 -1.495 1.03 1
9.3509998 -1.4960001 0.93199998 1
9.3450003 -1.4960001 0.93099999 1
9.4469995 -1.4960001 1.1059999 1
9.3620005 -1.4960001 1.001 1
9.3760004 -1.4960001 0.95899999 1
9.2460003 -1.495 1.022 1
9.2670002 -1.495 1.034 1
9.4469995 -1.4960001 1.101 1
9.2989998 -1.495 1.036 1
9.375 -1.495 1.074 1
9.3839998 -1.4960001 0.94599998 1
9.4180002 -1.4960001 1.029 1
9.3479996 -1.495 1.0829999 1
9.4049997 -1.4960001 1.038 1
9.4110003 -1.4960001 1.0089999 1
9.3699999 -1.4960001 0.92400002 1
9.5139999 -1.4960001 1.102 1
9.4259996 -1.4960001 1.017 1
9.3140001 -1.4960001 0.91900003 1
9.4189997 -1.4960001 0.98799998 1
9.3059998 -1.495 1.026 1
9.3669996 -1.495 1.11 1
9.2229996 -1.494 1.092 1
9.4309998 -1.4960001 1.066 1
9.2679996 -1.4960001 0.93900001 1
9.3219995 -1.495 1.1059999 1
9.3269997 -1.4960001 0.99299997 1
9.4130001 -1.4960001 1.053 1
9.2690001 -1.4960001 0.95300001 1
9.4680004 -1.4960001 1.0599999 1
9.2849998 -1.4960001 0.875 1
9.2049999 -1.494 1.102 1
9.3990002 -1.495 1.109 1
9.2989998 -1.4960001 0.88099998 1
9.3000002 -1.495 1.056 1
9.2609997 -1.495 1.031 1
9.4530001 -1.4960001 0.99599999 1
9.4230003 -1.4960001 1.0880001 1
9.448 -1.4960001 1.0039999 1
9.3009996 -1.4960001 0.97600001 1
9.4619999 -1.4960001 1.073 1
9.4230003 -1.4960001 0.99000001 1
9.3839998 -1.4960001 0.94 1
9.4899998 -1.4960001 1.086 1
9.2889996 -1.495 1.059 1
9.3470001 -1.495 1.0599999 1
9.4049997 -1.4960001 0.949 1
9.382 -1.4960001 0.94599998 1
9.3760004 -1.4960001 0.977 1
9.2919998 -1.495 1.1059999 1
9.3369999 -1.4960001 0.89399999 1
