# .PCD v0.7 - Point Cloud Data file format
VERSION 0.7
FIELDS x y z label
SIZE 4 4 4 4
TYPE F F F U
COUNT 1 1 1 1
WIDTH 1846
HEIGHT 1
VIEWPOINT 0 0 0 1 0 0 0
POINTS 1846
DATA ascii
5.48 -1.4400001 1.5779999 1
5.4720001 -1.477 1.804 1
5.4790001 -1.429 1.585 1
5.4759998 -1.418 1.669 1
5.4790001 -1.442 1.598 1
5.4819999 -1.437 1.517 1
5.4759998 -1.4400001 1.669 1
5.4770002 -1.465 1.656 1
5.4790001 -1.425 1.587 1
5.4809999 -1.439 1.536 1
5.4770002 -1.4529999 1.646 1
5.474 -1.471 1.745 1
5.4749999 -1.4299999 1.7130001 1
5.4749999 -1.429 1.715 1
5.4840002 -1.444 1.456 1
5.4759998 -1.474 1.699 1
5.48 -1.452 1.567 1
5.4840002 -1.4349999 1.448 1
5.4809999 -1.446 1.553 1
5.4840002 -1.447 1.461 1
5.4749999 -1.47 1.706 1
5.4770002 -1.421 1.649 1
5.4790001 -1.455 1.598 1
5.4759998 -1.433 1.664 1
5.4829998 -1.443 1.478 1
5.473 -1.4119999 1.742 1
5.4790001 -1.475 1.61 1
5.4759998 -1.475 1.688 1
5.4840002 -1.439 1.455 1
5.4749999 -1.47 1.727 1
5.4770002 -1.471 1.666 1
5.474 -1.411 1.735 1
5.48 -1.456 1.5829999 1
5.48 -1.4400001 1.556 1
5.474 -1.459 1.73 1
5.48 -1.436 1.5549999 1
5.474 -1.441 1.738 1
5.4840002 -1.4400001 1.448 1
5.4819999 -1.465 1.522 1
5.4759998 -1.416 1.665 1
5.4770002 -1.431 1.658 1
5.474 -1.42 1.737 1
5.4749999 -1.459 1.717 1
5.4749999 -1.436 1.694 1
5.4780002 -1.466 1.637 1
5.4780002 -1.433 1.623 1
5.4759998 -1.425 1.671 1
5.4749999 -1.4680001 1.7029999 1
5.48 -1.429 1.564 1
5.4770002 -1.472 1.6619999 1
5.4819999 -1.4400001 1.5190001 1
5.4749999 -1.451 1.721 1
5.4850001 -1.447 1.425 1
5.4759998 -1.4680001 1.673 1
5.4770002 -1.459 1.666 1
5.4860001 -1.448 1.402 1
5.4819999 -1.4450001 1.5039999 1
5.473 -1.425 1.748 1
5.4770002 -1.452 1.642 1
5.4829998 -1.4450001 1.4960001 1
5.4759998 -1.434 1.6849999 1
5.4780002 -1.465 1.6339999 1
5.4749999 -1.421 1.699 1
5.4759998 -1.438 1.6900001 1
5.4759998 -1.437 1.671 1
5.4749999 -1.465 1.705 1
5.4829998 -1.4529999 1.487 1
5.473 -1.476 1.761 1
5.4819999 -1.443 1.506 1
5.4770002 -1.459 1.653 1
5.4770002 -1.42 1.646 1
5.4770002 -1.4630001 1.664 1
5.4770002 -1.437 1.66 1
5.474 -1.462 1.729 1
5.4840002 -1.446 1.454 1
5.4790001 -1.477 1.602 1
5.4840002 -1.4349999 1.454 1
5.4819999 -1.447 1.523 1
5.48 -1.426 1.564 1
5.4770002 -1.419 1.653 1
5.4780002 -1.462 1.617 1
5.4720001 -1.472 1.799 1
5.4770002 -1.4450001 1.656 1
5.4790001 -1.449 1.6 1
5.4809999 -1.448 1.545 1
5.474 -1.432 1.722 1
5.4780002 -1.448 1.622 1
5.48 -1.467 1.574 1
5.473 -1.437 1.8940001 1
5.473 -1.409 1.803 1
5.4720001 -1.448 1.8380001 1
5.473 -1.4069999 1.79 1
5.473 -1.438 1.875 1
5.4749999 -1.414 1.9809999 1
5.4720001 -1.474 1.827 1
5.4720001 -1.455 1.859 1
5.4720001 -1.464 1.855 1
5.474 -1.419 1.938 1
5.473 -1.438 1.814 1
5.4720001 -1.476 1.845 1
5.473 -1.443 1.89 1
5.474 -1.416 1.97 1
5.4749999 -1.418 1.992 1
5.473 -1.418 1.811 1
5.473 -1.45 1.911 1
5.474 -1.41 1.96 1
5.4720001 -1.476 1.887 1
5.474 -1.41 1.905 1
5.4720001 -1.434 1.783 1
5.474 -1.418 1.902 1
5.473 -1.456 1.915 1
5.473 -1.459 1.9069999 1
5.473 -1.441 1.932 1
5.4720001 -1.467 1.8940001 1
5.474 -1.423 1.909 1
5.4749999 -1.4170001 1.9910001 1
5.4720001 -1.456 1.864 1
5.473 -1.4119999 1.814 1
5.473 -1.426 1.842 1
5.473 -1.434 1.8789999 1
5.474 -1.433 1.937 1
5.474 -1.426 1.955 1
5.474 -1.429 1.952 1
5.473 -1.459 1.9220001 1
5.473 -1.427 1.827 1
5.4720001 -1.476 1.8839999 1
5.473 -1.425 1.864 1
5.4720001 -1.4680001 1.8329999 1
5.474 -1.427 1.973 1
5.473 -1.416 1.776 1
5.4720001 -1.469 1.842 1
5.473 -1.455 1.874 1
5.474 -1.4119999 1.887 1
5.473 -1.415 1.793 1
5.473 -1.42 1.829 1
5.4749999 -1.414 2.0020001 1
5.474 -1.421 1.913 1
5.473 -1.432 1.834 1
5.4720001 -1.448 1.813 1
5.473 -1.41 1.785 1
5.474 -1.4170001 1.873 1
5.473 -1.431 1.858 1
5.473 -1.419 1.77 1
5.4720001 -1.471 1.831 1
5.473 -1.4119999 1.773 1
5.474 -1.4170001 1.891 1
5.473 -1.436 1.919 1
5.4720001 -1.469 1.897 1
5.473 -1.421 1.878 1
5.474 -1.421 1.925 1
5.473 -1.454 1.873 1
5.4720001 -1.452 1.844 1
5.4720001 -1.456 1.863 1
5.473 -1.439 1.853 1
5.474 -1.419 1.967 1
5.4720001 -1.473 1.86 1
5.4720001 -1.4579999 1.817 1
5.473 -1.447 1.934 1
5.474 -1.419 1.9450001 1
5.4720001 -1.456 1.806 1
5.473 -1.406 1.767 1
5.473 -1.441 1.8329999 1
5.474 -1.436 1.966 1
5.473 -1.421 1.875 1
5.473 -1.411 1.765 1
5.474 -1.409 1.888 1
5.474 -1.4299999 1.97 1
5.473 -1.444 1.897 1
5.473 -1.409 1.799 1
5.4720001 -1.444 1.791 1
5.4720001 -1.444 1.806 1
5.473 -1.421 1.791 1
5.4720001 -1.4680001 1.8609999 1
5.4720001 -1.436 1.788 1
5.473 -1.4349999 1.909 1
5.473 -1.4220001 1.8329999 1
5.473 -1.429 1.899 1
5.473 -1.45 1.941 1
5.4720001 -1.469 1.851 1
5.4720001 -1.4630001 1.878 1
5.474 -1.42 1.961 1
5.473 -1.4069999 1.76 1
5.4720001 -1.434 1.785 1
5.4749999 -1.4119999 1.99 1
5.473 -1.415 1.807 1
5.473 -1.415 1.786 1
5.4720001 -1.466 1.8890001 1
5.474 -1.426 1.904 1
5.473 -1.4400001 1.891 1
5.473 -1.414 1.794 1
5.4720001 -1.447 1.798 1
5.473 -1.449 1.904 1
5.473 -1.423 1.806 1
5.4720001 -1.447 1.835 1
5.473 -1.442 1.853 1
5.4720001 -1.478 1.821 1
5.474 -1.426 1.982 1
5.473 -1.467 1.911 1
5.474 -1.414 1.8710001 1
5.473 -1.447 1.89 1
5.4720001 -1.467 1.821 1
5.4720001 -1.472 1.893 1
5.4749999 -1.4119999 1.995 1
5.4720001 -1.48 1.862 1
5.473 -1.457 1.899 1
5.4720001 -1.432 1.783 1
5.4770002 -1.473 2.201 1
5.4759998 -1.4680001 2.1359999 1
5.4759998 -1.442 2.1270001 1
5.4759998 -1.449 2.1099999 1
5.4770002 -1.452 2.1930001 1
5.4780002 -1.473 2.2509999 1
5.4749999 -1.455 2.0610001 1
5.4749999 -1.479 2.098 1
5.4759998 -1.436 2.112 1
5.4759998 -1.466 2.154 1
5.4770002 -1.478 2.204 1
5.4759998 -1.451 2.132 1
5.4780002 -1.478 2.2679999 1
5.4770002 -1.467 2.181 1
5.4749999 -1.4170001 2.0339999 1
5.4759998 -1.433 2.1059999 1
5.4759998 -1.449 2.1199999 1
5.4749999 -1.451 2.075 1
5.4759998 -1.478 2.181 1
5.4759998 -1.428 2.075 1
5.4749999 -1.431 2.039 1
5.4759998 -1.4299999 2.0899999 1
5.4770002 -1.442 2.152 1
5.4749999 -1.438 2.072 1
5.4759998 -1.437 2.0929999 1
5.474 -1.4630001 2.066 1
5.4770002 -1.455 2.194 1
5.4749999 -1.448 2.076 1
5.474 -1.48 2.049 1
5.4749999 -1.433 2.0610001 1
5.4759998 -1.4630001 2.1600001 1
5.4749999 -1.462 2.1040001 1
5.474 -1.459 2.046 1
5.474 -1.477 2.0739999 1
5.4759998 -1.433 2.0940001 1
5.4749999 -1.426 2.0280001 1
5.4780002 -1.465 2.2409999 1
5.4749999 -1.432 2.0739999 1
5.474 -1.47 2.0469999 1
5.474 -1.4630001 2.0420001 1
5.4770002 -1.475 2.2030001 1
5.474 -1.442 2.029 1
5.4770002 -1.457 2.2030001 1
5.4749999 -1.467 2.1199999 1
5.4749999 -1.437 2.0580001 1
5.474 -1.467 2.0420001 1
5.474 -1.465 2.069 1
5.4749999 -1.48 2.1199999 1
5.4759998 -1.466 2.132 1
5.4759998 -1.443 2.125 1
5.474 -1.449 2.0439999 1
5.4759998 -1.4299999 2.082 1
5.4749999 -1.433 2.027 1
5.4759998 -1.472 2.1730001 1
5.4759998 -1.4400001 2.1140001 1
5.474 -1.46 2.046 1
5.4770002 -1.477 2.198 1
5.4770002 -1.454 2.1789999 1
5.4759998 -1.454 2.108 1
5.4749999 -1.462 2.0929999 1
5.4759998 -1.4450001 2.1329999 1
5.4759998 -1.438 2.0969999 1
5.4749999 -1.461 2.0940001 1
5.4770002 -1.479 2.2290001 1
5.4749999 -1.4450001 2.05 1
5.4749999 -1.47 2.1270001 1
5.4759998 -1.427 2.0810001 1
5.474 -1.4579999 2.0550001 1
5.4749999 -1.473 2.1170001 1
5.4759998 -1.465 2.135 1
5.474 -1.469 2.053 1
5.4770002 -1.454 2.198 1
5.4749999 -1.423 2.026 1
5.4770002 -1.462 2.168 1
5.474 -1.4630001 2.049 1
5.4749999 -1.4450001 2.0710001 1
5.4780002 -1.46 2.217 1
5.4749999 -1.454 2.0880001 1
5.4749999 -1.4529999 2.089 1
5.474 -1.479 2.076 1
5.4759998 -1.464 2.142 1
5.4819999 -1.447 0.671 1
5.4790001 -1.433 0.81 1
5.4770002 -1.425 0.80800003 1
5.4749999 -1.418 0.73100001 1
5.4770002 -1.421 0.926 1
5.4689999 -1.3940001 0.70499998 1
5.474 -1.4119999 0.764 1
5.48 -1.441 0.69999999 1
5.4679999 -1.388 0.699 1
5.4759998 -1.416 0.898 1
5.4679999 -1.388 0.72500002 1
5.48 -1.437 0.71600002 1
5.4759998 -1.42 0.75400001 1
5.4780002 -1.427 0.79799998 1
5.4720001 -1.406 0.71499997 1
5.4770002 -1.424 0.80900002 1
5.4720001 -1.402 0.77100003 1
5.48 -1.438 0.76800001 1
5.4689999 -1.392 0.76700002 1
5.4720001 -1.404 0.70099998 1
5.473 -1.406 0.89499998 1
5.4710002 -1.402 0.76599997 1
5.4720001 -1.402 0.82300001 1
5.474 -1.41 0.82300001 1
5.473 -1.409 0.69700003 1
5.4819999 -1.448 0.66299999 1
5.4759998 -1.419 0.82599998 1
5.4770002 -1.423 0.87699997 1
5.4720001 -1.405 0.75400001 1
5.4759998 -1.4170001 0.90700001 1
5.4720001 -1.402 0.838 1
5.473 -1.405 0.84100002 1
5.4710002 -1.403 0.72600001 1
5.4780002 -1.425 0.86500001 1
5.48 -1.434 0.80800003 1
5.473 -1.41 0.78299999 1
5.4749999 -1.419 0.74599999 1
5.4749999 -1.413 0.80900002 1
5.4679999 -1.3890001 0.69499999 1
5.473 -1.405 0.86900002 1
5.4770002 -1.425 0.68099999 1
5.4699998 -1.395 0.76800001 1
5.473 -1.4069999 0.84899998 1
5.4790001 -1.436 0.67699999 1
5.474 -1.41 0.86400002 1
5.4689999 -1.392 0.75800002 1
5.48 -1.442 0.68099999 1
5.4720001 -1.403 0.80000001 1
5.4759998 -1.4220001 0.796 1
5.4819999 -1.447 0.67199999 1
5.4790001 -1.4349999 0.72899997 1
5.474 -1.408 0.88 1
5.4770002 -1.423 0.833 1
5.4689999 -1.393 0.68599999 1
5.48 -1.4400001 0.66600001 1
5.4699998 -1.397 0.77100003 1
5.4749999 -1.419 0.685 1
5.48 -1.441 0.67900002 1
5.4759998 -1.424 0.69400001 1
5.4770002 -1.424 0.82099998 1
5.4720001 -1.403 0.85299999 1
5.4749999 -1.4170001 0.72299999 1
5.4749999 -1.413 0.93599999 1
5.473 -1.4069999 0.852 1
5.474 -1.41 0.87199998 1
5.4790001 -1.436 0.68800002 1
5.474 -1.41 0.83899999 1
5.4790001 -1.432 0.75400001 1
5.4759998 -1.416 0.96799999 1
5.4749999 -1.4170001 0.77600002 1
5.4759998 -1.416 0.95200002 1
5.4780002 -1.431 0.71700001 1
5.473 -1.4069999 0.745 1
5.474 -1.415 0.67000002 1
5.4780002 -1.4299999 0.77499998 1
5.4710002 -1.399 0.82499999 1
5.473 -1.409 0.79500002 1
5.4790001 -1.437 0.70700002 1
5.4749999 -1.4119999 0.935 1
5.473 -1.405 0.84600002 1
5.4749999 -1.413 0.90600002 1
5.4809999 -1.444 0.68199998 1
5.4770002 -1.424 0.86199999 1
5.4819999 -1.446 0.68000001 1
5.4770002 -1.421 0.83899999 1
5.474 -1.413 0.74000001 1
5.474 -1.416 0.69199997 1
5.474 -1.41 0.84100002 1
5.4809999 -1.443 0.67299998 1
5.473 -1.406 0.88099998 1
5.473 -1.409 0.76800001 1
5.4720001 -1.402 0.852 1
5.4790001 -1.4349999 0.73500001 1
5.4770002 -1.427 0.72899997 1
5.473 -1.409 0.72799999 1
5.4710002 -1.398 0.796 1
5.474 -1.414 0.69800001 1
5.4699998 -1.398 0.68599999 1
5.4780002 -1.426 0.80500001 1
5.473 -1.41 0.69800001 1
5.4780002 -1.429 0.759 1
5.4710002 -1.401 0.74599999 1
5.4710002 -1.398 0.796 1
5.4819999 -1.446 0.67199999 1
5.4720001 -1.408 0.67199999 1
5.4720001 -1.406 0.69700003 1
5.4770002 -1.4220001 0.81999999 1
5.4710002 -1.401 0.70999998 1
5.4819999 -1.447 0.671 1
5.4749999 -1.4119999 0.86500001 1
5.473 -1.404 0.85399997 1
5.4749999 -1.416 0.72000003 1
5.4759998 -1.415 0.93199998 1
5.4780002 -1.429 0.73500001 1
5.4720001 -1.401 1.137 1
5.473 -1.402 1.136 1
5.4790001 -1.413 1.122 1
5.4749999 -1.4119999 1.033 1
5.474 -1.41 1.03 1
5.4819999 -1.418 1.108 1
5.4840002 -1.4220001 1.101 1
5.4759998 -1.408 1.1289999 1
5.4689999 -1.396 1.154 1
5.4809999 -1.4170001 1.118 1
5.4790001 -1.413 1.119 1
5.4790001 -1.4170001 1.052 1
5.4770002 -1.415 1.034 1
5.48 -1.418 1.052 1
5.4749999 -1.408 1.085 1
5.4850001 -1.424 1.1210001 1
5.4840002 -1.421 1.12 1
5.48 -1.419 1.045 1
5.4780002 -1.413 1.072 1
5.487 -1.428 1.091 1
5.4780002 -1.411 1.128 1
5.474 -1.406 1.098 1
5.4749999 -1.409 1.08 1
5.474 -1.408 1.077 1
5.4759998 -1.4069999 1.14 1
5.4819999 -1.4170001 1.1210001 1
5.473 -1.403 1.1339999 1
5.4720001 -1.404 1.102 1
5.4790001 -1.416 1.046 1
5.4860001 -1.426 1.0930001 1
5.4780002 -1.414 1.084 1
5.4809999 -1.418 1.091 1
5.4720001 -1.403 1.104 1
5.4829998 -1.428 1.257 1
5.4840002 -1.4220001 1.1339999 1
5.4819999 -1.4220001 1.176 1
5.474 -1.4069999 1.186 1
5.4889998 -1.432 1.135 1
5.4819999 -1.423 1.1900001 1
5.4749999 -1.408 1.181 1
5.473 -1.402 1.1619999 1
5.487 -1.436 1.268 1
5.4879999 -1.439 1.28 1
5.4829998 -1.428 1.248 1
5.4819999 -1.4220001 1.196 1
5.4749999 -1.409 1.206 1
5.473 -1.406 1.2079999 1
5.4879999 -1.437 1.24 1
5.48 -1.424 1.267 1
5.4879999 -1.431 1.151 1
5.4840002 -1.423 1.1619999 1
5.4829998 -1.42 1.128 1
5.4850001 -1.434 1.286 1
5.4840002 -1.4299999 1.24 1
5.4879999 -1.436 1.235 1
5.487 -1.432 1.2029999 1
5.4860001 -1.428 1.159 1
5.4899998 -1.434 1.149 1
5.4759998 -1.411 1.207 1
5.4879999 -1.429 1.118 1
5.48 -1.419 1.198 1
5.4879999 -1.439 1.2690001 1
5.487 -1.436 1.26 1
5.4809999 -1.424 1.2589999 1
5.4829998 -1.428 1.253 1
5.4889998 -1.431 1.13 1
5.4850001 -1.436 1.3049999 1
5.4860001 -1.433 1.2309999 1
5.4899998 -1.433 1.135 1
5.4749999 -1.408 1.182 1
5.4790001 -1.416 1.1900001 1
5.4790001 -1.415 1.177 1
5.4780002 -1.415 1.216 1
5.4850001 -1.4299999 1.239 1
5.4749999 -1.405 1.153 1
5.4899998 -1.432 1.135 1
5.4860001 -1.437 1.303 1
5.474 -1.4069999 1.193 1
5.4829998 -1.42 1.1289999 1
5.4819999 -1.429 1.283 1
5.4840002 -1.426 1.201 1
5.4770002 -1.414 1.205 1
5.4860001 -1.436 1.278 1
5.487 -1.436 1.263 1
5.4850001 -1.436 1.3099999 1
5.487 -1.438 1.29 1
5.4759998 -1.413 1.248 1
5.4720001 -1.404 1.211 1
5.4749999 -1.4119999 1.472 1
5.4710002 -1.401 1.354 1
5.4780002 -1.419 1.573 1
5.4770002 -1.4170001 1.553 1
5.473 -1.406 1.225 1
5.4780002 -1.42 1.4859999 1
5.48 -1.423 1.415 1
5.4710002 -1.402 1.415 1
5.48 -1.424 1.442 1
5.4749999 -1.4119999 1.607 1
5.4759998 -1.413 1.51 1
5.4809999 -1.427 1.451 1
5.4770002 -1.416 1.441 1
5.48 -1.423 1.373 1
5.4790001 -1.421 1.258 1
5.4829998 -1.431 1.391 1
5.4770002 -1.416 1.442 1
5.4780002 -1.418 1.591 1
5.48 -1.424 1.4 1
5.4780002 -1.418 1.3099999 1
5.474 -1.408 1.717 1
5.474 -1.409 1.698 1
5.4759998 -1.415 1.607 1
5.4720001 -1.403 1.204 1
5.4710002 -1.4 1.2 1
5.4689999 -1.397 1.188 1
5.474 -1.4069999 1.364 1
5.48 -1.423 1.55 1
5.4790001 -1.421 1.523 1
5.4790001 -1.421 1.386 1
5.4809999 -1.426 1.51 1
5.487 -1.441 1.353 1
5.4759998 -1.413 1.6 1
5.4790001 -1.42 1.541 1
5.4749999 -1.411 1.304 1
5.4720001 -1.403 1.564 1
5.4790001 -1.421 1.401 1
5.4710002 -1.401 1.428 1
5.474 -1.409 1.4859999 1
5.4749999 -1.411 1.648 1
5.4770002 -1.416 1.633 1
5.474 -1.4069999 1.276 1
5.4710002 -1.401 1.428 1
5.4770002 -1.415 1.446 1
5.474 -1.41 1.449 1
5.473 -1.406 1.277 1
5.4790001 -1.421 1.571 1
5.4710002 -1.4 1.2130001 1
5.473 -1.406 1.352 1
5.473 -1.406 1.386 1
5.4780002 -1.42 1.598 1
5.474 -1.409 1.65 1
5.4819999 -1.428 1.402 1
5.4780002 -1.42 1.423 1
5.4749999 -1.411 1.428 1
5.48 -1.424 1.497 1
5.474 -1.41 1.608 1
5.4770002 -1.4170001 1.375 1
5.474 -1.409 1.4400001 1
5.4720001 -1.404 1.211 1
5.473 -1.406 1.386 1
5.4780002 -1.42 1.492 1
5.4720001 -1.403 1.495 1
5.4829998 -1.431 1.309 1
5.4720001 -1.404 1.38 1
5.4720001 -1.403 1.47 1
5.4759998 -1.413 1.385 1
5.4720001 -1.403 1.33 1
5.4710002 -1.402 1.459 1
5.4759998 -1.414 1.558 1
5.4790001 -1.42 1.26 1
5.4749999 -1.4119999 1.405 1
5.4809999 -1.427 1.401 1
5.473 -1.406 1.664 1
5.4809999 -1.426 1.469 1
5.4770002 -1.415 1.461 1
5.4780002 -1.418 1.564 1
5.473 -1.4069999 1.523 1
5.4720001 -1.405 1.517 1
5.4850001 -1.436 1.414 1
5.4829998 -1.431 1.346 1
5.473 -1.4069999 1.265 1
5.473 -1.406 1.58 1
5.48 -1.423 1.432 1
5.4780002 -1.419 1.4809999 1
5.4749999 -1.41 1.3329999 1
5.4710002 -1.401 1.289 1
5.4710002 -1.401 1.3609999 1
5.4809999 -1.427 1.326 1
5.474 -1.408 1.2920001 1
5.4759998 -1.414 1.6059999 1
5.4759998 -1.414 1.2640001 1
5.4819999 -1.428 1.306 1
5.473 -1.4069999 1.679 1
5.4710002 -1.4 1.402 1
5.474 -1.408 1.692 1
5.4759998 -1.413 1.6109999 1
5.4770002 -1.4170001 1.461 1
5.4829998 -1.4299999 1.301 1
5.4780002 -1.419 1.518 1
5.4749999 -1.411 1.427 1
5.4770002 -1.416 1.327 1
5.4819999 -1.428 1.3559999 1
5.473 -1.406 1.466 1
5.4710002 -1.401 1.322 1
5.4829998 -1.431 1.335 1
5.4749999 -1.4119999 1.612 1
5.4829998 -1.432 1.425 1
5.4770002 -1.416 1.2690001 1
5.4840002 -1.433 1.326 1
5.4809999 -1.426 1.309 1
5.4720001 -1.403 1.487 1
5.4850001 -1.437 1.329 1
5.473 -1.4069999 1.373 1
5.473 -1.406 1.569 1
5.4840002 -1.433 1.37 1
5.474 -1.409 1.709 1
5.48 -1.424 1.483 1
5.4720001 -1.405 1.613 1
5.4710002 -1.402 1.474 1
5.4809999 -1.425 1.425 1
5.4840002 -1.433 1.331 1
5.4720001 -1.403 1.488 1
5.4759998 -1.413 1.479 1
5.474 -1.41 1.441 1
5.4790001 -1.4220001 1.523 1
5.473 -1.405 1.35 1
5.4819999 -1.429 1.47 1
5.48 -1.4220001 1.318 1
5.4790001 -1.4220001 1.454 1
5.4829998 -1.432 1.404 1
5.4720001 -1.404 1.424 1
5.474 -1.408 1.655 1
5.474 -1.408 1.543 1
5.4790001 -1.4220001 1.281 1
5.4809999 -1.427 1.41 1
5.474 -1.4069999 1.501 1
5.474 -1.409 1.577 1
5.4809999 -1.425 1.321 1
5.473 -1.406 1.2539999 1
5.48 -1.424 1.41 1
5.4749999 -1.411 1.693 1
5.4840002 -1.434 1.348 1
5.4720001 -1.403 1.487 1
5.473 -1.405 1.687 1
5.4710002 -1.41 2.1900001 1
5.4749999 -1.416 2.0369999 1
5.4759998 -1.442 2.1849999 1
5.4759998 -1.439 2.1659999 1
5.4710002 -1.4170001 2.2349999 1
5.4759998 -1.442 2.2090001 1
5.474 -1.413 2.0420001 1
5.474 -1.415 2.095 1
5.4679999 -1.3940001 2.2249999 1
5.474 -1.441 2.2690001 1
5.4749999 -1.4170001 2.0699999 1
5.474 -1.425 2.1329999 1
5.474 -1.4119999 2.066 1
5.4759998 -1.444 2.184 1
5.4710002 -1.42 2.2550001 1
5.4720001 -1.413 2.165 1
5.467 -1.391 2.2390001 1
5.4699998 -1.405 2.1819999 1
5.4749999 -1.437 2.1989999 1
5.4710002 -1.424 2.28 1
5.467 -1.3890001 2.2379999 1
5.473 -1.419 2.184 1
5.473 -1.429 2.214 1
5.474 -1.429 2.168 1
5.4699998 -1.409 2.211 1
5.4710002 -1.41 2.1830001 1
5.473 -1.406 2.0810001 1
5.4720001 -1.4220001 2.25 1
5.473 -1.431 2.2639999 1
5.4759998 -1.442 2.194 1
5.4770002 -1.443 2.1670001 1
5.4759998 -1.427 2.099 1
5.4780002 -1.466 2.299 1
5.474 -1.441 2.2850001 1
5.4780002 -1.461 2.2420001 1
5.4749999 -1.4349999 2.164 1
5.4720001 -1.42 2.22 1
5.4759998 -1.448 2.2390001 1
5.473 -1.41 2.0780001 1
5.4679999 -1.399 2.273 1
5.4689999 -1.404 2.266 1
5.4749999 -1.429 2.131 1
5.4699998 -1.4 2.1789999 1
5.474 -1.439 2.2620001 1
5.474 -1.413 2.0439999 1
5.473 -1.424 2.204 1
5.4749999 -1.419 2.0799999 1
5.4749999 -1.438 2.2 1
5.4749999 -1.4220001 2.1010001 1
5.473 -1.436 2.2809999 1
5.473 -1.426 2.211 1
5.4710002 -1.402 2.1070001 1
5.4699998 -1.411 2.2479999 1
5.474 -1.437 2.2509999 1
5.473 -1.436 2.2780001 1
5.4759998 -1.436 2.1400001 1
5.474 -1.423 2.155 1
5.473 -1.41 2.0680001 1
5.4780002 -1.461 2.244 1
5.4749999 -1.433 2.145 1
5.4749999 -1.436 2.165 1
5.4699998 -1.405 2.214 1
5.474 -1.415 2.0650001 1
5.4710002 -1.405 2.1389999 1
5.4759998 -1.431 2.1110001 1
5.474 -1.427 2.1659999 1
5.4710002 -1.409 2.21 1
5.4749999 -1.42 2.076 1
5.473 -1.4069999 2.076 1
5.4770002 -1.451 2.2019999 1
5.4749999 -1.434 2.1570001 1
5.473 -1.426 2.2160001 1
5.4770002 -1.459 2.2650001 1
5.4749999 -1.429 2.1589999 1
5.473 -1.4299999 2.2479999 1
5.4780002 -1.467 2.2869999 1
5.4759998 -1.4529999 2.2809999 1
5.4710002 -1.414 2.2149999 1
5.4689999 -1.396 2.1930001 1
5.467 -1.398 2.27 1
5.4770002 -1.462 2.2880001 1
5.467 -1.396 2.2590001 1
5.473 -1.42 2.165 1
5.4770002 -1.45 2.2219999 1
5.4720001 -1.411 2.1489999 1
5.473 -1.408 2.066 1
5.474 -1.413 2.0639999 1
5.4720001 -1.421 2.24 1
5.4770002 -1.447 2.184 1
5.474 -1.414 2.089 1
5.467 -1.3890001 2.244 1
5.4720001 -1.4220001 2.2550001 1
5.4770002 -1.454 2.214 1
5.4749999 -1.428 2.1170001 1
5.473 -1.424 2.2190001 1
5.4720001 -1.418 2.1819999 1
5.4710002 -1.416 2.2479999 1
5.4749999 -1.432 2.1559999 1
5.4689999 -1.409 2.2690001 1
5.4720001 -1.425 2.2520001 1
5.4749999 -1.425 2.1070001 1
5.473 -1.411 2.086 1
5.4710002 -1.414 2.2149999 1
5.4710002 -1.4170001 2.2609999 1
5.4770002 -1.457 2.2679999 1
5.4689999 -1.399 2.178 1
5.4699998 -1.4119999 2.243 1
5.473 -1.423 2.184 1
5.4749999 -1.433 2.1849999 1
5.4710002 -1.408 2.1849999 1
5.474 -1.431 2.221 1
5.4720001 -1.41 2.1470001 1
5.474 -1.439 2.2509999 1
5.4689999 -1.398 2.1960001 1
5.4770002 -1.446 2.1930001 1
5.4720001 -1.405 2.119 1
5.4699998 -1.409 2.2130001 1
5.4699998 -1.399 2.141 1
5.4710002 -1.402 2.151 1
5.4689999 -1.402 2.253 1
5.4660001 -1.39 2.263 1
5.473 -1.418 2.131 1
5.473 -1.4170001 2.135 1
5.4759998 -1.436 2.155 1
5.4689999 -1.408 2.2739999 1
5.4749999 -1.419 2.053 1
5.4710002 -1.319 1.285 1
5.4710002 -1.318 1.385 1
5.4710002 -1.307 1.434 1
5.4699998 -1.344 1.225 1
5.473 -1.234 1.6390001 1
5.473 -1.258 1.304 1
5.4720001 -1.29 1.471 1
5.474 -1.2359999 1.326 1
5.473 -1.2359999 1.674 1
5.473 -1.258 1.433 1
5.4699998 -1.336 1.29 1
5.4710002 -1.312 1.339 1
5.474 -1.238 1.426 1
5.473 -1.268 1.398 1
5.474 -1.2359999 1.531 1
5.474 -1.232 1.351 1
5.474 -1.247 1.303 1
5.4699998 -1.357 1.219 1
5.4720001 -1.281 1.395 1
5.473 -1.235 1.605 1
5.4720001 -1.3049999 1.252 1
5.4710002 -1.3 1.386 1
5.4710002 -1.323 1.388 1
5.4720001 -1.279 1.49 1
5.473 -1.248 1.513 1
5.4720001 -1.301 1.278 1
5.4720001 -1.284 1.355 1
5.473 -1.247 1.5880001 1
5.473 -1.238 1.63 1
5.474 -1.234 1.312 1
5.4710002 -1.313 1.398 1
5.474 -1.239 1.408 1
5.4699998 -1.3430001 1.21 1
5.473 -1.245 1.545 1
5.4720001 -1.289 1.395 1
5.4710002 -1.327 1.237 1
5.4710002 -1.313 1.372 1
5.4710002 -1.312 1.415 1
5.473 -1.25 1.5039999 1
5.473 -1.268 1.415 1
5.474 -1.2460001 1.381 1
5.4710002 -1.316 1.301 1
5.474 -1.245 1.353 1
5.474 -1.239 1.3279999 1
5.4699998 -1.35 1.291 1
5.4689999 -1.378 1.196 1
5.473 -1.253 1.465 1
5.473 -1.267 1.378 1
5.4720001 -1.295 1.4170001 1
5.474 -1.2460001 1.279 1
5.4720001 -1.303 1.26 1
5.473 -1.27 1.3049999 1
5.4749999 -1.233 1.283 1
5.473 -1.267 1.327 1
5.473 -1.252 1.3660001 1
5.4699998 -1.346 1.23 1
5.4699998 -1.359 1.196 1
5.473 -1.276 1.28 1
5.4720001 -1.298 1.275 1
5.4710002 -1.2970001 1.441 1
5.4720001 -1.278 1.404 1
5.473 -1.2690001 1.446 1
5.4689999 -1.372 1.1950001 1
5.4710002 -1.3150001 1.406 1
5.4689999 -1.3710001 1.183 1
5.4720001 -1.2970001 1.301 1
5.4720001 -1.29 1.449 1
5.4720001 -1.2970001 1.2640001 1
5.473 -1.258 1.522 1
5.4720001 -1.2869999 1.411 1
5.474 -1.2359999 1.418 1
5.4710002 -1.307 1.3940001 1
5.473 -1.275 1.255 1
5.473 -1.25 1.596 1
5.474 -1.239 1.2920001 1
5.4710002 -1.307 1.312 1
5.4710002 -1.3200001 1.274 1
5.4710002 -1.314 1.393 1
5.474 -1.233 1.3609999 1
5.473 -1.276 1.309 1
5.4710002 -1.311 1.374 1
5.4710002 -1.307 1.2970001 1
5.4720001 -1.3099999 1.227 1
5.4699998 -1.3329999 1.288 1
5.474 -1.25 1.2920001 1
5.4710002 -1.304 1.329 1
5.4699998 -1.355 1.2920001 1
5.4710002 -1.3099999 1.3 1
5.473 -1.248 1.469 1
5.4689999 -1.3839999 1.197 1
5.4720001 -1.276 1.375 1
5.4720001 -1.299 1.247 1
5.4720001 -1.271 1.551 1
5.4710002 -1.309 1.28 1
5.4720001 -1.278 1.3839999 1
5.474 -1.2410001 1.39 1
5.4720001 -1.307 1.271 1
5.4720001 -1.288 1.483 1
5.474 -1.234 1.531 1
5.473 -1.261 1.362 1
5.473 -1.239 1.541 1
5.474 -1.247 1.4220001 1
5.474 -1.245 1.428 1
5.473 -1.262 1.2970001 1
5.4689999 -1.36 1.25 1
5.473 -1.265 1.261 1
5.473 -1.273 1.359 1
5.4720001 -1.276 1.386 1
5.473 -1.27 1.41 1
5.4699998 -1.34 1.268 1
5.473 -1.249 1.4170001 1
5.4699998 -1.352 1.223 1
5.4699998 -1.341 1.2130001 1
5.4699998 -1.332 1.341 1
5.474 -1.237 1.456 1
5.473 -1.272 1.308 1
5.4710002 -1.313 1.2920001 1
5.4720001 -1.272 1.523 1
5.4720001 -1.293 1.283 1
5.4720001 -1.293 1.355 1
5.473 -1.258 1.535 1
5.473 -1.2410001 1.602 1
5.4720001 -1.276 1.464 1
5.4720001 -1.2869999 1.449 1
5.473 -1.256 1.529 1
5.473 -1.278 1.304 1
5.473 -1.271 1.3559999 1
5.4749999 -1.2309999 1.299 1
5.473 -1.25 1.494 1
5.4710002 -1.307 1.3 1
5.4710002 -1.322 1.227 1
5.4699998 -1.344 1.277 1
5.4699998 -1.34 1.341 1
5.4699998 -1.335 1.324 1
5.4710002 -1.309 1.332 1
5.4710002 -1.3 1.383 1
5.4710002 -1.303 1.4579999 1
5.474 -1.233 1.4910001 1
5.4710002 -1.311 1.3430001 1
5.473 -1.248 1.441 1
5.4710002 -1.331 1.266 1
5.473 -1.271 1.304 1
5.4699998 -1.342 1.209 1
5.4720001 -1.284 1.392 1
5.4689999 -1.365 1.242 1
5.4710002 -1.301 1.447 1
5.474 -1.237 1.28 1
5.473 -1.2589999 1.285 1
5.474 -1.242 1.406 1
5.473 -1.2410001 1.526 1
5.473 -1.268 1.351 1
5.4720001 -1.301 1.309 1
5.4720001 -1.289 1.498 1
5.474 -1.244 1.289 1
5.473 -1.27 1.365 1
5.473 -1.255 1.404 1
5.4710002 -1.3099999 1.427 1
5.473 -1.245 1.6339999 1
5.4710002 -1.314 1.3049999 1
5.474 -1.234 1.3380001 1
5.473 -1.2410001 1.554 1
5.473 -1.263 1.3940001 1
5.473 -1.24 1.6210001 1
5.4699998 -1.3279999 1.37 1
5.473 -1.247 1.576 1
5.4710002 -1.313 1.247 1
5.4720001 -1.272 1.524 1
5.474 -1.24 1.42 1
5.4720001 -1.27 1.557 1
5.474 -1.2359999 1.428 1
5.473 -1.276 1.29 1
5.4720001 -1.3049999 1.277 1
5.4710002 -1.308 1.382 1
5.4710002 -1.307 1.3710001 1
5.473 -1.261 1.2640001 1
5.4710002 -1.329 1.311 1
5.4720001 -1.302 1.277 1
5.4720001 -1.294 1.433 1
5.473 -1.242 1.595 1
5.4710002 -1.327 1.344 1
5.473 -1.249 1.54 1
5.473 -1.2539999 1.538 1
5.4710002 -1.323 1.307 1
5.4699998 -1.34 1.275 1
5.4710002 -1.306 1.3890001 1
5.473 -1.2410001 1.508 1
5.473 -1.26 1.318 1
5.473 -1.2410001 1.654 1
5.473 -1.271 1.274 1
5.473 -1.271 1.314 1
5.474 -1.237 1.354 1
5.473 -1.242 1.658 1
5.4699998 -1.331 1.303 1
5.473 -1.251 1.523 1
5.4720001 -1.288 1.391 1
5.473 -1.274 1.313 1
5.4720001 -1.3099999 1.232 1
5.473 -1.247 1.4450001 1
5.473 -1.268 1.3789999 1
5.4720001 -1.278 1.4529999 1
5.4720001 -1.284 1.351 1
5.4710002 -1.304 1.353 1
5.4710002 -1.316 1.316 1
5.4720001 -1.295 1.238 1
5.4699998 -1.332 1.337 1
5.473 -1.239 1.605 1
5.4720001 -1.295 1.4299999 1
5.474 -1.2309999 1.372 1
5.4699998 -1.35 1.276 1
5.474 -1.243 1.29 1
5.4699998 -1.339 1.307 1
5.473 -1.2359999 1.643 1
5.4720001 -1.266 1.4910001 1
5.4699998 -1.337 1.248 1
5.474 -1.233 1.563 1
5.473 -1.258 1.34 1
5.474 -1.233 1.369 1
5.473 -1.24 1.5700001 1
5.4699998 -1.348 1.278 1
5.4699998 -1.362 1.1900001 1
5.4710002 -1.325 1.306 1
5.473 -1.251 1.503 1
5.4720001 -1.2869999 1.5140001 1
5.473 -1.273 1.337 1
5.4710002 -1.309 1.277 1
5.474 -1.2309999 1.536 1
5.4720001 -1.2920001 1.3940001 1
5.474 -1.2309999 1.538 1
5.4710002 -1.325 1.23 1
5.473 -1.232 1.6289999 1
5.4689999 -1.383 1.1799999 1
5.4720001 -1.271 1.454 1
5.473 -1.256 1.452 1
5.4689999 -1.372 1.2309999 1
5.473 -1.255 1.442 1
5.4720001 -1.274 1.4910001 1
5.4720001 -1.288 1.498 1
5.4699998 -1.352 1.245 1
5.4720001 -1.289 1.375 1
5.473 -1.271 1.368 1
5.4720001 -1.2920001 1.443 1
5.473 -1.275 1.295 1
5.473 -1.2460001 1.546 1
5.473 -1.256 1.574 1
5.473 -1.278 1.255 1
5.4699998 -1.353 1.273 1
5.4710002 -1.313 1.313 1
5.4689999 -1.3890001 1.178 1
5.473 -1.275 1.372 1
5.4720001 -1.2970001 1.329 1
5.4720001 -1.274 1.47 1
5.473 -1.233 1.668 1
5.473 -1.249 1.452 1
5.473 -1.249 1.465 1
5.473 -1.255 1.5470001 1
5.4720001 -1.293 1.424 1
5.473 -1.26 1.507 1
5.4720001 -1.28 1.4069999 1
5.473 -1.25 1.622 1
5.474 -1.244 1.345 1
5.474 -1.2359999 1.46 1
5.474 -1.237 1.443 1
5.4720001 -1.271 1.454 1
5.4689999 -1.377 1.184 1
5.4720001 -1.296 1.314 1
5.473 -1.256 1.543 1
5.474 -1.247 1.352 1
5.473 -1.247 1.626 1
5.473 -1.275 1.298 1
5.4720001 -1.2819999 1.523 1
5.4699998 -1.3430001 1.308 1
5.473 -1.271 1.416 1
5.4720001 -1.266 1.5650001 1
5.4720001 -1.293 1.255 1
5.473 -1.2589999 1.483 1
5.4689999 -1.3609999 1.249 1
5.4710002 -1.329 1.244 1
5.4710002 -1.3150001 1.303 1
5.473 -1.2640001 1.51 1
5.474 -1.2309999 1.579 1
5.4710002 -1.3279999 1.2180001 1
5.4710002 -1.318 1.308 1
5.473 -1.271 1.302 1
5.4720001 -1.285 1.363 1
5.474 -1.238 1.311 1
5.474 -1.256 1.308 1
5.473 -1.2690001 1.3559999 1
5.4710002 -1.3200001 1.325 1
5.4720001 -1.296 1.2460001 1
5.473 -1.248 1.4680001 1
5.474 -1.239 1.336 1
5.473 -1.24 1.526 1
5.4720001 -1.302 1.326 1
5.474 -1.238 1.358 1
5.473 -1.242 1.548 1
5.4699998 -1.344 1.268 1
5.474 -1.2359999 1.416 1
5.4710002 -1.336 1.207 1
5.473 -1.271 1.4220001 1
5.473 -1.251 1.48 1
5.4720001 -1.293 1.283 1
5.4710002 -1.314 1.348 1
5.4699998 -1.327 1.378 1
5.474 -1.237 1.495 1
5.474 -1.243 1.294 1
5.474 -1.247 1.316 1
5.473 -1.2309999 1.62 1
5.473 -1.263 1.423 1
5.473 -1.2640001 1.291 1
5.473 -1.255 1.3940001 1
5.473 -1.234 1.631 1
5.4710002 -1.313 1.411 1
5.4699998 -1.362 1.212 1
5.4720001 -1.301 1.3559999 1
5.4710002 -1.295 1.485 1
5.4710002 -1.309 1.265 1
5.473 -1.2640001 1.467 1
5.4720001 -1.288 1.2970001 1
5.4699998 -1.347 1.233 1
5.4699998 -1.344 1.202 1
5.473 -1.248 1.488 1
5.4710002 -1.307 1.301 1
5.4699998 -1.3430001 1.331 1
5.4710002 -1.318 1.308 1
5.474 -1.242 1.408 1
5.4689999 -1.373 1.2 1
5.473 -1.232 1.631 1
5.4710002 -1.3 1.473 1
5.473 -1.255 1.419 1
5.4710002 -1.308 1.3660001 1
5.4720001 -1.275 1.544 1
5.473 -1.2460001 1.5779999 1
5.473 -1.248 1.425 1
5.474 -1.2539999 1.276 1
5.4720001 -1.283 1.51 1
5.4720001 -1.2869999 1.289 1
5.473 -1.271 1.336 1
5.4699998 -1.345 1.26 1
5.4720001 -1.268 1.516 1
5.4720001 -1.275 1.401 1
5.4720001 -1.28 1.424 1
5.4720001 -1.277 1.9859999 1
5.4710002 -1.278 2.0109999 1
5.4710002 -1.369 2.0780001 1
5.4710002 -1.302 2.0320001 1
5.4689999 -1.323 2.1140001 1
5.4720001 -1.3559999 2.039 1
5.4710002 -1.373 2.109 1
5.473 -1.387 2.0439999 1
5.4710002 -1.358 2.079 1
5.467 -1.354 2.1860001 1
5.4699998 -1.363 2.1110001 1
5.4720001 -1.304 2.02 1
5.474 -1.2819999 1.9299999 1
5.4689999 -1.381 2.1589999 1
5.4710002 -1.368 2.085 1
5.473 -1.327 2.0090001 1
5.4679999 -1.367 2.1860001 1
5.473 -1.2869999 1.984 1
5.473 -1.3099999 1.998 1
5.4710002 -1.398 2.1210001 1
5.4660001 -1.378 2.2349999 1
5.474 -1.263 1.913 1
5.4689999 -1.381 2.1470001 1
5.473 -1.263 1.952 1
5.473 -1.249 1.947 1
5.4720001 -1.387 2.0810001 1
5.4720001 -1.375 2.0650001 1
5.4710002 -1.316 2.0380001 1
5.4720001 -1.3 2.0179999 1
5.4679999 -1.369 2.1800001 1
5.474 -1.298 1.951 1
5.4679999 -1.372 2.184 1
5.473 -1.243 1.947 1
5.473 -1.331 2.016 1
5.4660001 -1.373 2.2409999 1
5.473 -1.374 2.04 1
5.4699998 -1.321 2.085 1
5.474 -1.393 2.023 1
5.4710002 -1.3559999 2.079 1
5.4710002 -1.393 2.1059999 1
5.473 -1.332 2 1
5.473 -1.248 1.951 1
5.4699998 -1.385 2.1240001 1
5.4699998 -1.329 2.0840001 1
5.4689999 -1.3839999 2.1530001 1
5.4720001 -1.28 2 1
5.473 -1.2869999 1.979 1
5.4710002 -1.306 2.0309999 1
5.4749999 -1.291 1.927 1
5.4710002 -1.33 2.059 1
5.4679999 -1.341 2.145 1
5.474 -1.399 2.03 1
5.4720001 -1.25 1.979 1
5.467 -1.369 2.204 1
5.4720001 -1.263 1.9859999 1
5.4720001 -1.367 2.0710001 1
5.4710002 -1.266 2 1
5.4710002 -1.296 2.0220001 1
5.4689999 -1.329 2.1300001 1
5.4720001 -1.364 2.0610001 1
5.4710002 -1.3660001 2.0899999 1
5.4699998 -1.393 2.1259999 1
5.473 -1.4 2.0580001 1
5.473 -1.28 1.976 1
5.467 -1.3890001 2.214 1
5.4660001 -1.377 2.2509999 1
5.473 -1.34 2.0020001 1
5.4720001 -1.398 2.0910001 1
5.474 -1.298 1.944 1
5.467 -1.3609999 2.1960001 1
5.4679999 -1.329 2.138 1
5.4699998 -1.2970001 2.063 1
5.4720001 -1.29 2.0109999 1
5.4720001 -1.335 2.0320001 1
5.4679999 -1.367 2.1830001 1
5.473 -1.3 1.971 1
5.4749999 -1.335 1.957 1
5.4749999 -1.405 2.0090001 1
5.4749999 -1.329 1.9579999 1
5.4710002 -1.396 2.1199999 1
5.473 -1.3380001 2.0090001 1
5.474 -1.405 2.0320001 1
5.4720001 -1.331 2.02 1
5.473 -1.302 1.977 1
5.4720001 -1.325 2.0420001 1
5.4720001 -1.353 2.0550001 1
5.467 -1.351 2.1960001 1
5.4699998 -1.291 2.072 1
5.4749999 -1.353 1.975 1
5.4689999 -1.317 2.1110001 1
5.473 -1.294 1.979 1
5.467 -1.3710001 2.204 1
5.4720001 -1.35 2.052 1
5.4720001 -1.247 1.959 1
5.4710002 -1.293 2.0220001 1
5.474 -1.397 2.0320001 1
5.4699998 -1.37 2.112 1
5.4720001 -1.34 2.05 1
5.4710002 -1.36 2.099 1
5.4720001 -1.3150001 2.023 1
5.4749999 -1.398 2.003 1
5.473 -1.256 1.948 1
5.4720001 -1.388 2.0739999 1
5.474 -1.404 2.0309999 1
5.467 -1.364 2.217 1
5.467 -1.3839999 2.22 1
5.4710002 -1.298 2.033 1
5.4710002 -1.381 2.1059999 1
5.473 -1.38 2.0280001 1
5.473 -1.3049999 1.998 1
5.4710002 -1.3710001 2.0880001 1
5.4720001 -1.2309999 1.946 1
5.4710002 -1.377 2.1110001 1
5.4679999 -1.339 2.168 1
5.4710002 -1.39 2.1140001 1
5.4720001 -1.367 2.0639999 1
5.4710002 -1.306 2.0469999 1
5.467 -1.357 2.188 1
5.473 -1.314 2.0009999 1
5.4720001 -1.2690001 1.995 1
5.473 -1.2970001 1.987 1
5.473 -1.4069999 2.049 1
5.474 -1.3710001 1.997 1
5.4699998 -1.3430001 2.105 1
5.4679999 -1.3430001 2.148 1
5.4720001 -1.386 2.0769999 1
5.474 -1.3200001 1.974 1
5.473 -1.279 1.954 1
5.4679999 -1.376 2.1730001 1
5.473 -1.3609999 2.0239999 1
5.4699998 -1.395 2.128 1
5.4689999 -1.363 2.135 1
5.4679999 -1.377 2.1960001 1
5.4679999 -1.375 2.184 1
5.4679999 -1.341 2.1459999 1
5.4660001 -1.385 2.24 1
5.4689999 -1.309 2.0999999 1
5.4679999 -1.349 2.1530001 1
5.474 -1.357 1.984 1
5.4660001 -1.375 2.2279999 1
5.474 -1.274 1.934 1
5.4720001 -1.376 2.0780001 1
5.4720001 -1.242 1.955 1
5.474 -1.339 1.99 1
5.474 -1.286 1.937 1
5.4679999 -1.3380001 2.1500001 1
5.473 -1.296 1.971 1
5.473 -1.399 2.069 1
5.4720001 -1.325 2.0320001 1
5.4720001 -1.277 2 1
5.473 -1.2359999 1.9299999 1
5.474 -1.251 1.928 1
5.4689999 -1.382 2.1500001 1
5.4699998 -1.304 2.0710001 1
5.4660001 -1.369 2.2260001 1
5.4689999 -1.308 2.099 1
5.4689999 -1.329 2.119 1
5.4710002 -1.377 2.1059999 1
5.4720001 -1.27 1.974 1
5.473 -1.373 2.0420001 1
5.473 -1.341 2.0179999 1
5.473 -1.266 1.948 1
5.467 -1.359 2.188 1
5.4699998 -1.3049999 2.0840001 1
5.473 -1.374 2.0369999 1
5.474 -1.3279999 1.985 1
5.474 -1.2819999 1.934 1
5.4710002 -1.3839999 2.0940001 1
5.4699998 -1.324 2.0780001 1
5.4699998 -1.354 2.122 1
5.4699998 -1.341 2.0940001 1
5.4720001 -1.336 2.0350001 1
5.474 -1.358 2.01 1
5.473 -1.277 1.974 1
5.473 -1.398 2.056 1
5.473 -1.296 1.99 1
5.467 -1.3789999 2.2030001 1
5.4720001 -1.318 2.029 1
5.474 -1.401 2.0350001 1
5.4710002 -1.326 2.052 1
5.4679999 -1.359 2.158 1
5.4689999 -1.353 2.1470001 1
5.4699998 -1.34 2.095 1
5.4699998 -1.382 2.132 1
5.4689999 -1.388 2.1589999 1
5.4720001 -1.267 1.988 1
5.4689999 -1.374 2.1459999 1
5.474 -1.398 2.029 1
5.4710002 -1.399 2.105 1
5.4749999 -1.234 1.885 1
5.4699998 -1.388 2.1370001 1
5.4699998 -1.321 2.086 1
5.4679999 -1.375 2.1860001 1
5.4699998 -1.376 2.1199999 1
5.4720001 -1.358 2.053 1
5.4710002 -1.2690001 2.0050001 1
5.4710002 -1.372 2.085 1
5.4699998 -1.298 2.073 1
5.467 -1.369 2.2219999 1
5.473 -1.3890001 2.0610001 1
5.4720001 -1.3279999 2.0450001 1
5.474 -1.401 2.0220001 1
5.467 -1.362 2.198 1
5.474 -1.285 1.948 1
5.474 -1.24 1.906 1
5.4710002 -1.341 2.0639999 1
5.474 -1.255 1.9119999 1
5.473 -1.296 1.987 1
5.4689999 -1.321 2.1170001 1
5.4689999 -1.312 2.1029999 1
5.4699998 -1.393 2.1270001 1
5.473 -1.318 2.0050001 1
5.4720001 -1.2690001 1.98 1
5.474 -1.311 1.9579999 1
5.4679999 -1.377 2.1849999 1
5.4699998 -1.284 2.056 1
5.4710002 -1.279 2.0190001 1
5.4720001 -1.322 2.04 1
5.4710002 -1.319 2.0569999 1
5.4679999 -1.326 2.1429999 1
5.4720001 -1.396 2.082 1
5.4749999 -1.3890001 1.999 1
5.4710002 -1.301 2.033 1
5.474 -1.388 2.0309999 1
5.4720001 -1.345 2.0510001 1
5.4689999 -1.378 2.1589999 1
5.4749999 -1.238 1.8890001 1
5.4749999 -1.335 1.9579999 1
5.4679999 -1.342 2.165 1
5.4689999 -1.363 2.1459999 1
5.4710002 -1.397 2.1110001 1
5.474 -1.263 1.918 1
5.4720001 -1.278 1.9910001 1
5.474 -1.275 1.933 1
5.4710002 -1.3150001 2.0420001 1
5.4720001 -1.352 2.0420001 1
5.474 -1.395 2.0190001 1
5.4720001 -1.303 2.017 1
5.473 -1.351 2.01 1
5.4699998 -1.372 2.1110001 1
5.4689999 -1.335 2.1340001 1
5.474 -1.385 2.017 1
5.4689999 -1.329 2.105 1
5.474 -1.251 1.921 1
5.474 -1.303 1.964 1
5.4749999 -1.326 1.956 1
5.474 -1.2410001 1.9170001 1
5.467 -1.354 2.1900001 1
5.4699998 -1.347 2.1010001 1
5.4699998 -1.388 2.1259999 1
5.474 -1.25 1.9 1
5.473 -1.387 2.039 1
5.4720001 -1.29 2.0020001 1
5.473 -1.273 1.975 1
5.467 -1.351 2.184 1
5.474 -1.359 1.999 1
5.4679999 -1.368 2.1659999 1
5.4720001 -1.261 1.975 1
5.474 -1.294 1.96 1
5.4710002 -1.358 2.0780001 1
5.4720001 -1.392 2.069 1
5.474 -1.257 1.908 1
5.474 -1.253 1.9170001 1
5.4689999 -1.365 2.1389999 1
5.4660001 -1.365 2.22 1
5.4689999 -1.357 2.1329999 1
5.4689999 -1.393 2.1760001 1
5.4720001 -1.35 2.0439999 1
5.474 -1.4 2.017 1
5.467 -1.3559999 2.2060001 1
5.4720001 -1.351 2.0569999 1
5.4710002 -1.3559999 2.085 1
5.4749999 -1.288 1.923 1
5.4710002 -1.3 2.0539999 1
5.4710002 -1.36 2.095 1
5.473 -1.34 1.999 1
5.474 -1.294 1.9450001 1
5.4710002 -1.3329999 2.056 1
5.473 -1.34 2.0220001 1
5.4710002 -1.365 2.089 1
5.474 -1.355 2.003 1
5.4710002 -1.266 2.0179999 1
5.4749999 -1.382 1.9960001 1
5.4710002 -1.34 2.0599999 1
5.4689999 -1.339 2.1210001 1
5.473 -1.263 1.965 1
5.4679999 -1.347 2.1730001 1
5.474 -1.268 1.929 1
5.474 -1.291 1.95 1
5.4689999 -1.294 2.0799999 1
5.4689999 -1.304 2.1010001 1
5.473 -1.25 1.9529999 1
5.4710002 -1.3839999 2.1029999 1
5.467 -1.37 2.1960001 1
5.474 -1.316 1.975 1
5.473 -1.373 2.03 1
5.473 -1.401 2.0469999 1
5.4720001 -1.373 2.052 1
5.4720001 -1.37 2.0599999 1
5.4689999 -1.329 2.132 1
5.4699998 -1.342 2.0940001 1
5.4749999 -1.383 2 1
5.4759998 -1.4119999 2.302 1
5.473 -1.291 2.302 1
5.4689999 -1.381 2.283 1
5.4720001 -1.307 2.2980001 1
5.4770002 -1.402 2.3069999 1
5.4710002 -1.377 2.289 1
5.4710002 -1.378 2.29 1
5.4699998 -1.257 2.296 1
5.4720001 -1.3200001 2.2980001 1
5.473 -1.403 2.2939999 1
5.4710002 -1.238 2.3 1
5.467 -1.3789999 2.277 1
5.4710002 -1.276 2.2950001 1
5.4710002 -1.255 2.299 1
5.4679999 -1.364 2.2809999 1
5.4720001 -1.365 2.2950001 1
5.4749999 -1.383 2.302 1
5.4720001 -1.325 2.2969999 1
5.4770002 -1.4170001 2.306 1
5.473 -1.308 2.302 1
5.4720001 -1.234 2.3010001 1
5.4699998 -1.4069999 2.286 1
5.4689999 -1.299 2.289 1
5.4689999 -1.3710001 2.2850001 1
5.473 -1.2690001 2.303 1
5.4699998 -1.358 2.2880001 1
5.4749999 -1.45 2.299 1
5.4699998 -1.344 2.289 1
5.473 -1.346 2.2980001 1
5.4699998 -1.399 2.286 1
5.467 -1.363 2.279 1
5.4710002 -1.36 2.2909999 1
5.473 -1.331 2.299 1
5.474 -1.4170001 2.296 1
5.4770002 -1.4579999 2.303 1
5.4720001 -1.351 2.2939999 1
5.4720001 -1.3099999 2.299 1
5.4710002 -1.418 2.2869999 1
5.4679999 -1.3150001 2.2850001 1
5.473 -1.314 2.3 1
5.4759998 -1.4299999 2.3010001 1
5.4749999 -1.3839999 2.3010001 1
5.467 -1.364 2.2780001 1
5.473 -1.291 2.3010001 1
5.4720001 -1.347 2.2939999 1
5.4699998 -1.283 2.2920001 1
5.4720001 -1.332 2.2950001 1
5.474 -1.378 2.2980001 1
5.4770002 -1.439 2.3039999 1
5.474 -1.442 2.296 1
5.4749999 -1.398 2.3 1
5.4720001 -1.317 2.296 1
5.4660001 -1.354 2.2750001 1
5.48 -1.421 0.104 1
5.4829998 -1.4069999 0.046 1
5.4780002 -1.2869999 0.093999997 1
5.4780002 -1.3430001 0.11 1
5.4689999 -1.401 0.27599999 1
5.48 -1.281 0.063000001 1
5.4770002 -1.308 0.13 1
5.4759998 -1.395 0.156 1
5.4689999 -1.386 0.273 1
5.4840002 -1.462 0.044 1
5.4840002 -1.415 0.030999999 1
5.4770002 -1.326 0.121 1
5.4780002 -1.323 0.114 1
5.4790001 -1.364 0.112 1
5.474 -1.2869999 0.163 1
5.4759998 -1.242 0.113 1
5.4829998 -1.375 0.039999999 1
5.4840002 -1.411 0.041999999 1
5.4770002 -1.423 0.161 1
5.4819999 -1.3380001 0.057999998 1
5.473 -1.307 0.182 1
5.474 -1.341 0.177 1
5.4770002 -1.233 0.108 1
5.4770002 -1.382 0.148 1
5.4829998 -1.429 0.056000002 1
5.4809999 -1.349 0.077 1
5.473 -1.372 0.198 1
5.4840002 -1.444 0.050000001 1
5.48 -1.3099999 0.07 1
5.4829998 -1.4450001 0.068999998 1
5.4759998 -1.348 0.146 1
5.4759998 -1.413 0.17200001 1
5.4790001 -1.265 0.074000001 1
5.4790001 -1.4349999 0.134 1
5.4829998 -1.331 0.029999999 1
5.4819999 -1.4400001 0.071999997 1
5.4840002 -1.402 0.039999999 1
5.48 -1.307 0.067000002 1
5.474 -1.3940001 0.192 1
5.4720001 -1.329 0.212 1
5.4819999 -1.348 0.057 1
5.4790001 -1.262 0.085000001 1
5.48 -1.2539999 0.055 1
5.4840002 -1.451 0.054000001 1
5.4720001 -1.405 0.23 1
5.4829998 -1.3279999 0.037 1
5.4850001 -1.46 0.034000002 1
5.4759998 -1.377 0.155 1
5.474 -1.418 0.2 1
5.48 -1.441 0.114 1
5.4809999 -1.365 0.081 1
5.4780002 -1.424 0.147 1
5.4749999 -1.262 0.149 1
5.4809999 -1.3890001 0.082999997 1
5.473 -1.298 0.186 1
5.4809999 -1.252 0.045000002 1
5.4819999 -1.265 0.037 1
5.4770002 -1.34 0.126 1
5.4829998 -1.4450001 0.071000002 1
5.4809999 -1.378 0.07 1
5.4759998 -1.33 0.138 1
5.4809999 -1.339 0.074000001 1
5.474 -1.383 0.18700001 1
5.4780002 -1.442 0.138 1
5.4809999 -1.307 0.063000001 1
5.473 -1.324 0.18700001 1
5.474 -1.321 0.17900001 1
5.48 -1.444 0.119 1
5.4770002 -1.253 0.113 1
5.4819999 -1.274 0.032000002 1
5.4759998 -1.391 0.156 1
5.4770002 -1.3660001 0.13699999 1
5.474 -1.4 0.2 1
5.48 -1.455 0.108 1
5.473 -1.408 0.22 1
5.473 -1.36 0.205 1
5.4809999 -1.258 0.035999998 1
5.4699998 -1.403 0.26499999 1
5.4749999 -1.325 0.153 1
5.4770002 -1.336 0.133 1
5.48 -1.369 0.086000003 1
5.48 -1.29 0.071999997 1
5.4780002 -1.4349999 0.14300001 1
5.473 -1.353 0.20100001 1
5.4809999 -1.447 0.093000002 1
5.4759998 -1.252 0.127 1
5.4749999 -1.332 0.168 1
5.4809999 -1.444 0.102 1
5.4850001 -1.465 0.044 1
5.4809999 -1.298 0.056000002 1
5.4780002 -1.3710001 0.12800001 1
5.4819999 -1.326 0.046 1
5.4780002 -1.3940001 0.126 1
5.48 -1.353 0.090000004 1
5.4770002 -1.4220001 0.161 1
5.4850001 -1.469 0.037 1
5.4780002 -1.3789999 0.127 1
5.48 -1.395 0.090999998 1
5.48 -1.233 0.052000001 1
5.4780002 -1.318 0.112 1
5.4809999 -1.273 0.044 1
5.4749999 -1.399 0.18700001 1
5.4720001 -1.3279999 0.21600001 1
5.4819999 -1.341 0.052000001 1
5.4759998 -1.239 0.112 1
5.4720001 -1.3430001 0.21699999 1
5.4749999 -1.348 0.15800001 1
5.4689999 -1.392 0.27200001 1
5.4770002 -1.234 0.106 1
5.4770002 -1.244 0.098999999 1
5.4720001 -1.391 0.235 1
5.4840002 -1.442 0.054000001 1
5.4809999 -1.268 0.046999998 1
5.4819999 -1.452 0.088 1
5.4720001 -1.393 0.23199999 1
5.4790001 -1.272 0.085000001 1
5.4699998 -1.386 0.26199999 1
5.4699998 -1.404 0.259 1
5.4829998 -1.375 0.043000001 1
5.4829998 -1.362 0.041999999 1
5.4790001 -1.367 0.109 1
5.4749999 -1.308 0.149 1
5.4710002 -1.378 0.245 1
5.4770002 -1.337 0.138 1
5.4809999 -1.355 0.068999998 1
5.4809999 -1.35 0.064000003 1
5.4850001 -1.4170001 0.026000001 1
5.4749999 -1.428 0.19599999 1
5.4780002 -1.2819999 0.107 1
5.4780002 -1.249 0.097999997 1
5.4790001 -1.285 0.089000002 1
5.4819999 -1.395 0.066 1
5.4749999 -1.399 0.17900001 1
5.473 -1.387 0.204 1
5.473 -1.414 0.21699999 1
5.473 -1.386 0.21699999 1
5.4759998 -1.248 0.126 1
5.4689999 -1.402 0.28099999 1
5.4819999 -1.424 0.074000001 1
5.4829998 -1.364 0.034000002 1
5.4790001 -1.314 0.089000002 1
5.4819999 -1.402 0.071999997 1
5.4840002 -1.404 0.039999999 1
5.48 -1.335 0.082000002 1
5.4720001 -1.409 0.22499999 1
5.4790001 -1.362 0.112 1
5.474 -1.327 0.183 1
5.474 -1.359 0.191 1
5.4850001 -1.472 0.044 1
5.4780002 -1.403 0.14 1
5.4759998 -1.2920001 0.14300001 1
5.4790001 -1.34 0.103 1
5.4819999 -1.441 0.071999997 1
5.4819999 -1.321 0.052000001 1
5.4720001 -1.365 0.226 1
5.4749999 -1.274 0.152 1
5.474 -1.308 0.176 1
5.48 -1.4119999 0.103 1
5.4759998 -1.3559999 0.15700001 1
5.48 -1.3559999 0.093999997 1
5.4809999 -1.442 0.093000002 1
5.4780002 -1.395 0.123 1
5.4720001 -1.324 0.207 1
5.4809999 -1.398 0.079000004 1
5.4749999 -1.347 0.164 1
5.4780002 -1.353 0.127 1
5.4770002 -1.262 0.107 1
5.4829998 -1.4349999 0.066 1
5.474 -1.334 0.186 1
5.4790001 -1.372 0.11 1
5.4829998 -1.439 0.055 1
5.4780002 -1.2589999 0.097000003 1
5.48 -1.317 0.082999997 1
5.4749999 -1.327 0.15899999 1
5.4749999 -1.3380001 0.171 1
5.4759998 -1.268 0.121 1
5.4790001 -1.2460001 0.075000003 1
5.4790001 -1.247 0.068000004 1
5.4770002 -1.2359999 0.103 1
5.4770002 -1.258 0.112 1
5.4770002 -1.319 0.132 1
5.4819999 -1.375 0.059 1
5.4790001 -1.258 0.079000004 1
5.4780002 -1.327 0.107 1
5.4699998 -1.4069999 0.25799999 1
5.474 -1.345 0.177 1
5.4749999 -1.271 0.14399999 1
5.4819999 -1.2309999 0.028000001 1
5.4819999 -1.442 0.082999997 1
5.4790001 -1.314 0.085000001 1
5.474 -1.303 0.171 1
5.4790001 -1.234 0.064000003 1
5.4819999 -1.409 0.071999997 1
5.4780002 -1.42 0.13600001 1
5.4749999 -1.275 0.153 1
5.473 -1.419 0.21600001 1
5.4759998 -1.3430001 0.152 1
5.4780002 -1.302 0.112 1
5.4809999 -1.311 0.063000001 1
5.4780002 -1.349 0.125 1
5.4689999 -1.393 0.27700001 1
5.4780002 -1.313 0.11 1
5.473 -1.293 0.18000001 1
5.4770002 -1.29 0.117 1
5.473 -1.342 0.197 1
5.4819999 -1.255 0.032000002 1
5.4749999 -1.393 0.176 1
5.4689999 -1.3839999 0.26699999 1
5.48 -1.36 0.081 1
5.4770002 -1.2690001 0.117 1
5.474 -1.288 0.15899999 1
5.48 -1.299 0.064999998 1
5.4819999 -1.436 0.071000002 1
5.4699998 -1.3660001 0.255 1
5.4749999 -1.3839999 0.18000001 1
5.4819999 -1.278 0.034000002 1
5.48 -1.409 0.11 1
5.4790001 -1.382 0.118 1
5.4840002 -1.436 0.037999999 1
5.4809999 -1.3200001 0.064000003 1
5.4759998 -1.3380001 0.142 1
5.4790001 -1.3430001 0.093999997 1
5.4780002 -1.3430001 0.111 1
5.4780002 -1.285 0.107 1
5.4819999 -1.421 0.075999998 1
5.4819999 -1.37 0.052000001 1
5.474 -1.362 0.186 1
5.4790001 -1.409 0.123 1
5.48 -1.233 0.046999998 1
5.473 -1.385 0.20200001 1
5.4819999 -1.442 0.082999997 1
5.4710002 -1.354 0.23100001 1
5.4829998 -1.3710001 0.048999999 1
5.4819999 -1.253 0.032000002 1
5.48 -1.234 0.050999999 1
5.4819999 -1.409 0.066 1
5.4780002 -1.424 0.142 1
5.4710002 -1.355 0.23999999 1
5.4819999 -1.426 0.078000002 1
5.4829998 -1.382 0.052999999 1
5.4770002 -1.369 0.147 1
5.4749999 -1.358 0.162 1
5.4809999 -1.331 0.059 1
5.4819999 -1.452 0.079000004 1
5.4759998 -1.321 0.14399999 1
5.4770002 -1.301 0.121 1
5.4710002 -1.372 0.236 1
5.4829998 -1.3940001 0.048 1
5.4720001 -1.34 0.205 1
5.4790001 -1.321 0.093000002 1
5.4759998 -1.296 0.141 1
5.4720001 -1.3430001 0.221 1
5.4829998 -1.4579999 0.071999997 1
5.4829998 -1.408 0.046 1
5.4840002 -1.448 0.046999998 1
5.4809999 -1.377 0.068999998 1
5.4819999 -1.298 0.046 1
5.4720001 -1.354 0.223 1
5.473 -1.347 0.193 1
5.4780002 -1.243 0.094999999 1
5.4809999 -1.423 0.083999999 1
5.4819999 -1.263 0.030999999 1
5.4790001 -1.409 0.113 1
5.4759998 -1.28 0.126 1
5.473 -1.368 0.20200001 1
5.4749999 -1.27 0.149 1
5.4780002 -1.24 0.090999998 1
5.48 -1.289 0.068000004 1
5.4749999 -1.272 0.142 1
5.473 -1.367 0.197 1
5.4770002 -1.2589999 0.11 1
5.4710002 -1.382 0.236 1
5.4829998 -1.367 0.046999998 1
5.4829998 -1.46 0.071999997 1
5.4790001 -1.293 0.093999997 1
5.4819999 -1.431 0.075999998 1
5.4840002 -1.469 0.054000001 1
5.4809999 -1.404 0.090999998 1
5.48 -1.373 0.098999999 1
5.4819999 -1.314 0.041999999 1
5.48 -1.436 0.107 1
5.4720001 -1.382 0.23100001 1
5.474 -1.419 0.20999999 1
5.4759998 -1.279 0.132 1
5.4840002 -1.388 0.035999998 1
5.4829998 -1.324 0.033 1
5.4790001 -1.35 0.097000003 1
5.474 -1.362 0.183 1
5.4829998 -1.3710001 0.046999998 1
5.474 -1.284 0.169 1
5.4720001 -1.419 0.229 1
5.4809999 -1.255 0.048 1
5.4759998 -1.331 0.147 1
5.4770002 -1.2410001 0.101 1
5.473 -1.322 0.192 1
5.4819999 -1.3890001 0.057 1
5.4759998 -1.4349999 0.17 1
5.4809999 -1.245 0.044 1
5.4780002 -1.369 0.125 1
5.4819999 -1.438 0.081 1
5.4829998 -1.353 0.044 1
5.4819999 -1.433 0.083999999 1
5.4780002 -1.4299999 0.14399999 1
5.473 -1.348 0.192 1
5.4850001 -1.45 0.029999999 1
5.4829998 -1.423 0.061999999 1
5.4749999 -1.348 0.17200001 1
5.4689999 -1.386 0.27399999 1
5.4829998 -1.4119999 0.050000001 1
5.4829998 -1.325 0.028999999 1
5.4770002 -1.307 0.125 1
5.4780002 -1.396 0.13699999 1
5.4790001 -1.378 0.115 1
5.4770002 -1.3430001 0.126 1
5.4829998 -1.4170001 0.063000001 1
5.4780002 -1.3660001 0.123 1
5.4770002 -1.285 0.118 1
5.4759998 -1.303 0.146 1
5.4720001 -1.362 0.219 1
5.4780002 -1.2460001 0.082999997 1
5.4819999 -1.321 0.052000001 1
5.4710002 -1.348 0.23199999 1
5.4770002 -1.355 0.14 1
5.4809999 -1.3200001 0.068000004 1
5.48 -1.364 0.086999997 1
5.4829998 -1.318 0.032000002 1
5.4689999 -1.38 0.26499999 1
5.4809999 -1.426 0.092 1
5.473 -1.346 0.20100001 1
5.4749999 -1.324 0.16599999 1
5.4759998 -1.427 0.169 1
5.4790001 -1.319 0.092 1
5.48 -1.323 0.079000004 1
5.4780002 -1.24 0.085000001 1
5.4790001 -1.3150001 0.093000002 1
5.4710002 -1.4119999 0.252 1
5.4749999 -1.362 0.171 1
5.4790001 -1.334 0.093999997 1
5.4790001 -1.429 0.122 1
5.4770002 -1.277 0.122 1
5.4710002 -1.358 0.236 1
5.4819999 -1.391 0.068999998 1
5.4829998 -1.358 0.034000002 1
5.4819999 -1.293 0.041000001 1
5.474 -1.3049999 0.167 1
5.473 -1.416 0.219 1
5.4720001 -1.3609999 0.214 1
5.4819999 -1.251 0.030999999 1
5.4840002 -1.459 0.044 1
5.4759998 -1.397 0.16599999 1
5.4829998 -1.374 0.050000001 1
5.48 -1.336 0.075000003 1
5.4759998 -1.266 0.125 1
5.48 -1.405 0.094999999 1
5.4689999 -1.402 0.27500001 1
5.4790001 -1.427 0.13 1
5.4780002 -1.3660001 0.12899999 1
5.4710002 -1.404 0.249 1
5.4819999 -1.323 0.037999999 1
5.4829998 -1.42 0.055 1
5.4770002 -1.304 0.125 1
5.4850001 -1.471 0.045000002 1
5.4809999 -1.3559999 0.071999997 1
5.4770002 -1.2539999 0.11 1
5.4759998 -1.2920001 0.142 1
5.474 -1.308 0.17299999 1
5.48 -1.376 0.086999997 1
5.4699998 -1.408 0.25999999 1
5.4840002 -1.368 0.027000001 1
5.4749999 -1.413 0.177 1
5.4759998 -1.274 0.134 1
5.4759998 -1.383 0.161 1
5.4790001 -1.283 0.082999997 1
5.474 -1.3839999 0.192 1
5.4699998 -1.37 0.248 1
5.4770002 -1.3839999 0.148 1
5.4749999 -1.41 0.177 1
5.4790001 -1.311 0.097999997 1
5.4770002 -1.331 0.134 1
5.4790001 -1.318 0.1 1
5.4790001 -1.2920001 0.093000002 1
5.48 -1.277 0.059 1
5.4840002 -1.429 0.046999998 1
5.4770002 -1.369 0.146 1
5.473 -1.322 0.189 1
5.4790001 -1.365 0.108 1
5.4689999 -1.392 0.27500001 1
5.4840002 -1.4400001 0.052999999 1
5.473 -1.37 0.212 1
5.4759998 -1.323 0.146 1
