# .PCD v0.7 - Point Cloud Data file format
VERSION 0.7
FIELDS x y z label
SIZE 4 4 4 4
TYPE F F F U
COUNT 1 1 1 1
WIDTH 1612
HEIGHT 1
VIEWPOINT 0 0 0 1 0 0 0
POINTS 1612
DATA ascii
3.1010001 -7.0190001 2.2739999 10
3.1029999 -7.0349998 2.277 10
3.1029999 -6.9850001 2.266 10
3.1059999 -7.0229998 2.2739999 10
3.1110001 -7.0159998 2.273 10
3.0910001 -7.0089998 2.2720001 10
3.092 -7.0310001 2.277 10
3.1289999 -6.9949999 2.267 10
3.0999999 -7.006 2.2709999 10
3.1659999 -6.9840002 2.263 10
3.1140001 -6.9990001 2.2690001 10
3.0840001 -6.9990001 2.27 10
3.1070001 -7.0110002 2.2720001 10
3.1329999 -6.9899998 2.266 10
3.145 -6.9980001 2.267 10
3.164 -6.994 2.2650001 10
3.1949999 -6.9889998 2.2620001 10
3.158 -6.9889998 2.2639999 10
3.168 -6.994 2.2650001 10
3.2219999 -6.9879999 2.2609999 10
3.1800001 -6.9879999 2.263 10
3.1110001 -6.9899998 2.267 10
3.1340001 -6.9840002 2.2650001 10
3.1440001 -7.0110002 2.27 10
3.184 -6.9860001 2.2620001 10
3.098 -7.0139999 2.273 10
3.1099999 -6.993 2.2679999 10
3.188 -6.994 2.2639999 10
3.1530001 -6.9949999 2.266 10
3.1340001 -6.994 2.267 10
3.125 -6.9970002 2.2679999 10
3.1210001 -7.0110002 2.2709999 10
3.0969999 -7.0100002 2.2720001 10
3.174 -7.0050001 2.267 10
3.181 -7.0009999 2.266 10
3.2060001 -6.9910002 2.2620001 10
3.0880001 -6.9899998 2.2679999 10
3.1559999 -6.9650002 2.2509999 10
3.165 -6.9619999 2.2490001 10
3.175 -6.9549999 2.2449999 10
3.177 -6.9710002 2.2539999 10
3.1630001 -6.9629998 2.25 10
3.1819999 -6.9580002 2.2460001 10
3.152 -6.9660001 2.253 10
3.131 -6.9759998 2.26 10
3.1029999 -6.9809999 2.2639999 10
3.141 -6.961 2.25 10
3.2049999 -6.9530001 2.2409999 10
3.1789999 -6.9770002 2.2579999 10
3.1800001 -6.9569998 2.2460001 10
3.168 -6.9819999 2.2609999 10
3.22 -6.9710002 2.2520001 10
3.2019999 -6.9590001 2.2449999 10
3.1619999 -6.9829998 2.2620001 10
3.211 -6.9629998 2.247 10
3.174 -6.9749999 2.257 10
3.142 -6.967 2.2539999 10
3.214 -6.9640002 2.2479999 10
3.171 -6.954 2.244 10
3.108 -6.98 2.2639999 10
3.161 -6.974 2.257 10
3.1619999 -6.9749999 2.2579999 10
3.151 -6.9629998 2.2509999 10
3.0969999 -6.9780002 2.263 10
3.1830001 -6.9559999 2.2449999 10
3.1889999 -6.9650002 2.25 10
3.1359999 -6.9640002 2.2520001 10
3.2119999 -6.974 2.2539999 10
3.141 -6.9660001 2.253 10
3.2060001 -6.954 2.2420001 10
3.1800001 -6.967 2.2509999 10
3.2279999 -7.0019999 2.2679999 10
3.198 -7 2.2650001 10
3.161 -7.026 2.2750001 10
3.1570001 -7.02 2.2720001 10
3.2249999 -7.0110002 2.2720001 10
3.181 -7.0349998 2.2809999 10
3.2160001 -7.006 2.2690001 10
3.198 -7.0040002 2.267 10
3.1830001 -7.0229998 2.276 10
3.1689999 -7.026 2.276 10
3.211 -7.033 2.2820001 10
3.1849999 -7.006 2.267 10
3.2090001 -7.0300002 2.28 10
3.188 -7.0250001 2.277 10
3.1329999 -7.0419998 2.2820001 10
3.187 -7.0149999 2.2720001 10
3.2130001 -7.0159998 2.2739999 10
3.152 -7.0250001 2.2750001 10
3.2219999 -7.007 2.27 10
3.089 -7.046 2.2809999 10
3.1110001 -7.0419998 2.28 10
3.1860001 -7.0149999 2.2720001 10
3.1489999 -7.0289998 2.276 10
3.1170001 -7.039 2.279 10
3.1259999 -7.0320001 2.276 10
3.2130001 -7.0149999 2.273 10
3.1530001 -7.0289998 2.276 10
3.2190001 -7.0089998 2.2709999 10
3.2079999 -7 2.266 10
3.142 -7.0359998 2.279 10
3.2149999 -7.0310001 2.2809999 10
3.23 -6.993 2.263 10
3.22 -7.0100002 2.2709999 10
3.154 -7.0250001 2.2739999 10
3.1889999 -7.0240002 2.276 10
3.109 -7.0359998 2.277 10
3.1900001 -7.0040002 2.266 10
3.2149999 -7.027 2.279 10
3.1229999 -7.0419998 2.2809999 10
3.0969999 -7.0409999 2.279 10
3.1600001 -7.0430002 2.2839999 10
3.2249999 -6.9910002 2.2620001 10
3.224 -7.0079999 2.27 10
3.1329999 -7.033 2.277 10
3.2490001 -7.0050001 2.266 10
3.2360001 -7.0149999 2.273 10
3.2360001 -7.0279999 2.279 10
3.2309999 -7.0370002 2.283 10
3.234 -7.0359998 2.2820001 10
3.243 -7.027 2.277 10
3.2579999 -7.026 2.273 10
3.2309999 -7.0209999 2.276 10
3.244 -7.0139999 2.27 10
3.263 -7.0190001 2.2690001 10
3.2320001 -7.0240002 2.277 10
3.233 -6.9920001 2.2620001 10
3.2579999 -7.0229998 2.2720001 10
3.263 -6.98 2.2679999 10
3.2550001 -6.9720001 2.2620001 10
3.253 -6.9650002 2.2590001 10
3.2379999 -6.967 2.2539999 10
3.227 -6.9530001 2.2449999 10
3.2320001 -6.9819999 2.2579999 10
3.2379999 -6.9569998 2.2509999 10
3.2409999 -6.9770002 2.2590001 10
3.2260001 -6.974 2.253 10
3.2509999 -6.9619999 2.257 10
3.267 -6.9790001 2.2690001 10
3.243 -6.9710002 2.2579999 10
3.2219999 -6.9569998 2.2449999 10
3.2349999 -6.9590001 2.25 10
3.2780001 -6.9749999 2.27 10
3.2650001 -6.9720001 2.2650001 10
2.8889999 -6.9809999 2.2650001 10
2.8859999 -6.9580002 2.2520001 10
2.885 -6.9549999 2.263 10
2.892 -6.9970002 2.2780001 10
2.885 -6.9569998 2.2639999 10
2.885 -6.9569998 2.253 10
2.8870001 -6.9679999 2.279 10
2.8889999 -6.9809999 2.2739999 10
2.8889999 -6.98 2.2820001 10
2.8789999 -6.7550001 2.2639999 10
2.8800001 -6.7930002 2.273 10
2.8800001 -6.7820001 2.2650001 10
2.8800001 -6.7919998 2.27 10
2.8789999 -6.7800002 2.2609999 10
2.882 -6.8509998 2.2809999 10
2.8789999 -6.756 2.273 10
2.8789999 -6.7579999 2.2709999 10
2.8800001 -6.8429999 2.2460001 10
2.881 -6.8280001 2.2650001 10
2.8789999 -6.7610002 2.263 10
2.881 -6.8249998 2.2820001 10
2.881 -6.8759999 2.2460001 10
2.881 -6.8099999 2.276 10
2.8789999 -6.763 2.2539999 10
2.878 -6.7059999 2.257 10
2.878 -6.7280002 2.256 10
2.881 -6.8390002 2.2709999 10
2.8800001 -6.7849998 2.2690001 10
2.8800001 -6.7709999 2.2780001 10
2.881 -6.8379998 2.2620001 10
2.881 -6.8730001 2.243 10
2.881 -6.835 2.2739999 10
2.8800001 -6.8319998 2.2460001 10
2.8800001 -6.7859998 2.2809999 10
2.881 -6.8239999 2.2780001 10
2.881 -6.8530002 2.2739999 10
2.8800001 -6.7950001 2.2750001 10
2.881 -6.8140001 2.276 10
2.881 -6.8639998 2.2650001 10
2.878 -6.7389998 2.256 10
2.8800001 -6.8189998 2.2620001 10
2.878 -6.7309999 2.2609999 10
2.881 -6.8319998 2.2650001 10
2.881 -6.8660002 2.244 10
2.8800001 -6.8150001 2.25 10
2.8800001 -6.803 2.2490001 10
2.8789999 -6.756 2.257 10
2.881 -6.8559999 2.273 10
2.8789999 -6.7870002 2.25 10
2.8800001 -6.8130002 2.2679999 10
2.882 -6.8649998 2.2820001 10
2.881 -6.8109999 2.277 10
2.881 -6.8610001 2.26 10
2.881 -6.8390002 2.263 10
2.8789999 -6.7880001 2.2490001 10
2.878 -6.7290001 2.2609999 10
2.8789999 -6.777 2.2579999 10
2.8789999 -6.79 2.25 10
2.8789999 -6.7709999 2.253 10
2.8800001 -6.7719998 2.283 10
2.881 -6.8559999 2.2720001 10
2.8800001 -6.822 2.247 10
2.8789999 -6.7470002 2.257 10
2.878 -6.7420001 2.2579999 10
2.878 -6.7340002 2.2609999 10
2.8789999 -6.7620001 2.2579999 10
2.8789999 -6.6869998 2.2809999 10
2.8789999 -6.7220001 2.283 10
2.878 -6.7069998 2.2620001 10
2.878 -6.6939998 2.2739999 10
2.8789999 -6.6869998 2.2839999 10
2.8789999 -6.7290001 2.276 10
2.8789999 -6.7309999 2.2750001 10
2.8789999 -6.7360001 2.2750001 10
2.878 -6.697 2.2590001 10
2.8789999 -6.6849999 2.28 10
2.8789999 -6.7360001 2.2809999 10
2.878 -6.6859999 2.27 10
2.878 -6.4980001 2.2709999 10
2.878 -6.6090002 2.2809999 10
2.878 -6.6139998 2.279 10
2.8770001 -6.473 2.253 10
2.878 -6.4000001 2.2809999 10
2.8770001 -6.6539998 2.2620001 10
2.8770001 -6.4390001 2.263 10
2.878 -6.6030002 2.276 10
2.878 -6.5580001 2.273 10
2.878 -6.658 2.2690001 10
2.8770001 -6.3829999 2.267 10
2.878 -6.5029998 2.2720001 10
2.8770001 -6.4229999 2.27 10
2.878 -6.5430002 2.276 10
2.8759999 -6.5609999 2.2550001 10
2.878 -6.4450002 2.2750001 10
2.8770001 -6.5869999 2.273 10
2.8759999 -6.401 2.26 10
2.878 -6.487 2.277 10
2.8770001 -6.6209998 2.263 10
2.878 -6.4640002 2.2709999 10
2.8770001 -6.6700001 2.257 10
2.8770001 -6.6360002 2.2590001 10
2.8759999 -6.3860002 2.257 10
2.8789999 -6.533 2.283 10
2.8759999 -6.3540001 2.2509999 10
2.8770001 -6.5809999 2.2620001 10
2.8759999 -6.3649998 2.2579999 10
2.8770001 -6.4559999 2.266 10
2.878 -6.6220002 2.27 10
2.878 -6.4190001 2.2820001 10
2.878 -6.5570002 2.277 10
2.878 -6.5840001 2.2839999 10
2.8759999 -6.3709998 2.257 10
2.8770001 -6.5630002 2.263 10
2.8770001 -6.3850002 2.276 10
2.878 -6.605 2.2750001 10
2.8770001 -6.5929999 2.2679999 10
2.878 -6.447 2.2839999 10
2.878 -6.4120002 2.279 10
2.878 -6.4899998 2.2780001 10
2.8770001 -6.4819999 2.2650001 10
2.8770001 -6.448 2.263 10
2.878 -6.4990001 2.28 10
2.8770001 -6.5799999 2.2679999 10
2.8770001 -6.4330001 2.266 10
2.878 -6.6550002 2.2639999 10
2.878 -6.5279999 2.2690001 10
2.8759999 -6.4429998 2.253 10
2.8770001 -6.559 2.2539999 10
2.8770001 -6.5630002 2.2590001 10
2.8770001 -6.3959999 2.277 10
2.8770001 -6.4159999 2.2609999 10
2.878 -6.3990002 2.2820001 10
2.878 -6.6789999 2.2609999 10
2.8770001 -6.5650001 2.27 10
2.878 -6.645 2.277 10
2.878 -6.5549998 2.2650001 10
2.878 -6.4790001 2.28 10
2.8770001 -6.4580002 2.257 10
2.878 -6.4520001 2.276 10
2.8770001 -6.4089999 2.2750001 10
2.878 -6.5149999 2.2739999 10
2.878 -6.6700001 2.279 10
2.878 -6.401 2.2839999 10
2.878 -6.5700002 2.28 10
2.8770001 -6.6090002 2.266 10
2.878 -6.6350002 2.2820001 10
2.878 -6.52 2.2820001 10
2.8789999 -6.5539999 2.2780001 10
2.8770001 -6.5089998 2.2620001 10
2.8770001 -6.4759998 2.2539999 10
2.878 -6.6599998 2.28 10
2.8789999 -6.527 2.2820001 10
2.8770001 -6.5050001 2.2609999 10
2.8759999 -6.3860002 2.2550001 10
2.8770001 -6.6220002 2.267 10
2.8770001 -6.4250002 2.2679999 10
2.878 -6.586 2.2820001 10
2.8770001 -6.402 2.2690001 10
2.878 -6.677 2.2650001 10
2.878 -6.4629998 2.2839999 10
2.8770001 -6.4250002 2.2579999 10
2.878 -6.651 2.2739999 10
2.8770001 -6.4169998 2.273 10
2.8770001 -6.6279998 2.257 10
2.8770001 -6.4349999 2.2679999 10
2.8770001 -6.4829998 2.2539999 10
2.878 -6.6399999 2.2750001 10
2.8759999 -6.381 2.2539999 10
2.878 -6.5120001 2.2709999 10
2.878 -6.3959999 2.2809999 10
2.878 -6.3800001 2.2820001 10
2.8770001 -6.3369999 2.2809999 10
2.8770001 -6.3109999 2.2709999 10
2.8770001 -6.3730001 2.2739999 10
2.8770001 -6.3779998 2.2820001 10
2.8759999 -6.3649998 2.263 10
2.8759999 -6.342 2.256 10
2.8770001 -6.3649998 2.2780001 10
2.8770001 -6.3379998 2.2839999 10
2.8770001 -6.3150001 2.277 10
2.8770001 -6.3660002 2.2750001 10
2.8770001 -6.3080001 2.2820001 10
2.8770001 -6.3590002 2.2780001 10
2.8770001 -6.3189998 2.2720001 10
2.8770001 -6.3439999 2.2820001 10
2.8759999 -6.362 2.2639999 10
2.8770001 -6.3060002 2.2720001 10
2.8770001 -6.3850002 2.2780001 10
2.8770001 -6.3010001 2.277 10
2.8759999 -6.3449998 2.263 10
2.8770001 -6.3520002 2.273 10
2.8770001 -6.3060002 2.283 10
2.8770001 -6.3189998 2.27 10
2.878 -6.0939999 2.2739999 10
2.878 -5.9250002 2.2550001 10
2.8789999 -5.836 2.2709999 10
2.8789999 -5.8449998 2.253 10
2.8770001 -6.1729999 2.2609999 10
2.8789999 -5.9050002 2.2550001 10
2.8770001 -6.0939999 2.2539999 10
2.8759999 -6.3049998 2.257 10
2.8770001 -6.1030002 2.2590001 10
2.8770001 -6.1139998 2.2550001 10
2.8770001 -6.2800002 2.266 10
2.878 -6.099 2.2820001 10
2.8789999 -5.8559999 2.2520001 10
2.8759999 -6.2740002 2.2579999 10
2.878 -5.9359999 2.256 10
2.8789999 -5.9060001 2.267 10
2.878 -6.1290002 2.279 10
2.8789999 -5.823 2.2620001 10
2.878 -6.1290002 2.2750001 10
2.878 -6.0279999 2.2690001 10
2.8789999 -5.8189998 2.257 10
2.8789999 -5.8720002 2.2679999 10
2.8789999 -5.8460002 2.2590001 10
2.878 -6.0450001 2.26 10
2.8770001 -6.2859998 2.2780001 10
2.878 -6 2.256 10
2.878 -6.0549998 2.28 10
2.8789999 -5.987 2.2720001 10
2.878 -6.079 2.2720001 10
2.8789999 -5.9850001 2.27 10
2.8789999 -5.994 2.28 10
2.878 -5.9710002 2.267 10
2.8770001 -6.1729999 2.2539999 10
2.8789999 -5.9790001 2.277 10
2.8770001 -6.1690001 2.2550001 10
2.878 -6.0120001 2.273 10
2.8789999 -5.8499999 2.2550001 10
2.8770001 -6.1090002 2.2539999 10
2.8770001 -6.2129998 2.267 10
2.8789999 -5.8720002 2.253 10
2.8789999 -5.8260002 2.256 10
2.8789999 -5.947 2.279 10
2.8770001 -6.119 2.2520001 10
2.8759999 -6.2930002 2.2590001 10
2.878 -6.0359998 2.2539999 10
2.878 -6.0869999 2.2780001 10
2.8770001 -6.2329998 2.2780001 10
2.878 -5.9530001 2.2579999 10
2.8770001 -6.0679998 2.2539999 10
2.8789999 -5.8969998 2.2820001 10
2.878 -6.0999999 2.277 10
2.878 -6.1199999 2.2820001 10
2.8770001 -6.1570001 2.27 10
2.8770001 -6.3039999 2.2690001 10
2.8770001 -6.0869999 2.256 10
2.878 -6.026 2.2780001 10
2.8789999 -5.902 2.28 10
2.878 -5.9910002 2.2590001 10
2.878 -6.1110001 2.279 10
2.8789999 -5.9790001 2.2709999 10
2.8770001 -6.1960001 2.2590001 10
2.8789999 -5.8870001 2.263 10
2.878 -5.994 2.2590001 10
2.8789999 -5.921 2.2709999 10
2.878 -6.0159998 2.2590001 10
2.8789999 -5.849 2.266 10
2.878 -6.151 2.277 10
2.878 -6.1269999 2.2720001 10
2.8789999 -5.8790002 2.256 10
2.8759999 -6.263 2.2590001 10
2.8770001 -6.2509999 2.2620001 10
2.878 -6.1160002 2.28 10
2.878 -6.1420002 2.279 10
2.8770001 -6.2010002 2.2620001 10
2.8770001 -6.2420001 2.2809999 10
2.878 -5.9310002 2.2579999 10
2.8789999 -5.8959999 2.2650001 10
2.8789999 -5.895 2.28 10
2.8770001 -6.1279998 2.253 10
2.8789999 -5.9850001 2.279 10
2.8770001 -6.21 2.257 10
2.8770001 -6.21 2.26 10
2.878 -6.0409999 2.2520001 10
2.8789999 -5.9559999 2.2820001 10
2.8770001 -6.2729998 2.277 10
2.8770001 -6.224 2.276 10
2.878 -6.0910001 2.2820001 10
2.8770001 -6.1269999 2.2609999 10
2.8789999 -5.974 2.2780001 10
2.8789999 -5.9569998 2.2750001 10
2.8770001 -6.1209998 2.2539999 10
2.878 -6.1950002 2.2809999 10
2.8770001 -6.1869998 2.276 10
2.8789999 -6.006 2.28 10
2.8789999 -5.9520001 2.279 10
2.878 -6.0219998 2.273 10
2.8789999 -5.8660002 2.26 10
2.878 -6.1659999 2.2739999 10
2.878 -6.086 2.27 10
2.878 -6.0139999 2.2720001 10
2.878 -6.0960002 2.2750001 10
2.8789999 -5.8730001 2.276 10
2.8789999 -5.8959999 2.2679999 10
2.878 -6.0960002 2.26 10
2.8770001 -6.2490001 2.2639999 10
2.8789999 -5.914 2.256 10
2.8770001 -6.2150002 2.2550001 10
2.878 -6.0339999 2.2650001 10
2.878 -6.1279998 2.276 10
2.8770001 -6.1430001 2.2520001 10
2.8789999 -5.9219999 2.2590001 10
2.8770001 -6.0770001 2.2539999 10
2.878 -6.0799999 2.283 10
2.878 -6.006 2.2620001 10
2.878 -6.0479999 2.2739999 10
2.8770001 -6.2800002 2.273 10
2.8770001 -6.2909999 2.27 10
2.8789999 -5.8709998 2.257 10
2.8770001 -6.223 2.2539999 10
2.8789999 -5.9099998 2.276 10
2.878 -6.0609999 2.2780001 10
2.8770001 -6.1550002 2.2609999 10
2.8789999 -6.0289998 2.28 10
2.8789999 -5.9159999 2.27 10
2.8789999 -5.855 2.267 10
2.8770001 -6.066 2.2520001 10
2.8759999 -6.2800002 2.257 10
2.8770001 -6.2199998 2.26 10
2.8770001 -6.1849999 2.26 10
2.8789999 -5.928 2.2839999 10
2.8770001 -6.2420001 2.2639999 10
2.8789999 -5.8629999 2.266 10
2.8789999 -6.0349998 2.2839999 10
2.8789999 -5.8400002 2.267 10
2.8789999 -5.9200001 2.267 10
2.8770001 -6.2249999 2.2750001 10
2.8789999 -5.8319998 2.257 10
2.878 -6.013 2.27 10
2.8770001 -6.2389998 2.26 10
2.8770001 -6.1529999 2.257 10
2.878 -5.9380002 2.2550001 10
2.8770001 -6.1890001 2.2709999 10
2.878 -6.085 2.2609999 10
2.8789999 -5.8779998 2.2690001 10
2.878 -5.9120002 2.2550001 10
2.8770001 -6.2049999 2.253 10
2.8770001 -6.2140002 2.2550001 10
2.8770001 -6.072 2.253 10
2.8789999 -5.8660002 2.2720001 10
2.8789999 -5.8509998 2.266 10
2.8770001 -6.2360001 2.277 10
2.8770001 -6.204 2.266 10
2.8789999 -5.8379998 2.257 10
2.8789999 -5.8670001 2.2639999 10
2.8770001 -6.1020002 2.257 10
2.878 -6.0780001 2.267 10
2.878 -6.1859999 2.28 10
2.878 -6.0510001 2.2550001 10
2.878 -5.9899998 2.2709999 10
2.8770001 -6.1560001 2.2709999 10
2.8789999 -5.9089999 2.2690001 10
2.8800001 -5.8540001 2.2839999 10
2.8800001 -5.7600002 2.273 10
2.8800001 -5.8369999 2.2750001 10
2.8800001 -5.8119998 2.2739999 10
2.8789999 -5.7950001 2.26 10
2.8800001 -5.8000002 2.283 10
2.8789999 -5.8340001 2.2709999 10
2.8800001 -5.777 2.263 10
2.8789999 -5.7659998 2.2609999 10
2.8800001 -5.756 2.279 10
2.8800001 -5.8099999 2.2739999 10
2.8800001 -5.743 2.2739999 10
2.8800001 -5.8039999 2.283 10
2.8800001 -5.7290001 2.283 10
2.8789999 -5.783 2.2579999 10
2.8800001 -5.7589998 2.279 10
2.8800001 -5.7909999 2.277 10
2.8800001 -5.8340001 2.283 10
2.8800001 -5.8060002 2.2739999 10
2.8800001 -5.7459998 2.27 10
2.8800001 -5.7220001 2.2839999 10
2.8800001 -5.7199998 2.279 10
2.8789999 -5.822 2.2679999 10
2.8800001 -5.789 2.283 10
2.8800001 -5.8590002 2.2820001 10
2.8800001 -5.75 2.2679999 10
2.8789999 -5.7789998 2.2550001 10
2.8800001 -5.7350001 2.2809999 10
2.8800001 -5.7290001 2.279 10
2.8800001 -5.7470002 2.2739999 10
2.8800001 -5.6630001 2.2750001 10
2.8800001 -5.6589999 2.27 10
2.8800001 -5.7049999 2.2679999 10
2.8800001 -5.6989999 2.283 10
2.8800001 -5.632 2.2709999 10
2.8800001 -5.6149998 2.2679999 10
2.8800001 -5.711 2.273 10
2.8800001 -5.6810002 2.256 10
2.8800001 -5.6069999 2.263 10
2.8800001 -5.6459999 2.279 10
2.8800001 -5.6700001 2.263 10
2.8800001 -5.678 2.2690001 10
2.8800001 -5.6999998 2.2679999 10
2.8800001 -5.6589999 2.28 10
2.8800001 -5.5840001 2.277 10
2.8800001 -5.6869998 2.2590001 10
2.8800001 -5.658 2.2579999 10
2.8800001 -5.6539998 2.2709999 10
2.8800001 -5.6789999 2.27 10
2.8800001 -5.6890001 2.267 10
2.8800001 -5.5929999 2.263 10
2.8800001 -5.6350002 2.27 10
2.8800001 -5.6360002 2.266 10
2.8789999 -5.7649999 2.257 10
2.8789999 -5.7509999 2.2579999 10
2.881 -5.6760001 2.2839999 10
2.8800001 -5.6609998 2.2639999 10
2.8789999 -5.7490001 2.257 10
2.8800001 -5.6110001 2.2720001 10
2.8800001 -5.73 2.2650001 10
2.8800001 -5.7140002 2.263 10
2.8800001 -5.5819998 2.2590001 10
2.8800001 -5.6570001 2.267 10
2.8800001 -5.6690001 2.257 10
2.881 -5.6430001 2.2820001 10
2.8800001 -5.6069999 2.2609999 10
2.8800001 -5.6360002 2.279 10
2.8800001 -5.7379999 2.2650001 10
2.8800001 -5.7379999 2.2690001 10
2.8800001 -5.698 2.276 10
2.8800001 -5.6680002 2.2780001 10
2.8800001 -5.6620002 2.267 10
2.8789999 -5.7069998 2.256 10
2.8800001 -5.6329999 2.26 10
2.8800001 -5.6669998 2.2750001 10
2.885 -4.4359999 2.2750001 10
2.885 -4.4320002 2.2839999 10
2.885 -4.4039998 2.2839999 10
2.885 -4.4299998 2.2739999 10
2.885 -4.4200001 2.283 10
2.885 -4.4050002 2.2839999 10
2.885 -4.4489999 2.273 10
2.885 -4.4489999 2.266 10
2.8840001 -4.1700001 2.2609999 10
2.885 -4.0289998 2.276 10
2.8840001 -4.0440001 2.2579999 10
2.8840001 -3.971 2.267 10
2.885 -4.375 2.283 10
2.8840001 -3.934 2.2679999 10
2.885 -4.3140001 2.277 10
2.8840001 -4.1389999 2.263 10
2.885 -4.0469999 2.2820001 10
2.8840001 -4.3140001 2.2590001 10
2.885 -4.0970001 2.2839999 10
2.8840001 -4.263 2.267 10
2.885 -3.9990001 2.28 10
2.885 -4.145 2.2820001 10
2.885 -4.0019999 2.2750001 10
2.885 -4.3920002 2.2720001 10
2.8840001 -4.1960001 2.27 10
2.885 -4.0910001 2.2750001 10
2.885 -3.9430001 2.2809999 10
2.8840001 -4.2389998 2.257 10
2.8840001 -4.1259999 2.266 10
2.8840001 -4.2179999 2.256 10
2.8840001 -3.9590001 2.2739999 10
2.8840001 -3.938 2.266 10
2.8840001 -4.2340002 2.263 10
2.885 -4.0710001 2.283 10
2.885 -3.9679999 2.283 10
2.8840001 -4.1750002 2.266 10
2.885 -4.0599999 2.2750001 10
2.885 -4.3410001 2.2820001 10
2.8840001 -4.2649999 2.26 10
2.8840001 -4.092 2.256 10
2.8840001 -4.099 2.2579999 10
2.8840001 -4.401 2.256 10
2.8840001 -3.895 2.27 10
2.8840001 -4.2919998 2.266 10
2.8840001 -4.2950001 2.257 10
2.8840001 -4.1560001 2.267 10
2.885 -4.0430002 2.2820001 10
2.8840001 -3.9260001 2.2650001 10
2.885 -4.1919999 2.2750001 10
2.8840001 -4.1830001 2.2650001 10
2.8840001 -4.4190001 2.256 10
2.8840001 -3.888 2.2620001 10
2.885 -4.349 2.2820001 10
2.8840001 -4.448 2.2579999 10
2.8840001 -3.9070001 2.267 10
2.8840001 -4.29 2.2620001 10
2.8840001 -4.427 2.2609999 10
2.8840001 -3.9860001 2.27 10
2.8840001 -4.1570001 2.2639999 10
2.885 -4.0710001 2.2839999 10
2.8840001 -3.9130001 2.2590001 10
2.8840001 -4.2020001 2.2620001 10
2.8840001 -4.1599998 2.2620001 10
2.8840001 -4.0240002 2.2720001 10
2.8840001 -4.3649998 2.2620001 10
2.8840001 -4.2259998 2.2579999 10
2.885 -4.2610002 2.2709999 10
2.885 -4.3379998 2.2690001 10
2.885 -4.263 2.283 10
2.8840001 -3.994 2.267 10
2.8840001 -4.2600002 2.2650001 10
2.8840001 -4.151 2.2579999 10
2.885 -4.2940001 2.2720001 10
2.885 -4.0970001 2.276 10
2.8840001 -4.138 2.2639999 10
2.8840001 -4.1149998 2.2609999 10
2.8840001 -3.9549999 2.257 10
2.885 -4.112 2.2809999 10
2.8840001 -3.9189999 2.2639999 10
2.885 -4.0580001 2.2809999 10
2.8840001 -4.2399998 2.2650001 10
2.8840001 -3.9260001 2.263 10
2.885 -4.2620001 2.2809999 10
2.8840001 -4.0159998 2.2650001 10
2.8840001 -3.921 2.257 10
2.8840001 -4.2059999 2.2620001 10
2.8840001 -4.099 2.2650001 10
2.885 -4.3860002 2.27 10
2.8840001 -4.3979998 2.2590001 10
2.8840001 -4.3660002 2.2590001 10
2.8840001 -4.1209998 2.2679999 10
2.885 -4.4330001 2.2650001 10
2.885 -3.9909999 2.276 10
2.8840001 -4.1110001 2.257 10
2.885 -4.0900002 2.2820001 10
2.8840001 -3.911 2.277 10
2.885 -3.9400001 2.277 10
2.8840001 -4.059 2.2679999 10
2.8840001 -3.938 2.263 10
2.885 -4.1139998 2.2839999 10
2.8840001 -4.2639999 2.266 10
2.8840001 -4.4380002 2.26 10
2.885 -4.3959999 2.2809999 10
2.8840001 -3.934 2.273 10
2.8840001 -4.296 2.26 10
2.8840001 -3.9289999 2.2679999 10
2.885 -4.3850002 2.2809999 10
2.8840001 -4.4380002 2.2579999 10
2.885 -4.3559999 2.2709999 10
2.8840001 -4.1810002 2.2690001 10
2.885 -4.138 2.2720001 10
2.885 -4.2740002 2.2780001 10
2.8840001 -4.0320001 2.256 10
2.885 -3.937 2.277 10
2.8840001 -3.98 2.257 10
2.885 -4.1739998 2.277 10
2.8840001 -4.1079998 2.2609999 10
2.8840001 -4.0929999 2.2579999 10
2.8840001 -4.0869999 2.256 10
2.885 -4.1999998 2.277 10
2.885 -3.928 2.2839999 10
2.885 -4.1399999 2.2739999 10
2.8840001 -4.0100002 2.266 10
2.8840001 -3.888 2.2650001 10
2.885 -4.0830002 2.277 10
2.8840001 -3.9849999 2.2709999 10
2.8840001 -4.3130002 2.2609999 10
2.885 -4.3990002 2.279 10
2.8840001 -4.033 2.2720001 10
2.885 -3.9260001 2.279 10
2.8840001 -4.105 2.263 10
2.885 -4.1479998 2.2720001 10
2.885 -4.3660002 2.28 10
2.8840001 -4.105 2.2679999 10
2.885 -3.9760001 2.277 10
2.885 -4.3800001 2.2679999 10
2.8840001 -4.2789998 2.257 10
2.8840001 -4.1960001 2.257 10
2.885 -4.1300001 2.283 10
2.885 -4.0440001 2.277 10
2.8840001 -4.171 2.257 10
2.885 -4.2509999 2.28 10
2.885 -4.2119999 2.2839999 10
2.885 -4.1139998 2.283 10
2.885 -3.9300001 2.279 10
2.885 -3.9820001 2.2780001 10
2.8840001 -3.904 2.2709999 10
2.8840001 -4.2249999 2.263 10
2.885 -4.3530002 2.283 10
2.885 -4.2779999 2.28 10
2.8840001 -3.9630001 2.2679999 10
2.8840001 -3.9909999 2.257 10
2.8840001 -4.026 2.26 10
2.8840001 -4.2249999 2.2609999 10
2.885 -4.1599998 2.279 10
2.885 -3.954 2.28 10
2.8840001 -4.039 2.257 10
2.8840001 -3.8870001 2.2550001 10
2.8840001 -3.994 2.2579999 10
2.8840001 -4.184 2.267 10
2.8840001 -4.2210002 2.2609999 10
2.8840001 -4.079 2.2639999 10
2.8840001 -4.2410002 2.2690001 10
2.885 -4.0500002 2.276 10
2.8840001 -3.987 2.2639999 10
2.885 -4.3000002 2.273 10
2.8840001 -3.9949999 2.267 10
2.8840001 -3.8989999 2.256 10
2.885 -4.211 2.277 10
2.885 -3.7850001 2.283 10
2.885 -3.849 2.279 10
2.885 -3.888 2.2780001 10
2.885 -3.8640001 2.283 10
2.8840001 -3.8900001 2.2750001 10
2.8840001 -3.858 2.263 10
2.885 -3.8210001 2.2750001 10
2.8840001 -3.8800001 2.263 10
2.8840001 -3.865 2.2739999 10
2.8840001 -3.8559999 2.2609999 10
2.885 -3.875 2.28 10
2.8840001 -3.8940001 2.273 10
2.885 -3.891 2.2809999 10
2.8840001 -3.875 2.266 10
2.885 -3.783 2.2820001 10
2.885 -3.8050001 2.28 10
2.885 -3.8369999 2.2839999 10
2.885 -3.8340001 2.2809999 10
2.8840001 -3.825 2.27 10
2.8840001 -3.888 2.276 10
2.8870001 -3.408 2.2590001 10
2.8870001 -3.434 2.2650001 10
2.8870001 -3.3540001 2.267 10
2.8859999 -3.539 2.2590001 10
2.885 -3.779 2.28 10
2.8870001 -3.467 2.2780001 10
2.8840001 -3.799 2.2650001 10
2.8870001 -3.4130001 2.2750001 10
2.885 -3.723 2.283 10
2.885 -3.7639999 2.277 10
2.8840001 -3.835 2.2620001 10
2.8870001 -3.444 2.279 10
2.8840001 -3.7639999 2.2579999 10
2.8870001 -3.4189999 2.2620001 10
2.885 -3.766 2.2750001 10
2.8859999 -3.55 2.277 10
2.8870001 -3.3970001 2.26 10
2.885 -3.747 2.26 10
2.8859999 -3.6630001 2.2809999 10
2.885 -3.658 2.2579999 10
2.888 -3.3859999 2.2809999 10
2.8859999 -3.605 2.2620001 10
2.8870001 -3.4590001 2.273 10
2.8859999 -3.609 2.273 10
2.888 -3.3670001 2.279 10
2.8859999 -3.6259999 2.2750001 10
2.8870001 -3.3900001 2.2780001 10
2.8870001 -3.4879999 2.2720001 10
2.8870001 -3.3629999 2.26 10
2.8859999 -3.513 2.2579999 10
2.8859999 -3.6619999 2.283 10
2.8859999 -3.5309999 2.2620001 10
2.885 -3.7160001 2.2820001 10
2.8870001 -3.3800001 2.266 10
2.8870001 -3.382 2.2620001 10
2.8870001 -3.5439999 2.283 10
2.8870001 -3.395 2.273 10
2.885 -3.7809999 2.279 10
2.888 -3.3800001 2.2839999 10
2.8859999 -3.6099999 2.2750001 10
2.8859999 -3.533 2.266 10
2.885 -3.665 2.2609999 10
2.8870001 -3.4389999 2.283 10
2.8840001 -3.8080001 2.2639999 10
2.8870001 -3.4890001 2.2839999 10
2.8859999 -3.5339999 2.2750001 10
2.8859999 -3.602 2.2639999 10
2.888 -3.3510001 2.28 10
2.8859999 -3.4579999 2.2579999 10
2.8859999 -3.533 2.277 10
2.8859999 -3.6129999 2.2739999 10
2.885 -3.7090001 2.2720001 10
2.885 -3.668 2.2579999 10
2.8870001 -3.3840001 2.277 10
2.885 -3.7390001 2.2650001 10
2.8870001 -3.368 2.263 10
2.8859999 -3.6270001 2.267 10
2.8859999 -3.55 2.2579999 10
2.885 -3.763 2.2620001 10
2.885 -3.7149999 2.273 10
2.885 -3.777 2.2739999 10
2.885 -3.675 2.2750001 10
2.8859999 -3.592 2.28 10
2.8870001 -3.385 2.266 10
2.8870001 -3.467 2.2739999 10
2.8870001 -3.4330001 2.2679999 10
2.8870001 -3.4909999 2.2679999 10
2.8859999 -3.586 2.283 10
2.8870001 -3.4119999 2.267 10
2.885 -3.6270001 2.2579999 10
2.8840001 -3.813 2.257 10
2.885 -3.7149999 2.263 10
2.8859999 -3.563 2.277 10
2.885 -3.6659999 2.2609999 10
2.8870001 -3.46 2.2620001 10
2.8870001 -3.3900001 2.26 10
2.8870001 -3.4289999 2.27 10
2.8859999 -3.619 2.2809999 10
2.885 -3.7590001 2.2690001 10
2.8859999 -3.5869999 2.2820001 10
2.885 -3.7090001 2.26 10
2.8870001 -3.3759999 2.2709999 10
2.8870001 -3.457 2.27 10
2.885 -3.756 2.2679999 10
2.885 -3.7609999 2.2620001 10
2.8859999 -3.523 2.273 10
2.8840001 -3.816 2.26 10
2.888 -3.368 2.28 10
2.888 -3.332 2.2709999 10
2.8870001 -3.441 2.27 10
2.885 -3.7869999 2.2780001 10
2.8870001 -3.4760001 2.267 10
2.885 -3.678 2.256 10
2.8859999 -3.5580001 2.2780001 10
2.885 -3.6960001 2.279 10
2.8870001 -3.369 2.267 10
2.885 -3.72 2.276 10
2.8840001 -3.806 2.27 10
2.888 -3.3540001 2.279 10
2.885 -3.7049999 2.2720001 10
2.885 -3.7880001 2.273 10
2.8870001 -3.4809999 2.2839999 10
2.8859999 -3.5780001 2.2839999 10
2.885 -3.7420001 2.273 10
2.8840001 -3.8329999 2.2590001 10
2.8859999 -3.582 2.2820001 10
2.885 -3.6949999 2.28 10
2.8870001 -3.3499999 2.266 10
2.8870001 -3.4100001 2.283 10
2.885 -3.78 2.2750001 10
2.885 -3.7079999 2.266 10
2.8870001 -3.3740001 2.2650001 10
2.8870001 -3.4200001 2.276 10
2.8840001 -3.802 2.2679999 10
2.8859999 -3.602 2.2639999 10
2.8859999 -3.5220001 2.2620001 10
2.8870001 -3.424 2.2590001 10
2.8859999 -3.5829999 2.2590001 10
2.8840001 -3.8469999 2.257 10
2.8870001 -3.4460001 2.2709999 10
2.885 -3.743 2.283 10
2.885 -3.701 2.277 10
2.8859999 -3.5409999 2.279 10
2.8870001 -3.4849999 2.276 10
2.8859999 -3.599 2.263 10
2.8870001 -3.454 2.2709999 10
2.8840001 -3.7820001 2.26 10
2.8859999 -3.6040001 2.283 10
2.8840001 -3.8369999 2.2579999 10
2.888 -3.365 2.279 10
2.888 -3.336 2.2709999 10
2.8870001 -3.415 2.279 10
2.888 -3.3299999 2.2820001 10
2.888 -3.325 2.283 10
2.891 -3.2620001 2.28 10
2.888 -3.3 2.2690001 10
2.8889999 -3.2809999 2.2839999 10
2.8889999 -3.28 2.2739999 10
2.8889999 -3.283 2.28 10
2.891 -3.26 2.2839999 10
2.8889999 -3.2820001 2.28 10
2.891 -3.27 2.2839999 10
2.8889999 -3.2920001 2.28 10
2.8889999 -3.2739999 2.2839999 10
2.8889999 -3.276 2.2780001 10
2.888 -3.325 2.283 10
2.891 -3.0450001 2.2609999 10
2.891 -3.1919999 2.2809999 10
2.8900001 -3.177 2.2639999 10
2.891 -3.1860001 2.279 10
2.8889999 -3.276 2.2690001 10
2.891 -3.1110001 2.2639999 10
2.8929999 -3.0190001 2.276 10
2.891 -3.243 2.277 10
2.891 -3.24 2.28 10
2.892 -3.1470001 2.2820001 10
2.891 -3.168 2.279 10
2.891 -3.2360001 2.28 10
2.8900001 -3.1919999 2.2679999 10
2.892 -3.056 2.267 10
2.8900001 -3.2119999 2.2690001 10
2.892 -3.1459999 2.2839999 10
2.8929999 -3.0250001 2.28 10
2.891 -3.2249999 2.2820001 10
2.8889999 -3.2379999 2.263 10
2.891 -3.1370001 2.2709999 10
2.892 -3.075 2.277 10
2.892 -3.0539999 2.273 10
2.8900001 -3.171 2.263 10
2.8900001 -3.2590001 2.277 10
2.892 -3.039 2.2690001 10
2.891 -3.1630001 2.277 10
2.892 -3.141 2.2780001 10
2.8900001 -3.1930001 2.2590001 10
2.8900001 -3.224 2.2739999 10
2.891 -3.0339999 2.2620001 10
2.892 -3.053 2.27 10
2.8900001 -3.2079999 2.2650001 10
2.8900001 -3.2049999 2.266 10
2.8929999 -3.0050001 2.2780001 10
2.891 -3.177 2.28 10
2.891 -3.1199999 2.27 10
2.891 -3.2349999 2.283 10
2.891 -3.109 2.2620001 10
2.891 -3.194 2.277 10
2.891 -3.247 2.2809999 10
2.8889999 -3.2650001 2.26 10
2.8900001 -3.2249999 2.2650001 10
2.892 -3.102 2.2809999 10
2.8889999 -3.263 2.2650001 10
2.892 -3.1619999 2.2839999 10
2.8900001 -3.2160001 2.2609999 10
2.8889999 -3.22 2.2590001 10
2.8900001 -3.2019999 2.267 10
2.8889999 -3.24 2.2620001 10
2.891 -3.1619999 2.277 10
2.892 -3.062 2.2750001 10
2.8929999 -3.026 2.277 10
2.891 -3.069 2.2579999 10
2.891 -3.063 2.2579999 10
2.8929999 -3.0480001 2.283 10
2.8900001 -3.2420001 2.27 10
2.8889999 -3.2709999 2.2609999 10
2.891 -3.1789999 2.273 10
2.892 -3.1589999 2.283 10
2.891 -3.0339999 2.2620001 10
2.8929999 -3.0120001 2.2839999 10
2.892 -3.1370001 2.283 10
2.892 -3.1059999 2.2739999 10
2.8929999 -3.0469999 2.283 10
2.891 -3.066 2.2590001 10
2.8900001 -3.1760001 2.26 10
2.892 -3.0179999 2.2720001 10
2.8900001 -3.1800001 2.263 10
2.8900001 -3.2 2.2690001 10
2.8900001 -3.2620001 2.279 10
2.8929999 -3.0799999 2.283 10
2.8900001 -3.1570001 2.263 10
2.8900001 -3.1700001 2.2650001 10
2.892 -3.0179999 2.27 10
2.891 -3.0599999 2.2639999 10
2.898 -2.9170001 2.283 10
3.2939999 -6.7779999 2.2720001 10
3.2939999 -6.8699999 2.2720001 10
3.3139999 -6.724 2.2639999 10
3.3 -6.5799999 2.2690001 10
3.312 -6.7270002 2.2639999 10
3.306 -6.527 2.267 10
3.3210001 -6.7059999 2.2609999 10
3.2950001 -6.527 2.2709999 10
3.293 -6.7709999 2.2720001 10
3.3 -6.6199999 2.2690001 10
3.306 -6.507 2.266 10
3.3150001 -6.5079999 2.263 10
3.322 -6.5170002 2.26 10
3.322 -6.546 2.26 10
3.3180001 -6.579 2.2620001 10
3.2920001 -6.7849998 2.273 10
3.2939999 -6.763 2.2720001 10
3.296 -6.6069999 2.2709999 10
3.3210001 -6.7379999 2.2609999 10
3.3039999 -6.8319998 2.2679999 10
3.335 -6.6059999 2.2550001 10
3.336 -6.6040001 2.2539999 10
3.3099999 -6.6570001 2.2650001 10
3.306 -6.7360001 2.267 10
3.2980001 -6.6500001 2.27 10
3.2969999 -6.5539999 2.27 10
3.3080001 -6.572 2.2650001 10
3.2939999 -6.4879999 2.2709999 10
3.3299999 -6.6880002 2.257 10
3.3169999 -6.5970001 2.2620001 10
3.3080001 -6.79 2.266 10
3.3110001 -6.796 2.2650001 10
3.3069999 -6.8130002 2.267 10
3.293 -6.8080001 2.2720001 10
3.3239999 -6.7010002 2.26 10
3.2920001 -6.7930002 2.273 10
3.3429999 -6.6079998 2.2520001 10
3.2939999 -6.6209998 2.2709999 10
3.3080001 -6.7290001 2.266 10
3.3239999 -6.704 2.26 10
3.309 -6.6350002 2.2650001 10
3.2950001 -6.8140001 2.2709999 10
3.3010001 -6.7249999 2.2690001 10
3.313 -6.5700002 2.263 10
3.2950001 -6.7389998 2.2709999 10
3.3369999 -6.599 2.2539999 10
3.3299999 -6.6079998 2.257 10
3.309 -6.7319999 2.266 10
3.3039999 -6.6389999 2.267 10
3.3239999 -6.5250001 2.26 10
3.3299999 -6.5359998 2.257 10
3.302 -6.6339998 2.2679999 10
3.325 -6.6259999 2.2590001 10
3.335 -6.6020002 2.2550001 10
3.312 -6.7069998 2.2639999 10
3.3050001 -6.54 2.267 10
3.313 -6.6890001 2.2639999 10
3.312 -6.572 2.2639999 10
3.3169999 -6.6900001 2.2620001 10
3.3050001 -6.5100002 2.267 10
3.3299999 -6.5500002 2.257 10
3.2969999 -6.7350001 2.27 10
3.3299999 -6.5440001 2.257 10
3.299 -6.8140001 2.27 10
3.3099999 -6.572 2.2650001 10
3.3050001 -6.4650002 2.267 10
3.293 -6.7709999 2.2720001 10
3.3329999 -6.6160002 2.256 10
3.3050001 -6.5110002 2.267 10
3.3069999 -6.6389999 2.266 10
3.3 -6.4770002 2.2690001 10
3.303 -6.6760001 2.2679999 10
3.3210001 -6.6490002 2.2609999 10
3.3150001 -6.6459999 2.263 10
3.2969999 -6.5089998 2.27 10
3.3069999 -6.8060002 2.267 10
3.3310001 -6.5970001 2.257 10
3.293 -6.5679998 2.2709999 10
3.326 -6.6440001 2.2590001 10
3.2980001 -6.7989998 2.27 10
3.3269999 -6.6680002 2.2579999 10
3.3069999 -6.5999999 2.266 10
3.3139999 -6.6599998 2.263 10
3.313 -6.7680001 2.2639999 10
3.2969999 -6.8579998 2.2709999 10
3.3269999 -6.5539999 2.2579999 10
3.299 -6.855 2.27 10
3.3 -6.4889998 2.2690001 10
3.2969999 -6.8130002 2.2709999 10
3.313 -6.5139999 2.2639999 10
3.3210001 -6.5170002 2.2609999 10
3.309 -6.5250001 2.2650001 10
3.323 -6.5279999 2.26 10
3.2939999 -6.7589998 2.2720001 10
3.313 -6.4920001 2.2639999 10
3.3010001 -6.7030001 2.2690001 10
3.303 -6.5960002 2.2679999 10
3.2969999 -6.6659999 2.27 10
3.323 -6.6869998 2.26 10
3.302 -6.5050001 2.2679999 10
3.3010001 -6.6900001 2.2690001 10
3.325 -6.665 2.2590001 10
3.3340001 -6.638 2.2550001 10
3.2939999 -6.6729999 2.2709999 10
3.312 -6.7810001 2.2650001 10
3.293 -6.7340002 2.2720001 10
3.3310001 -6.5440001 2.257 10
3.309 -6.7800002 2.266 10
3.293 -6.8569999 2.2720001 10
3.302 -6.691 2.2679999 10
3.336 -6.6479998 2.2550001 10
3.3099999 -6.7119999 2.2650001 10
3.2920001 -6.6269999 2.2720001 10
3.3180001 -6.5489998 2.2620001 10
3.293 -6.724 2.2720001 10
3.3039999 -6.5240002 2.267 10
3.3110001 -6.7259998 2.2650001 10
3.3 -6.5419998 2.2690001 10
3.302 -6.6459999 2.2679999 10
3.2980001 -6.671 2.27 10
3.306 -6.6030002 2.266 10
3.3139999 -6.6459999 2.263 10
3.323 -6.6859999 2.26 10
3.306 -6.6570001 2.267 10
3.2969999 -6.6350002 2.27 10
3.3080001 -6.4689999 2.266 10
3.3080001 -6.552 2.266 10
3.2950001 -6.8150001 2.2709999 10
3.2950001 -6.4559999 2.2709999 10
3.2950001 -6.6069999 2.2709999 10
3.316 -6.6040001 2.2620001 10
3.293 -6.7020001 2.2720001 10
3.3299999 -6.698 2.257 10
3.312 -6.5689998 2.2639999 10
3.3150001 -6.698 2.263 10
3.326 -6.5970001 2.2579999 10
3.316 -6.7160001 2.263 10
3.2950001 -6.678 2.2709999 10
3.3 -6.8610001 2.27 10
3.2939999 -6.8660002 2.2720001 10
3.303 -6.5780001 2.2679999 10
3.2920001 -6.8039999 2.273 10
3.3210001 -6.6059999 2.2609999 10
3.3099999 -6.5689998 2.2650001 10
3.3039999 -6.7020001 2.267 10
3.3 -6.6269999 2.2690001 10
3.3 -6.678 2.2690001 10
3.3110001 -6.5040002 2.2650001 10
3.313 -6.7140002 2.2639999 10
3.3399999 -6.6409998 2.253 10
3.2950001 -6.7360001 2.2709999 10
3.3110001 -4.5549998 2.277 10
3.3069999 -4.4970002 2.2809999 10
3.3039999 -4.5120001 2.2839999 10
3.3110001 -4.5110002 2.2780001 10
3.3080001 -4.5580001 2.2809999 10
3.312 -4.5689998 2.277 10
3.309 -4.5650001 2.28 10
3.306 -4.4809999 2.2820001 10
3.3110001 -4.579 2.2780001 10
3.3069999 -4.527 2.2820001 10
3.312 -4.5560002 2.277 10
3.309 -4.4920001 2.279 10
3.3050001 -4.5570002 2.2839999 10
3.3069999 -4.5830002 2.2820001 10
3.3050001 -4.5599999 2.2839999 10
3.2980001 -6.974 2.2750001 10
3.299 -6.9530001 2.273 10
3.2969999 -6.9549999 2.2739999 10
3.2939999 -6.9660001 2.276 10
3.2920001 -6.9569998 2.276 10
3.335 -6.8579998 2.2539999 10
3.3510001 -6.6700001 2.2479999 10
3.348 -6.8639998 2.2490001 10
3.326 -6.8699999 2.2590001 10
3.336 -6.7969999 2.2539999 10
3.3380001 -6.777 2.2539999 10
3.325 -6.7820001 2.2590001 10
3.3069999 -6.8340001 2.267 10
3.336 -6.7080002 2.2550001 10
3.349 -6.717 2.2490001 10
3.3280001 -6.8309999 2.2579999 10
3.3010001 -6.869 2.2690001 10
3.3510001 -6.7820001 2.2479999 10
3.3540001 -6.8330002 2.2460001 10
3.3150001 -6.79 2.263 10
3.329 -6.8309999 2.257 10
3.3369999 -6.8109999 2.2539999 10
3.329 -6.7410002 2.2579999 10
3.3440001 -6.8740001 2.25 10
3.3039999 -6.8670001 2.2679999 10
3.3510001 -6.7909999 2.2479999 10
3.3340001 -6.842 2.2550001 10
3.3310001 -6.717 2.257 10
3.342 -6.7030001 2.2520001 10
3.326 -6.7820001 2.2590001 10
3.339 -6.8390002 2.253 10
3.3039999 -6.8649998 2.2679999 10
3.3440001 -6.6700001 2.2509999 10
3.336 -6.7509999 2.2539999 10
3.3299999 -6.8410001 2.257 10
3.3399999 -6.7379999 2.253 10
3.3110001 -6.8369999 2.2650001 10
3.3340001 -6.8140001 2.2550001 10
3.339 -6.6620002 2.2539999 10
3.3469999 -6.6739998 2.25 10
3.346 -6.7709999 2.25 10
3.348 -6.8590002 2.2490001 10
3.3340001 -6.6929998 2.256 10
3.3329999 -6.8010001 2.256 10
3.3410001 -6.835 2.2520001 10
3.3410001 -6.7979999 2.2520001 10
3.326 -6.842 2.2590001 10
3.312 -6.8169999 2.2650001 10
3.3440001 -6.6539998 2.2509999 10
3.346 -6.723 2.25 10
3.3280001 -6.8449998 2.2579999 10
3.312 -6.835 2.2650001 10
3.352 -6.8610001 2.247 10
3.3369999 -6.7839999 2.2539999 10
3.3180001 -6.7909999 2.2620001 10
3.352 -6.777 2.247 10
3.329 -6.7620001 2.2579999 10
3.346 -6.8740001 2.25 10
3.346 -6.6269999 2.2509999 10
3.342 -6.7080002 2.2520001 10
3.3280001 -6.7600002 2.2579999 10
3.345 -6.6389999 2.2509999 10
3.348 -6.8730001 2.2490001 10
3.309 -6.8579998 2.266 10
3.3269999 -6.7329998 2.2590001 10
3.346 -6.6370001 2.2509999 10
3.3010001 -6.875 2.2690001 10
3.3410001 -6.777 2.2520001 10
3.3440001 -6.7220001 2.2509999 10
3.3429999 -6.7249999 2.2520001 10
3.3299999 -6.7729998 2.257 10
3.3269999 -6.763 2.2579999 10
3.3310001 -6.8070002 2.256 10
3.342 -6.8720002 2.2520001 10
3.325 -6.8439999 2.2590001 10
3.342 -6.6370001 2.2520001 10
3.3069999 -6.8600001 2.267 10
3.348 -6.7820001 2.2490001 10
3.336 -6.7979999 2.2539999 10
3.346 -6.8039999 2.25 10
3.3280001 -6.803 2.2579999 10
3.3239999 -6.8540001 2.26 10
3.3380001 -6.763 2.253 10
3.319 -6.868 2.2620001 10
3.3529999 -6.8730001 2.247 10
3.3110001 -6.835 2.2650001 10
3.3340001 -6.8670001 2.2550001 10
3.355 -6.848 2.2460001 10
3.336 -6.8060002 2.2539999 10
3.3340001 -6.6939998 2.2550001 10
3.348 -6.7319999 2.2490001 10
3.342 -6.2540002 2.2509999 10
3.3469999 -6.369 2.25 10
3.319 -6.4819999 2.2609999 10
3.3410001 -6.3449998 2.2520001 10
3.3299999 -6.3829999 2.257 10
3.352 -6.3699999 2.2479999 10
3.346 -6.3369999 2.25 10
3.348 -6.3839998 2.2490001 10
3.3429999 -6.4060001 2.2509999 10
3.3529999 -6.4749999 2.2479999 10
3.3469999 -6.5830002 2.25 10
3.329 -6.4000001 2.257 10
3.3369999 -6.46 2.2539999 10
3.313 -6.3779998 2.263 10
3.3139999 -6.4359999 2.263 10
3.342 -6.4099998 2.2520001 10
3.323 -6.4359999 2.2590001 10
3.3510001 -6.3010001 2.2479999 10
3.3310001 -6.428 2.256 10
3.3510001 -6.3369999 2.2479999 10
3.329 -6.4699998 2.257 10
3.346 -6.2600002 2.25 10
3.336 -6.3429999 2.2539999 10
3.3180001 -6.349 2.2609999 10
3.3110001 -6.4229999 2.2639999 10
3.348 -6.335 2.2490001 10
3.309 -6.4679999 2.2650001 10
3.3529999 -6.3759999 2.247 10
3.3110001 -6.4060001 2.2639999 10
3.3410001 -6.2690001 2.2520001 10
3.3369999 -6.408 2.2539999 10
3.3340001 -6.4559999 2.2550001 10
3.3299999 -6.3699999 2.256 10
3.322 -6.3569999 2.2590001 10
3.3299999 -6.3639998 2.256 10
3.3329999 -6.5009999 2.256 10
3.336 -6.3870001 2.2539999 10
3.339 -6.2659998 2.2520001 10
3.335 -6.4850001 2.2550001 10
3.336 -6.4260001 2.2539999 10
3.339 -6.52 2.253 10
3.3399999 -6.4169998 2.253 10
3.336 -6.4660001 2.2539999 10
3.3069999 -6.4590001 2.266 10
3.3440001 -6.27 2.2509999 10
3.325 -6.4879999 2.2590001 10
3.346 -6.5040002 2.2509999 10
3.3299999 -6.3759999 2.256 10
3.3499999 -6.408 2.2479999 10
3.332 -6.5180001 2.256 10
3.346 -6.362 2.25 10
3.3329999 -6.3699999 2.2550001 10
3.3180001 -6.4180002 2.2609999 10
3.3510001 -6.198 2.247 10
3.3499999 -6.2680001 2.2479999 10
3.3380001 -6.4749999 2.2539999 10
3.3369999 -6.4850001 2.2539999 10
3.3329999 -6.414 2.2550001 10
3.345 -6.2750001 2.25 10
3.3210001 -6.3990002 2.26 10
3.348 -6.4089999 2.2490001 10
3.3080001 -6.4310002 2.2650001 10
3.346 -6.4359999 2.25 10
3.342 -6.5560002 2.2520001 10
3.3529999 -6.2020001 2.247 10
3.3440001 -6.447 2.2509999 10
3.3280001 -6.5120001 2.2579999 10
3.348 -6.4359999 2.25 10
3.339 -6.4809999 2.253 10
3.3139999 -6.4120002 2.263 10
3.3340001 -6.27 2.2539999 10
3.329 -6.283 2.256 10
3.329 -6.322 2.257 10
3.345 -6.5500002 2.2509999 10
3.3299999 -6.52 2.257 10
3.352 -6.402 2.2479999 10
3.346 -6.3070002 2.25 10
3.3169999 -6.4439998 2.2620001 10
3.3039999 -6.4229999 2.267 10
3.3080001 -6.4530001 2.2650001 10
3.3299999 -6.3140001 2.256 10
3.3239999 -6.3270001 2.2579999 10
3.323 -6.3210001 2.2590001 10
3.346 -6.3280001 2.25 10
3.3099999 -6.4530001 2.2650001 10
3.352 -6.2909999 2.247 10
3.346 -6.5250001 2.2509999 10
3.3369999 -6.3080001 2.253 10
3.335 -6.5250001 2.2550001 10
3.323 -6.454 2.2590001 10
3.3180001 -6.415 2.2609999 10
3.3529999 -6.4169998 2.2479999 10
3.3440001 -6.427 2.2509999 10
3.335 -6.4770002 2.2550001 10
3.303 -6.4400001 2.267 10
3.326 -6.3850002 2.2579999 10
3.3050001 -6.4089999 2.266 10
3.319 -6.3800001 2.2609999 10
3.352 -6.4000001 2.2479999 10
3.3469999 -6.2420001 2.2490001 10
3.3239999 -6.4949999 2.2590001 10
3.339 -6.4050002 2.253 10
3.342 -6.4039998 2.2520001 10
3.3540001 -6.224 2.2460001 10
3.3150001 -6.348 2.2620001 10
3.312 -6.381 2.263 10
3.345 -6.342 2.25 10
3.355 -6.3210001 2.2460001 10
3.342 -6.5549998 2.2520001 10
3.3469999 -6.3239999 2.2490001 10
3.3329999 -6.5029998 2.256 10
3.326 -6.4190001 2.2579999 10
3.352 -6.4369998 2.2479999 10
3.3540001 -6.3270001 2.247 10
3.3299999 -6.2969999 2.256 10
3.313 -6.4299998 2.263 10
3.312 -6.4679999 2.2639999 10
3.345 -6.5619998 2.2509999 10
3.3540001 -6.1999998 2.2460001 10
3.3380001 -6.401 2.253 10
3.3169999 -6.4720001 2.2620001 10
3.346 -6.421 2.25 10
3.322 -6.3319998 2.2590001 10
3.3540001 -6.244 2.2460001 10
3.3329999 -6.3470001 2.2550001 10
3.329 -6.4089999 2.257 10
3.336 -6.3330002 2.2539999 10
3.355 -6.2150002 2.2460001 10
3.3510001 -6.4910002 2.2490001 10
3.355 -6.2090001 2.2460001 10
3.352 -6.4790001 2.2479999 10
3.3410001 -6.4320002 2.2520001 10
3.3469999 -6.4380002 2.25 10
3.3380001 -6.507 2.2539999 10
3.352 -6.3390002 2.2479999 10
3.3280001 -6.5209999 2.2579999 10
3.3180001 -6.2610002 2.2609999 10
3.2969999 -6.2319999 2.2709999 10
3.312 -6.289 2.2639999 10
3.3399999 -6.2290001 2.2520001 10
3.3010001 -6.3169999 2.2679999 10
3.312 -6.3109999 2.2639999 10
3.2969999 -6.3000002 2.27 10
3.3440001 -6.2069998 2.2509999 10
3.312 -6.2129998 2.2650001 10
3.3429999 -6.1929998 2.2509999 10
3.306 -6.3070002 2.266 10
3.3199999 -6.2340002 2.2609999 10
3.313 -6.2950001 2.2639999 10
3.296 -6.3759999 2.2709999 10
3.3410001 -6.2140002 2.2520001 10
3.2950001 -6.3889999 2.2709999 10
3.326 -6.2270002 2.2579999 10
3.322 -6.2849998 2.2590001 10
3.3110001 -6.3299999 2.2639999 10
3.313 -6.3099999 2.263 10
3.3440001 -6.1789999 2.25 10
3.3099999 -6.3070002 2.2650001 10
3.3180001 -6.2080002 2.2620001 10
3.2969999 -6.3200002 2.27 10
3.3169999 -6.3140001 2.2620001 10
3.3410001 -6.2329998 2.2520001 10
3.345 -6.204 2.25 10
3.326 -6.1960001 2.2579999 10
3.3139999 -6.2389998 2.263 10
3.2950001 -6.2940001 2.2709999 10
3.3199999 -6.2399998 2.2609999 10
3.2950001 -6.316 2.2709999 10
3.2980001 -6.4039998 2.2690001 10
3.306 -6.256 2.267 10
3.3069999 -6.2719998 2.266 10
3.3239999 -6.2470002 2.2590001 10
3.3310001 -6.2410002 2.256 10
3.2969999 -6.2280002 2.2709999 10
3.2969999 -6.3990002 2.27 10
3.3139999 -6.2849998 2.263 10
3.3299999 -6.2540002 2.256 10
3.3169999 -6.2800002 2.2620001 10
3.2980001 -6.2249999 2.27 10
3.329 -6.1929998 2.257 10
3.2980001 -6.2270002 2.27 10
3.319 -6.2329998 2.2609999 10
3.299 -6.3649998 2.2690001 10
3.3210001 -6.2459998 2.26 10
3.3239999 -6.2800002 2.2590001 10
3.322 -6.2160001 2.26 10
3.3150001 -6.2470002 2.263 10
3.323 -6.257 2.2590001 10
3.3169999 -6.2859998 2.2620001 10
3.309 -6.2399998 2.2650001 10
3.3 -6.289 2.2690001 10
3.2969999 -6.3000002 2.27 10
3.335 -6.217 2.2539999 10
3.3180001 -6.2600002 2.2620001 10
3.296 -6.2420001 2.2709999 10
3.3080001 -6.2350001 2.266 10
3.326 -6.2540002 2.2579999 10
3.3299999 -6.276 2.256 10
3.3010001 -6.2480001 2.2690001 10
3.312 -6.2189999 2.2639999 10
3.322 -6.2670002 2.26 10
3.2980001 -6.342 2.27 10
3.3239999 -6.2309999 2.2590001 10
3.3199999 -6.2379999 2.2609999 10
3.3239999 -6.256 2.2590001 10
3.3180001 -6.2529998 2.2609999 10
3.3510001 -6.1680002 2.2479999 10
3.336 -6.145 2.2550001 10
3.3 -6.2140002 2.2690001 10
3.3069999 -6.099 2.2709999 10
3.299 -6.1830001 2.2709999 10
3.349 -6.1700001 2.2490001 10
3.3010001 -6.1810002 2.27 10
3.313 -6.1999998 2.2639999 10
3.2980001 -6.1900001 2.2720001 10
3.3 -6.1890001 2.2709999 10
3.352 -6.164 2.247 10
3.303 -6.0840001 2.273 10
3.312 -6.197 2.2650001 10
3.2980001 -6.1420002 2.273 10
3.349 -6.1700001 2.2479999 10
3.3369999 -6.1550002 2.2550001 10
3.3080001 -6.1389999 2.2690001 10
3.3329999 -6.1750002 2.256 10
3.3369999 -6.1630001 2.2539999 10
3.326 -6.1630001 2.2590001 10
3.325 -6.1849999 2.2590001 10
3.3069999 -6.1079998 2.27 10
3.335 -6.152 2.256 10
3.3410001 -6.178 2.2520001 10
3.2980001 -6.1139998 2.2739999 10
3.299 -6.1789999 2.2720001 10
3.3180001 -6.1500001 2.2639999 10
3.3080001 -6.1659999 2.2679999 10
3.3069999 -6.125 2.27 10
3.349 -6.165 2.2490001 10
3.3080001 -6.1069999 2.27 10
3.339 -6.1490002 2.2539999 10
3.3110001 -6.1059999 2.2690001 10
3.299 -6.152 2.2720001 10
3.3329999 -6.1630001 2.256 10
3.296 -6.158 2.2739999 10
3.3169999 -6.1430001 2.2650001 10
3.2950001 -6.1960001 2.2720001 10
3.3269999 -6.1560001 2.26 10
3.3239999 -6.1950002 2.2590001 10
3.3139999 -6.1620002 2.2650001 10
3.3210001 -6.1420002 2.263 10
3.339 -6.1700001 2.253 10
3.3080001 -6.198 2.266 10
3.306 -6.1500001 2.2690001 10
3.2969999 -6.1799998 2.2720001 10
3.2950001 -6.1110001 2.276 10
3.342 -6.177 2.2509999 10
3.296 -6.1469998 2.2739999 10
3.3080001 -6.1929998 2.267 10
3.3050001 -6.178 2.2690001 10
3.3180001 -6.059 2.2650001 10
3.306 -6.0320001 2.2720001 10
3.3169999 -6.0289998 2.266 10
3.3099999 -6.053 2.27 10
3.3110001 -6.0669999 2.2690001 10
3.3150001 -6.086 2.267 10
3.3139999 -6.0279999 2.2679999 10
3.303 -5.961 2.273 10
3.3050001 -6.0510001 2.2720001 10
3.3150001 -6.0440001 2.267 10
3.3239999 -6.0929999 2.2620001 10
3.3150001 -6.0819998 2.267 10
3.3169999 -6.0609999 2.266 10
3.302 -6.0219998 2.2739999 10
3.3269999 -6.059 2.2609999 10
3.2969999 -6.0630002 2.276 10
3.3180001 -6.0760002 2.266 10
3.3050001 -6.0580001 2.2720001 10
3.302 -6.0170002 2.2739999 10
3.335 -6.0970001 2.256 10
3.326 -6.0770001 2.2609999 10
3.312 -5.994 2.2690001 10
3.326 -6.1030002 2.2609999 10
3.326 -6.0770001 2.2609999 10
3.2969999 -6.0279999 2.276 10
3.2980001 -6.0240002 2.276 10
3.302 -5.9959998 2.2739999 10
3.3180001 -6.0149999 2.266 10
3.3210001 -6.0149999 2.2639999 10
3.339 -6.098 2.2539999 10
3.3310001 -6.0960002 2.2590001 10
3.313 -5.9910002 2.2679999 10
3.3510001 -6.1430001 2.2479999 10
3.336 -6.1240001 2.256 10
3.3099999 -5.9809999 2.27 10
3.3110001 -6.0580001 2.2690001 10
3.3110001 -5.9980001 2.2690001 10
3.3199999 -6.0580001 2.2639999 10
3.3269999 -6.0539999 2.2609999 10
3.3199999 -6.0320001 2.2650001 10
3.3050001 -6.0580001 2.2720001 10
3.3150001 -5.9920001 2.267 10
3.299 -6.02 2.2750001 10
3.329 -6.0999999 2.26 10
3.342 -6.112 2.253 10
3.3429999 -6.1110001 2.253 10
3.3469999 -6.1339998 2.25 10
3.3039999 -6.0760002 2.273 10
3.3410001 -6.1009998 2.253 10
3.3440001 -6.1079998 2.2520001 10
3.3099999 -5.9710002 2.27 10
3.3010001 -6.0770001 2.2739999 10
3.3150001 -6.079 2.267 10
3.3340001 -6.0679998 2.257 10
3.3050001 -5.947 2.2720001 10
3.3010001 -5.9439998 2.2739999 10
3.3150001 -5.9809999 2.267 10
3.306 -6.0630002 2.2720001 10
3.316 -6.0359998 2.266 10
3.3469999 -6.1300001 2.25 10
3.3150001 -6.007 2.267 10
3.3559999 -5.691 2.2449999 10
3.312 -5.9120002 2.2690001 10
3.352 -6.0450001 2.247 10
3.3180001 -5.9180002 2.2650001 10
3.346 -5.8249998 2.2509999 10
3.352 -6.059 2.2479999 10
3.312 -5.8740001 2.2690001 10
3.342 -5.7600002 2.253 10
3.316 -5.895 2.266 10
3.3340001 -5.658 2.257 10
3.3399999 -5.8860002 2.2539999 10
3.348 -5.7470002 2.25 10
3.355 -6.0689998 2.2460001 10
3.335 -5.862 2.256 10
3.3410001 -5.7340002 2.253 10
3.3559999 -5.823 2.2449999 10
3.345 -6.0370002 2.2509999 10
3.3099999 -5.8899999 2.27 10
3.339 -6.0219998 2.2550001 10
3.3529999 -5.5419998 2.247 10
3.319 -5.914 2.2650001 10
3.332 -5.9390001 2.2579999 10
3.339 -5.9359999 2.2550001 10
3.3559999 -6.1550002 2.2460001 10
3.325 -5.8600001 2.2620001 10
3.3080001 -5.8850002 2.2709999 10
3.3510001 -5.9829998 2.2479999 10
3.3499999 -5.9549999 2.2490001 10
3.3469999 -5.5760002 2.25 10
3.3199999 -5.9109998 2.2639999 10
3.3529999 -5.704 2.247 10
3.3310001 -6.0089998 2.2590001 10
3.3570001 -5.928 2.2449999 10
3.358 -5.652 2.2449999 10
3.3280001 -5.7540002 2.26 10
3.312 -5.9250002 2.2690001 10
3.342 -5.8709998 2.253 10
3.323 -5.9790001 2.263 10
3.346 -5.8070002 2.2509999 10
3.3280001 -5.7470002 2.26 10
3.3199999 -5.8930001 2.2639999 10
3.3529999 -5.6440001 2.247 10
3.3440001 -5.809 2.2520001 10
3.3329999 -5.7129998 2.257 10
3.3010001 -5.914 2.2750001 10
3.3499999 -5.9330001 2.2490001 10
3.309 -5.8260002 2.27 10
3.346 -5.7210002 2.2509999 10
3.332 -5.9219999 2.2579999 10
3.3329999 -5.796 2.257 10
3.3369999 -6.0560002 2.2550001 10
3.355 -5.678 2.2460001 10
3.3559999 -5.5760002 2.2449999 10
