# .PCD v0.7 - Point Cloud Data file format
VERSION 0.7
FIELDS x y z label
SIZE 4 4 4 4
TYPE F F F U
COUNT 1 1 1 1
WIDTH 1548
HEIGHT 1
VIEWPOINT 0 0 0 1 0 0 0
POINTS 1548
DATA ascii
9.8879995 -5.2480001 2.112 10
9.9239998 -5.5469999 2.1059999 10
9.9370003 -5.0320001 2.1059999 10
9.9329996 -5.3660002 2.1059999 10
9.901 -5.23 2.1110001 10
9.8830004 -5.2969999 2.1129999 10
9.9060001 -5.1989999 2.1099999 10
9.9259996 -5.3080001 2.1070001 10
9.8660002 -5.2740002 2.115 10
9.8859997 -5.4949999 2.112 10
9.9040003 -5.4390001 2.109 10
9.9420004 -5.533 2.1040001 10
9.8909998 -5.487 2.1110001 10
9.9029999 -5.3629999 2.1099999 10
9.8870001 -5.3439999 2.112 10
9.9209995 -5.369 2.1070001 10
9.9259996 -5.52 2.1059999 10
9.9320002 -5.2820001 2.1059999 10
9.875 -5.3740001 2.1140001 10
9.8599997 -5.3759999 2.1159999 10
9.9289999 -5.5650001 2.105 10
9.9020004 -5.5339999 2.109 10
9.8800001 -5.2529998 2.1129999 10
9.9060001 -5.1269999 2.1099999 10
9.9329996 -5.4000001 2.105 10
9.9119997 -5.2919998 2.109 10
9.9169998 -5.184 2.109 10
9.9280005 -5.4650002 2.1059999 10
9.9429998 -5.559 2.1029999 10
9.8769999 -5.2779999 2.1140001 10
9.8769999 -5.369 2.1129999 10
9.9379997 -5.598 2.1040001 10
9.9099998 -5.2119999 2.109 10
9.9289999 -5.3210001 2.1059999 10
9.9390001 -5.3639998 2.105 10
9.9449997 -5.4749999 2.1040001 10
9.9090004 -5.3499999 2.109 10
9.8739996 -5.3169999 2.1140001 10
9.9379997 -5.2820001 2.105 10
9.9429998 -5.1090002 2.105 10
9.8879995 -5.1069999 2.1129999 10
9.8599997 -5.2579999 2.1159999 10
9.8760004 -5.1719999 2.1140001 10
9.9090004 -5.1139998 2.1099999 10
9.9309998 -5.039 2.1070001 10
9.8739996 -5.1420002 2.1140001 10
9.8809996 -5.0869999 2.1140001 10
9.8699999 -5.1570001 2.115 10
9.875 -5.1409998 2.1140001 10
9.9219999 -5.052 2.108 10
9.8660002 -5.2490001 2.115 10
9.9359999 -5.006 2.1059999 10
9.882 -5.1500001 2.1129999 10
9.8660002 -5.1760001 2.115 10
9.9130001 -5.0510001 2.109 10
9.8730001 -5.204 2.115 10
9.8620005 -5.1609998 2.1159999 10
9.8599997 -5.1139998 2.1159999 10
9.8710003 -5.1009998 2.115 10
9.8660002 -5.1479998 2.115 10
9.8789997 -5.1009998 2.1140001 10
9.875 -5.1890001 2.1140001 10
9.8640003 -5.2210002 2.1159999 10
9.9259996 -5.0240002 2.108 10
9.8940001 -5.1290002 2.112 10
9.8710003 -5.1830001 2.115 10
9.8610001 -5.1680002 2.1159999 10
9.868 -5.2459998 2.115 10
9.8830004 -5.0939999 2.1129999 10
9.8690004 -5.1789999 2.115 10
9.8669996 -5.1420002 2.115 10
9.9090004 -5.0560002 2.1099999 10
9.8640003 -5.1700001 2.1159999 10
9.9169998 -5.053 2.109 10
9.8590002 -5.1279998 2.1159999 10
9.8629999 -5.119 2.1159999 10
9.8889999 -5.152 2.112 10
9.8730001 -5.2280002 2.1140001 10
9.8649998 -5.112 2.1159999 10
9.8699999 -5.2119999 2.115 10
9.8979998 -5.112 2.1110001 10
9.875 -5.2049999 2.1140001 10
9.8870001 -5.0700002 2.1129999 10
9.8839998 -5.1030002 2.1129999 10
9.9099998 -5.0619998 2.1099999 10
9.8979998 -5.0799999 2.1110001 10
9.875 -5.2010002 2.1140001 10
9.915 -5.053 2.109 10
9.8629999 -5.152 2.1159999 10
9.8570004 -5.1300001 2.1170001 10
9.8570004 -5.263 2.1170001 10
9.8830004 -5.0799999 2.1129999 10
9.8909998 -5.1209998 2.112 10
9.8579998 -5.2659998 2.1159999 10
9.9090004 -5.0440001 2.1099999 10
9.8999996 -5.099 2.1110001 10
9.9250002 -5.0440001 2.108 10
9.8830004 -5.1290002 2.1129999 10
9.8669996 -5.099 2.115 10
9.8579998 -5.1269999 2.1159999 10
9.8809996 -5.1999998 2.1129999 10
9.8590002 -5.2020001 2.1159999 10
9.8769999 -5.1040001 2.1140001 10
9.9130001 -5.0570002 2.109 10
9.9049997 -5.1059999 2.1099999 10
9.8909998 -5.0890002 2.112 10
9.8690004 -5.2270002 2.115 10
9.8970003 -5.112 2.1110001 10
9.9219999 -5.0679998 2.108 10
9.8590002 -5.2600002 2.1159999 10
9.8730001 -5.1479998 2.115 10
9.8780003 -5.2030001 2.1140001 10
9.9250002 -5.0370002 2.108 10
9.8690004 -5.1220002 2.115 10
9.8599997 -5.1490002 2.1159999 10
9.868 -5.2340002 2.115 10
9.8950005 -5.0510001 2.112 10
9.8870001 -4.9959998 2.1129999 10
9.9139996 -4.9899998 2.1099999 10
9.8760004 -4.9860001 2.115 10
9.8950005 -4.967 2.112 10
9.8660002 -5.0609999 2.1159999 10
9.8870001 -5.0149999 2.1129999 10
9.9139996 -5.0110002 2.109 10
9.8590002 -4.9959998 2.1170001 10
9.8830004 -4.9840002 2.1140001 10
9.875 -4.9569998 2.115 10
9.8719997 -5.0469999 2.115 10
9.8579998 -5.099 2.1170001 10
9.8620005 -5.0890002 2.1159999 10
9.9359999 -4.9829998 2.1070001 10
9.8599997 -5.04 2.1170001 10
9.8620005 -4.9980001 2.1170001 10
9.868 -5.079 2.115 10
9.8660002 -4.9780002 2.1159999 10
9.8879995 -4.9559999 2.1129999 10
9.8599997 -5.0819998 2.1159999 10
9.8990002 -4.9619999 2.112 10
9.9029999 -4.9749999 2.1110001 10
9.8629999 -5.0689998 2.1159999 10
9.908 -4.9689999 2.1099999 10
9.8990002 -4.9590001 2.112 10
9.868 -4.9949999 2.1159999 10
9.9099998 -4.973 2.1099999 10
9.8929996 -5.0149999 2.112 10
9.8579998 -5.0960002 2.1159999 10
9.8660002 -4.974 2.1159999 10
9.8870001 -5.0599999 2.1129999 10
9.9180002 -5.007 2.109 10
9.8570004 -5.0479999 2.1170001 10
9.8889999 -5.0640001 2.112 10
9.8690004 -5.0619998 2.115 10
9.8579998 -4.9770002 2.1170001 10
9.8730001 -4.948 2.115 10
9.8579998 -5.1059999 2.1159999 10
9.8850002 -5.0310001 2.1129999 10
9.8780003 -5.0339999 2.1140001 10
9.9239998 -4.9770002 2.108 10
9.9250002 -5.0170002 2.108 10
9.8649998 -4.9809999 2.1159999 10
9.8990002 -5.0120001 2.1110001 10
9.9160004 -4.9780002 2.109 10
9.9110003 -4.9819999 2.1099999 10
9.8800001 -5.0419998 2.1140001 10
9.9420004 -4.9899998 2.1059999 10
9.8940001 -5.0479999 2.112 10
9.8590002 -5.105 2.1159999 10
9.8649998 -5.072 2.1159999 10
9.8710003 -4.9530001 2.1159999 10
9.8579998 -4.9580002 2.1170001 10
9.8800001 -4.9530001 2.1140001 10
9.901 -5.007 2.1110001 10
9.8640003 -5.0019999 2.1159999 10
9.8760004 -4.9650002 2.115 10
9.9320002 -4.9790001 2.1070001 10
9.8590002 -5.052 2.1170001 10
9.8959999 -4.954 2.112 10
9.9230003 -5.0120001 2.108 10
9.8710003 -4.994 2.115 10
9.8570004 -5.0910001 2.1170001 10
9.868 -5.0450001 2.115 10
9.9029999 -4.994 2.1110001 10
9.8809996 -4.9920001 2.1140001 10
9.8719997 -5.0050001 2.115 10
9.8979998 -5.0479999 2.1110001 10
9.8599997 -4.993 2.1170001 10
9.8909998 -5.0089998 2.1129999 10
9.8719997 -4.9489999 2.115 10
9.9119997 -4.9660001 2.1099999 10
9.8710003 -4.9780002 2.115 10
9.8599997 -5.0209999 2.1170001 10
9.9020004 -4.974 2.1110001 10
9.9049997 -5.0029998 2.1110001 10
9.8590002 -5.0149999 2.1170001 10
9.9099998 -4.9879999 2.1099999 10
9.9119997 -5.027 2.1099999 10
9.8719997 -5.0009999 2.115 10
9.8669996 -4.9489999 2.1159999 10
9.8809996 -4.9460001 2.1140001 10
9.9160004 -5.0040002 2.109 10
9.9219999 -4.9980001 2.108 10
9.8979998 -4.7979999 2.112 10
9.9160004 -4.7119999 2.1099999 10
9.9379997 -4.8249998 2.1070001 10
9.9259996 -4.869 2.108 10
9.941 -4.6079998 2.108 10
9.941 -4.5570002 2.108 10
9.9370003 -4.7220001 2.108 10
9.915 -4.869 2.1099999 10
9.915 -4.6479998 2.1110001 10
9.8610001 -4.855 2.1170001 10
9.8879995 -4.8579998 2.1140001 10
9.9250002 -4.947 2.108 10
9.9420004 -4.6919999 2.1070001 10
9.9090004 -4.8670001 2.1110001 10
9.901 -4.7930002 2.112 10
9.941 -4.763 2.1070001 10
9.934 -4.6409998 2.108 10
9.9060001 -4.7129998 2.112 10
9.901 -4.914 2.112 10
9.8769999 -4.835 2.115 10
9.8909998 -4.9369998 2.1129999 10
9.8599997 -4.9239998 2.1170001 10
9.8839998 -4.8699999 2.1140001 10
9.9300003 -4.7140002 2.108 10
9.9300003 -4.618 2.109 10
9.9169998 -4.7350001 2.1099999 10
9.927 -4.5970001 2.109 10
9.9259996 -4.875 2.108 10
9.875 -4.776 2.1159999 10
9.9309998 -4.8449998 2.108 10
9.9300003 -4.7979999 2.108 10
9.934 -4.6500001 2.108 10
9.8809996 -4.9380002 2.1140001 10
9.882 -4.915 2.1140001 10
9.8719997 -4.7810001 2.1159999 10
9.9429998 -4.7129998 2.1070001 10
9.8789997 -4.7449999 2.115 10
9.9309998 -4.6040001 2.109 10
9.9160004 -4.8870001 2.1099999 10
9.8940001 -4.8569999 2.1129999 10
9.8839998 -4.9029999 2.1140001 10
9.9110003 -4.796 2.1110001 10
9.9379997 -4.9590001 2.1059999 10
9.8570004 -4.8959999 2.118 10
9.9090004 -4.7059999 2.1110001 10
9.8690004 -4.927 2.1159999 10
9.9180002 -4.796 2.1099999 10
9.9219999 -4.7259998 2.109 10
9.8900003 -4.809 2.1140001 10
9.9429998 -4.7789998 2.1059999 10
9.9209995 -4.9359999 2.109 10
9.9460001 -4.8839998 2.1059999 10
9.901 -4.8470001 2.112 10
9.9390001 -4.915 2.1059999 10
9.9320002 -4.8010001 2.108 10
9.9399996 -4.7199998 2.1070001 10
9.9139996 -4.8429999 2.1099999 10
9.868 -4.8309999 2.1159999 10
9.8710003 -4.8509998 2.1159999 10
9.8760004 -4.9109998 2.115 10
9.9449997 -4.9619999 2.105 10
9.9399996 -4.5869999 2.108 10
9.8850002 -4.8200002 2.1140001 10
9.8699999 -4.8769999 2.1159999 10
9.9370003 -4.7049999 2.108 10
9.8629999 -4.7989998 2.1170001 10
9.901 -4.9050002 2.112 10
9.8950005 -4.822 2.1129999 10
9.927 -4.8000002 2.109 10
9.915 -4.6370001 2.1110001 10
9.8959999 -4.8319998 2.1129999 10
9.8739996 -4.902 2.115 10
9.9420004 -4.665 2.1070001 10
9.9429998 -4.9819999 2.1059999 10
9.9239998 -4.7909999 2.109 10
9.875 -4.8660002 2.115 10
9.8940001 -4.921 2.112 10
9.8979998 -4.7480001 2.1129999 10
9.9379997 -4.9780002 2.1059999 10
9.9300003 -4.8530002 2.108 10
9.9189997 -4.9400001 2.109 10
9.9239998 -4.8150001 2.109 10
9.9309998 -4.9070001 2.108 10
9.9200001 -4.7059999 2.1099999 10
9.941 -4.8039999 2.1070001 10
9.9130001 -4.7779999 2.1099999 10
9.9399996 -4.6880002 2.1070001 10
9.9189997 -4.7049999 2.1099999 10
9.9029999 -4.6729999 2.112 10
9.9160004 -4.9120002 2.1099999 10
9.9399996 -4.8769999 2.1059999 10
9.8710003 -4.8319998 2.1159999 10
9.9309998 -4.6009998 2.109 10
9.8909998 -4.7519999 2.1140001 10
9.9440002 -4.7610002 2.1059999 10
9.9169998 -4.7410002 2.1099999 10
9.9259996 -4.974 2.108 10
9.9230003 -4.684 2.1099999 10
9.9390001 -4.7680001 2.1070001 10
9.8640003 -4.849 2.1170001 10
9.8629999 -4.9050002 2.1170001 10
9.8900003 -4.9039998 2.1129999 10
9.8920002 -4.8439999 2.1129999 10
9.9040003 -4.7870002 2.112 10
9.9069996 -4.6830001 2.112 10
9.9280005 -4.691 2.109 10
9.9139996 -4.8899999 2.1099999 10
9.8999996 -4.678 2.1129999 10
9.9259996 -4.868 2.108 10
9.8900003 -4.9200001 2.1129999 10
9.901 -4.7389998 2.112 10
9.9099998 -4.744 2.1110001 10
9.9090004 -4.7129998 2.1110001 10
9.9060001 -4.9109998 2.1110001 10
9.9250002 -4.842 2.109 10
9.9110003 -4.6630001 2.1110001 10
9.8920002 -4.8119998 2.1129999 10
9.8850002 -4.8429999 2.1140001 10
9.9060001 -4.7810001 2.1110001 10
9.9130001 -4.8039999 2.1099999 10
9.8730001 -4.908 2.115 10
9.9289999 -4.586 2.109 10
9.8780003 -4.9320002 2.115 10
9.9259996 -4.75 2.109 10
9.9130001 -4.7849998 2.1099999 10
9.8789997 -4.7779999 2.115 10
9.9099998 -4.7329998 2.1110001 10
9.927 -4.9109998 2.108 10
9.9420004 -4.8579998 2.1059999 10
9.8570004 -4.8189998 2.118 10
9.9289999 -4.934 2.108 10
9.8730001 -4.8309999 2.1159999 10
9.9189997 -4.7969999 2.1099999 10
9.8850002 -4.8499999 2.1140001 10
9.9350004 -4.7449999 2.108 10
9.8940001 -4.8509998 2.1129999 10
9.9020004 -4.7309999 2.112 10
9.9180002 -4.6570001 2.1099999 10
9.8570004 -4.8309999 2.118 10
9.9230003 -4.7329998 2.109 10
9.901 -4.7989998 2.112 10
9.9320002 -4.612 2.109 10
9.9460001 -4.8930001 2.1059999 10
9.9180002 -4.7129998 2.1099999 10
9.8929996 -4.7940001 2.1129999 10
9.9300003 -4.7690001 2.108 10
9.8999996 -4.809 2.112 10
9.915 -4.7789998 2.1099999 10
9.9020004 -4.776 2.112 10
9.9309998 -4.5929999 2.109 10
9.9359999 -4.8940001 2.1070001 10
9.9060001 -4.677 2.112 10
9.9160004 -4.6399999 2.1110001 10
9.9379997 -4.7129998 2.1070001 10
9.9139996 -4.803 2.1099999 10
9.9399996 -4.8969998 2.1059999 10
9.8780003 -4.8670001 2.115 10
9.882 -4.9159999 2.1140001 10
9.9029999 -4.7399998 2.112 10
9.9329996 -4.816 2.108 10
9.9379997 -4.7519999 2.1070001 10
9.9440002 -4.743 2.1059999 10
9.9130001 -4.96 2.1099999 10
9.9399996 -4.8340001 2.1070001 10
9.8620005 -4.8449998 2.1170001 10
9.9329996 -4.7859998 2.108 10
9.8959999 -4.7480001 2.1129999 10
9.8909998 -4.8889999 2.1129999 10
9.8999996 -4.9099998 2.112 10
9.9219999 -4.717 2.1099999 10
9.8570004 -4.8460002 2.118 10
9.8970003 -4.8600001 2.112 10
9.9399996 -4.7470002 2.1070001 10
9.9370003 -4.8039999 2.1070001 10
9.9110003 -4.9460001 2.1099999 10
9.9259996 -4.8800001 2.108 10
9.9370003 -4.868 2.1070001 10
9.9189997 -4.8740001 2.109 10
9.927 -4.7069998 2.109 10
9.9040003 -4.7179999 2.112 10
9.9069996 -4.7610002 2.1110001 10
9.941 -4.9369998 2.1059999 10
9.9160004 -4.6820002 2.1110001 10
9.8900003 -4.717 2.1140001 10
9.8590002 -4.9229999 2.1170001 10
9.9460001 -4.8940001 2.1059999 10
9.8719997 -4.9250002 2.1159999 10
9.9119997 -4.7020001 2.1110001 10
9.8859997 -4.829 2.1140001 10
9.9420004 -4.934 2.1059999 10
9.8710003 -4.8000002 2.1159999 10
9.9239998 -4.9460001 2.108 10
9.8699999 -4.796 2.1159999 10
9.9020004 -4.9400001 2.1110001 10
9.8620005 -4.8920002 2.1170001 10
9.9350004 -4.744 2.108 10
9.8769999 -4.7740002 2.115 10
9.9209995 -4.6469998 2.1099999 10
9.8809996 -4.7379999 2.115 10
9.8950005 -4.9400001 2.112 10
9.9359999 -4.98 2.1059999 10
9.9399996 -4.763 2.1070001 10
9.9239998 -4.9029999 2.108 10
9.915 -4.77 2.1099999 10
9.9320002 -4.915 2.1070001 10
9.9320002 -4.783 2.108 10
9.9329996 -4.947 2.1070001 10
9.9200001 -4.9320002 2.109 10
9.8889999 -4.8249998 2.1140001 10
9.9379997 -4.9349999 2.1059999 10
9.8780003 -4.901 2.115 10
9.9300003 -4.9219999 2.108 10
9.9379997 -4.8860002 2.1070001 10
9.8979998 -4.9200001 2.112 10
9.8599997 -4.8509998 2.1170001 10
9.941 -4.8189998 2.1070001 10
9.8760004 -4.8099999 2.115 10
9.908 -4.6810002 2.112 10
9.9099998 -4.7800002 2.1110001 10
9.9320002 -4.777 2.108 10
9.8900003 -4.8270001 2.1129999 10
9.882 -4.7729998 2.115 10
9.9390001 -4.947 2.1059999 10
9.9200001 -4.9590001 2.109 10
9.9209995 -4.8969998 2.109 10
9.9449997 -4.7989998 2.1059999 10
9.9399996 -4.579 2.108 10
9.8879995 -4.777 2.1140001 10
9.8590002 -4.8130002 2.118 10
9.9119997 -4.8189998 2.1099999 10
9.901 -4.862 2.112 10
9.8859997 -4.75 2.1140001 10
9.8739996 -4.888 2.115 10
9.9350004 -4.6869998 2.108 10
9.8579998 -4.8390002 2.118 10
9.9130001 -4.9549999 2.1099999 10
9.8920002 -4.8800001 2.1129999 10
9.9119997 -4.9039998 2.1099999 10
9.9289999 -4.7880001 2.108 10
9.8850002 -4.7919998 2.1140001 10
9.8889999 -4.7659998 2.1140001 10
9.9359999 -4.7280002 2.108 10
9.8599997 -4.8130002 2.118 10
9.9029999 -4.757 2.112 10
9.8780003 -4.8460002 2.115 10
9.8990002 -4.934 2.112 10
9.8909998 -4.927 2.1129999 10
9.8830004 -4.8740001 2.1140001 10
9.9250002 -4.8369999 2.109 10
9.8929996 -4.9460001 2.1129999 10
9.9049997 -4.8000002 2.112 10
9.934 -4.7979999 2.108 10
9.8970003 -4.6919999 2.1129999 10
9.9219999 -4.9460001 2.109 10
9.927 -4.7259998 2.109 10
9.8889999 -4.8439999 2.1129999 10
9.9399996 -4.9000001 2.1059999 10
9.8660002 -4.8400002 2.1170001 10
9.9209995 -4.783 2.109 10
9.9099998 -4.381 2.112 10
9.8599997 -4.1760001 2.119 10
9.9379997 -4.0869999 2.1070001 10
9.9420004 -4.4369998 2.108 10
9.9289999 -4.2459998 2.109 10
9.8739996 -4.118 2.1170001 10
9.9040003 -4.2449999 2.1129999 10
9.8800001 -4.2680001 2.1170001 10
9.8870001 -4.1220002 2.115 10
9.9180002 -4.3979998 2.1110001 10
9.9090004 -4.316 2.112 10
9.9020004 -4.289 2.1129999 10
9.9180002 -4.401 2.1110001 10
9.9309998 -4.2950001 2.109 10
9.927 -4.1529999 2.109 10
9.9379997 -4.244 2.108 10
9.8690004 -4.2020001 2.118 10
9.9099998 -4.3499999 2.112 10
9.915 -4.3590002 2.1110001 10
9.8660002 -4.2280002 2.119 10
9.901 -4.2059999 2.1129999 10
9.9289999 -4.1279998 2.109 10
9.9329996 -4.4390001 2.109 10
9.9180002 -4.2449999 2.1110001 10
9.9309998 -4.2659998 2.109 10
9.9320002 -4.198 2.109 10
9.9110003 -4.2049999 2.112 10
9.9329996 -4.375 2.109 10
9.9209995 -4.217 2.1099999 10
9.8730001 -4.2459998 2.118 10
9.9029999 -4.1869998 2.1129999 10
9.9320002 -4.3730001 2.109 10
9.927 -4.3850002 2.1099999 10
9.8920002 -4.2620001 2.115 10
9.941 -4.1830001 2.1070001 10
9.9110003 -4.3429999 2.112 10
9.9320002 -4.3860002 2.109 10
9.8690004 -4.244 2.118 10
9.9420004 -4.1399999 2.1070001 10
9.9399996 -4.2049999 2.1070001 10
9.9060001 -4.1350002 2.112 10
9.9440002 -4.257 2.1070001 10
9.9420004 -4.2709999 2.1070001 10
9.8870001 -4.152 2.115 10
9.9399996 -4.362 2.108 10
9.9300003 -4.2150002 2.109 10
9.9460001 -4.4850001 2.1070001 10
9.9040003 -4.2789998 2.1129999 10
9.8929996 -4.2270002 2.115 10
9.9230003 -4.3740001 2.1099999 10
9.9359999 -4.1149998 2.108 10
9.9139996 -4.2020001 2.1110001 10
9.8990002 -4.3130002 2.1140001 10
9.8999996 -4.2259998 2.1129999 10
9.8620005 -4.138 2.119 10
9.9110003 -4.217 2.112 10
9.8889999 -4.276 2.115 10
9.9139996 -4.2909999 2.112 10
9.9420004 -4.46 2.108 10
9.9099998 -4.198 2.112 10
9.882 -4.2719998 2.1159999 10
9.8599997 -4.1680002 2.119 10
9.9189997 -4.2979999 2.1110001 10
9.9160004 -4.4180002 2.1110001 10
9.8769999 -4.1820002 2.1170001 10
9.9160004 -4.3210001 2.1110001 10
9.9289999 -4.335 2.109 10
9.8660002 -4.132 2.118 10
9.8839998 -4.2670002 2.1159999 10
9.8710003 -4.1739998 2.118 10
9.934 -4.085 2.108 10
9.8789997 -4.2579999 2.1170001 10
9.8970003 -4.1479998 2.1140001 10
9.9139996 -4.335 2.112 10
9.9289999 -4.0819998 2.109 10
9.9239998 -4.1900001 2.1099999 10
9.9090004 -4.3499999 2.112 10
9.8809996 -4.309 2.1170001 10
9.9399996 -4.23 2.1070001 10
9.9259996 -4.3119998 2.1099999 10
9.9219999 -4.1350002 2.1099999 10
9.9390001 -4.3639998 2.108 10
9.9049997 -4.099 2.112 10
9.8669996 -4.1900001 2.118 10
9.8970003 -4.1620002 2.1140001 10
9.9429998 -4.23 2.1070001 10
9.908 -4.1160002 2.112 10
9.9399996 -4.23 2.1070001 10
9.9090004 -4.105 2.112 10
9.941 -4.138 2.1070001 10
9.9259996 -4.4039998 2.1099999 10
9.9029999 -4.3460002 2.1129999 10
9.8780003 -4.1620002 2.1170001 10
9.8870001 -4.2220001 2.115 10
9.927 -4.0770001 2.109 10
9.9449997 -4.4910002 2.1070001 10
9.8789997 -4.1560001 2.1170001 10
9.9119997 -4.2059999 2.112 10
9.9329996 -4.2579999 2.109 10
9.9139996 -4.0929999 2.1110001 10
9.8660002 -4.2049999 2.119 10
9.9320002 -4.119 2.108 10
9.875 -4.2360001 2.1170001 10
9.9069996 -4.1230001 2.112 10
9.882 -4.1490002 2.1159999 10
9.915 -4.1700001 2.1110001 10
9.941 -4.335 2.1070001 10
9.9130001 -4.2709999 2.112 10
9.934 -4.2319999 2.108 10
9.9189997 -4.3410001 2.1110001 10
9.9280005 -4.4039998 2.1099999 10
9.8850002 -4.2930002 2.1159999 10
9.9200001 -4.3649998 2.1110001 10
9.9209995 -4.303 2.1099999 10
9.9259996 -4.0929999 2.109 10
9.9209995 -4.3379998 2.1099999 10
9.9160004 -4.309 2.1110001 10
9.9239998 -4.276 2.1099999 10
9.9169998 -4.362 2.1110001 10
9.8900003 -4.309 2.115 10
9.9189997 -4.4089999 2.1110001 10
9.9169998 -4.0970001 2.1110001 10
9.8809996 -4.2259998 2.1159999 10
9.9429998 -4.257 2.1070001 10
9.9449997 -4.4369998 2.1070001 10
9.9049997 -4.132 2.112 10
9.908 -4.0900002 2.112 10
9.9440002 -4.2360001 2.1070001 10
9.9460001 -4.5209999 2.1070001 10
9.9309998 -4.448 2.109 10
9.9209995 -4.29 2.1099999 10
9.9200001 -4.2529998 2.1110001 10
9.9390001 -4.1420002 2.1070001 10
9.8760004 -4.217 2.1170001 10
9.9420004 -4.2800002 2.1070001 10
9.9049997 -4.1750002 2.1129999 10
9.9300003 -4.256 2.109 10
9.9119997 -4.23 2.112 10
9.9280005 -4.4000001 2.1099999 10
9.9060001 -4.1739998 2.1129999 10
9.9209995 -4.3390002 2.1110001 10
9.9390001 -4.2410002 2.108 10
9.9250002 -4.1529999 2.1099999 10
9.9060001 -4.336 2.1129999 10
9.8859997 -4.152 2.115 10
9.9060001 -4.3189998 2.1129999 10
9.8999996 -4.1869998 2.1129999 10
9.8889999 -4.3179998 2.115 10
9.8879995 -4.2069998 2.115 10
9.9160004 -4.1939998 2.1110001 10
9.9090004 -4.3470001 2.112 10
9.8809996 -4.2820001 2.1159999 10
9.901 -4.1869998 2.1129999 10
9.9399996 -4.2249999 2.1070001 10
9.9370003 -4.2750001 2.108 10
9.9460001 -4.5019999 2.1070001 10
9.9090004 -4.2820001 2.112 10
9.934 -4.1849999 2.108 10
9.9390001 -4.4520001 2.108 10
9.8900003 -4.303 2.115 10
9.8929996 -4.3080001 2.115 10
9.9169998 -4.277 2.1110001 10
9.8979998 -4.3639998 2.1140001 10
9.8999996 -4.1620002 2.1129999 10
9.9329996 -4.3600001 2.109 10
9.9239998 -4.408 2.1099999 10
9.9069996 -4.3150001 2.1129999 10
9.9379997 -4.1020002 2.1070001 10
9.9239998 -4.256 2.1099999 10
9.9209995 -4.3080001 2.1110001 10
9.9379997 -4.3670001 2.108 10
9.9280005 -4.2259998 2.109 10
9.9040003 -4.1139998 2.1129999 10
9.9440002 -4.2919998 2.1070001 10
9.9309998 -4.1079998 2.109 10
9.9370003 -4.138 2.108 10
9.9239998 -4.3829999 2.1099999 10
9.882 -4.1149998 2.1159999 10
9.8699999 -4.191 2.118 10
9.9390001 -4.098 2.1070001 10
9.8959999 -4.1110001 2.1140001 10
9.9219999 -4.263 2.1099999 10
9.8850002 -4.2059999 2.1159999 10
9.8970003 -4.1069999 2.1140001 10
9.8590002 -4.1630001 2.1199999 10
9.9440002 -4.2639999 2.1070001 10
9.9110003 -4.2189999 2.112 10
9.8990002 -4.2639999 2.1140001 10
9.8649998 -4.1669998 2.119 10
9.9350004 -4.395 2.108 10
9.8629999 -4.2150002 2.119 10
9.8699999 -4.2470002 2.118 10
9.8979998 -4.1799998 2.1140001 10
9.9069996 -4.223 2.112 10
9.9350004 -4.355 2.108 10
9.8809996 -4.1859999 2.1159999 10
9.8809996 -4.1100001 2.1159999 10
9.941 -4.2350001 2.1070001 10
9.8789997 -4.1869998 2.1170001 10
9.8920002 -4.099 2.1140001 10
9.8830004 -4.263 2.1159999 10
9.9399996 -4.1570001 2.1070001 10
9.9209995 -4.171 2.1099999 10
9.8690004 -4.257 2.118 10
9.9230003 -4.1739998 2.1099999 10
9.941 -4.388 2.108 10
9.9020004 -4.3369999 2.1129999 10
9.9200001 -4.0900002 2.1099999 10
9.8719997 -4.1989999 2.118 10
9.9169998 -4.2420001 2.1110001 10
9.9289999 -4.362 2.109 10
9.8710003 -4.1149998 2.118 10
9.8889999 -4.1820002 2.115 10
9.8850002 -4.1350002 2.1159999 10
9.9180002 -4.2420001 2.1110001 10
9.9180002 -4.2389998 2.1110001 10
9.8789997 -4.1849999 2.1170001 10
9.9300003 -4.4369998 2.109 10
9.901 -4.1399999 2.1129999 10
9.9429998 -4.27 2.1070001 10
9.8889999 -4.1440001 2.115 10
9.8839998 -4.2729998 2.1159999 10
9.8929996 -4.1719999 2.1140001 10
9.9399996 -4.4510002 2.108 10
9.9250002 -4.382 2.1099999 10
9.9119997 -4.152 2.1110001 10
9.8570004 -4.2160001 2.1199999 10
9.9040003 -4.1199999 2.1129999 10
9.8970003 -4.1700001 2.1140001 10
9.9390001 -4.3379998 2.108 10
9.9040003 -4.2420001 2.1129999 10
9.8809996 -4.177 2.1159999 10
9.8900003 -4.2930002 2.115 10
9.8800001 -4.2729998 2.1170001 10
9.9440002 -4.164 2.1070001 10
9.8649998 -4.2490001 2.119 10
9.8830004 -4.224 2.1159999 10
9.9379997 -4.454 2.108 10
9.8579998 -4.1370001 2.1199999 10
9.9449997 -4.4050002 2.1070001 10
9.9320002 -4.4650002 2.109 10
9.9160004 -4.3600001 2.1110001 10
9.9099998 -4.1609998 2.112 10
9.9320002 -4.473 2.109 10
9.8710003 -4.2509999 2.118 10
9.915 -4.3150001 2.1110001 10
9.8929996 -4.2020001 2.115 10
9.941 -4.1929998 2.1070001 10
9.8940001 -4.2870002 2.115 10
9.8950005 -4.1209998 2.1140001 10
9.8620005 -4.1700001 2.119 10
9.9440002 -4.2490001 2.1070001 10
9.9219999 -4.3850002 2.1099999 10
9.9289999 -4.1110001 2.109 10
9.8889999 -4.3140001 2.115 10
9.9110003 -4.2309999 2.112 10
9.9650002 -5.8390002 2.098 10
9.9949999 -5.8629999 2.092 10
9.9440002 -5.8299999 2.1010001 10
9.9239998 -5.8299999 2.1029999 10
9.8850002 -5.8390002 2.1059999 10
9.9440002 -5.836 2.0999999 10
9.9390001 -5.849 2.099 10
9.9589996 -5.8270001 2.0999999 10
9.9359999 -5.848 2.0999999 10
9.9519997 -5.8330002 2.0999999 10
9.8739996 -5.8390002 2.1070001 10
9.9040003 -5.8340001 2.1040001 10
9.9180002 -5.8429999 2.102 10
9.9320002 -5.8429999 2.0999999 10
9.9399996 -5.8369999 2.0999999 10
9.9639997 -5.8569999 2.096 10
9.9280005 -5.8330002 2.102 10
9.9390001 -5.848 2.099 10
9.9569998 -5.8439999 2.098 10
9.9659996 -5.835 2.098 10
9.9280005 -5.8270001 2.1029999 10
9.9779997 -5.8559999 2.0940001 10
9.9540005 -5.855 2.0969999 10
9.9680004 -5.8499999 2.096 10
9.9619999 -5.8449998 2.0969999 10
9.9680004 -5.835 2.098 10
9.9639997 -5.8520002 2.096 10
9.9259996 -5.8520002 2.0999999 10
9.941 -5.8309999 2.1010001 10
9.8859997 -5.8439999 2.105 10
9.934 -5.829 2.102 10
9.9549999 -5.5809999 2.105 10
9.9630003 -5.2129998 2.1099999 10
9.9989996 -5.2449999 2.125 10
9.9650002 -5.4679999 2.109 10
9.9759998 -5.494 2.1140001 10
9.96 -5.4520001 2.1070001 10
9.9560003 -5.1989999 2.108 10
10.001 -5.2849998 2.125 10
9.9680004 -5.2129998 2.112 10
9.9720001 -5.5819998 2.112 10
9.9560003 -5.1469998 2.108 10
9.9630003 -5.1269999 2.1110001 10
9.9569998 -5.5089998 2.1059999 10
9.9680004 -5.4239998 2.1110001 10
9.9589996 -5.3829999 2.1070001 10
9.9589996 -5.5450001 2.1070001 10
9.9630003 -5.586 2.108 10
9.9790001 -5.4489999 2.1159999 10
9.9630003 -5.1820002 2.1110001 10
9.9580002 -5.3049998 2.108 10
9.9469995 -5.0510001 2.105 10
9.9720001 -5.2659998 2.1140001 10
9.9709997 -5.4029999 2.112 10
9.9560003 -5.6230001 2.105 10
9.9849997 -5.2909999 2.119 10
9.9870005 -5.348 2.119 10
9.9879999 -5.3169999 2.1199999 10
9.9569998 -5.7049999 2.105 10
9.9779997 -5.4970002 2.115 10
9.9630003 -5.6409998 2.108 10
9.9940004 -5.1750002 2.1229999 10
9.9659996 -5.1659999 2.112 10
9.9580002 -5.4400001 2.1070001 10
9.9840002 -5.2020001 2.119 10
9.9860001 -5.257 2.1199999 10
9.9519997 -5.066 2.1070001 10
9.9519997 -5.2030001 2.1059999 10
9.9490004 -5.4109998 2.1040001 10
9.9580002 -5.6900001 2.1059999 10
9.9499998 -5.0370002 2.1059999 10
9.9510002 -5.3429999 2.105 10
9.9540005 -5.5469999 2.105 10
9.993 -5.323 2.122 10
9.9689999 -5.4089999 2.112 10
9.9829998 -5.4359999 2.1170001 10
9.9879999 -5.3649998 2.119 10
9.9700003 -5.1880002 2.1129999 10
9.9519997 -5.6799998 2.1029999 10
9.96 -5.3579998 2.108 10
9.9680004 -5.2280002 2.112 10
9.9610004 -5.1739998 2.1099999 10
9.9650002 -5.2940001 2.1110001 10
9.9610004 -5.4770002 2.108 10
9.9809999 -5.2540002 2.1170001 10
9.9770002 -5.3959999 2.115 10
9.9870005 -5.198 2.1199999 10
9.9589996 -5.0949998 2.109 10
9.9549999 -5.5999999 2.105 10
9.9540005 -5.2090001 2.1070001 10
9.9530001 -5.7069998 2.1029999 10
9.9560003 -5.388 2.1059999 10
9.9549999 -5.3720002 2.1059999 10
9.9530001 -5.2610002 2.1059999 10
9.96 -5.6370001 2.1070001 10
9.9860001 -5.369 2.119 10
9.9720001 -5.5640001 2.112 10
9.9650002 -5.3759999 2.1099999 10
9.9689999 -5.5040002 2.1110001 10
9.9849997 -5.2490001 2.119 10
9.9820004 -5.3790002 2.1170001 10
9.9530001 -5.6810002 2.1040001 10
9.9809999 -5.2940001 2.1170001 10
9.9650002 -5.4029999 2.1099999 10
9.9560003 -5.546 2.1059999 10
9.9639997 -5.6170001 2.108 10
9.9689999 -5.4130001 2.112 10
9.9879999 -5.3740001 2.119 10
9.9709997 -5.1160002 2.1140001 10
9.9499998 -5.0879998 2.1059999 10
9.9589996 -5.573 2.1070001 10
9.9689999 -5.2410002 2.1129999 10
9.9799995 -5.3150001 2.1159999 10
9.9650002 -5.4239998 2.1099999 10
9.9589996 -5.612 2.1059999 10
9.9519997 -5.7470002 2.1029999 10
9.9630003 -5.5050001 2.108 10
9.9709997 -5.3889999 2.1129999 10
9.9809999 -5.3590002 2.1170001 10
9.96 -5.6479998 2.1070001 10
9.9630003 -5.3530002 2.109 10
9.96 -5.6539998 2.1059999 10
9.9510002 -5.6560001 2.1029999 10
9.9700003 -5.552 2.1110001 10
9.9689999 -5.4130001 2.112 10
9.9840002 -5.3189998 2.118 10
9.9510002 -5.3829999 2.1040001 10
9.967 -5.54 2.1099999 10
9.9560003 -5.1199999 2.108 10
9.9540005 -5.6170001 2.1040001 10
9.9490004 -5.0469999 2.1059999 10
9.9540005 -5.211 2.1059999 10
9.9890003 -5.1890001 2.1210001 10
9.9490004 -5.4070001 2.1029999 10
9.9630003 -5.1539998 2.1110001 10
9.9659996 -5.4099998 2.1099999 10
9.9530001 -5.6079998 2.1040001 10
9.9940004 -5.1329999 2.1229999 10
9.967 -5.5599999 2.1099999 10
9.9940004 -5.3439999 2.122 10
9.9530001 -5.743 2.1029999 10
9.9549999 -5.586 2.105 10
9.967 -5.5630002 2.1099999 10
9.9510002 -5.27 2.105 10
9.9560003 -5.1420002 2.108 10
9.9779997 -5.23 2.1170001 10
9.9619999 -5.2579999 2.1099999 10
9.9680004 -5.5760002 2.1099999 10
9.9689999 -5.0879998 2.1140001 10
9.9540005 -5.1090002 2.1070001 10
10.003 -5.2259998 2.1270001 10
9.9759998 -5.0809999 2.1170001 10
9.9790001 -5.1350002 2.1170001 10
9.9779997 -5.1339998 2.1170001 10
9.9490004 -5.3200002 2.1040001 10
9.9750004 -5.098 2.1159999 10
10 -5.2800002 2.125 10
9.9619999 -5.6350002 2.1070001 10
9.9779997 -5.4959998 2.115 10
9.9729996 -5.3600001 2.1129999 10
10.003 -5.256 2.1259999 10
9.9799995 -5.323 2.1159999 10
9.9870005 -5.2470002 2.1199999 10
9.9560003 -5.3800001 2.1059999 10
9.9650002 -5.5840001 2.109 10
9.9639997 -5.4120002 2.109 10
10.008 -5.184 2.1289999 10
9.9770002 -5.2270002 2.1159999 10
9.9549999 -5.638 2.1040001 10
9.9610004 -5.6919999 2.1070001 10
9.9519997 -5.5279999 2.1040001 10
9.9469995 -5.098 2.105 10
9.9499998 -5.2600002 2.105 10
9.96 -5.2979999 2.108 10
9.974 -5.3590002 2.1140001 10
9.9680004 -5.612 2.1099999 10
9.96 -5.4689999 2.108 10
9.9820004 -5.099 2.119 10
9.9960003 -5.2909999 2.1229999 10
9.9659996 -5.2389998 2.112 10
9.9709997 -5.098 2.1140001 10
9.9549999 -5.454 2.105 10
10.003 -5.2410002 2.1259999 10
9.9610004 -5.3940001 2.108 10
9.9779997 -5.2810001 2.1159999 10
9.9519997 -5.5139999 2.1040001 10
9.9530001 -5.0539999 2.1070001 10
9.9899998 -5.1430001 2.122 10
9.9750004 -5.2220001 2.115 10
9.9860001 -5.204 2.1199999 10
9.9759998 -5.368 2.115 10
9.96 -5.0479999 2.1099999 10
9.9689999 -5.52 2.1110001 10
9.9569998 -5.6919999 2.105 10
9.9840002 -5.2940001 2.118 10
9.9680004 -5.2690001 2.112 10
9.9650002 -5.3010001 2.1110001 10
9.9549999 -5.619 2.1040001 10
9.9499998 -5.5809999 2.1029999 10
9.9589996 -5.0599999 2.1099999 10
9.9510002 -5.23 2.105 10
10.003 -5.2680001 2.1259999 10
9.967 -5.5669999 2.1099999 10
9.9860001 -5.3330002 2.119 10
9.9960003 -5.1989999 2.1240001 10
9.9619999 -5.1339998 2.1110001 10
9.9639997 -5.3200002 2.1099999 10
9.9849997 -5.3790002 2.118 10
9.9989996 -5.2069998 2.125 10
9.9799995 -5.4169998 2.1159999 10
9.9720001 -5.54 2.112 10
9.9759998 -5.2270002 2.1159999 10
9.9630003 -5.178 2.1099999 10
9.9589996 -5.1149998 2.109 10
10.005 -5.2490001 2.1270001 10
9.9870005 -5.1290002 2.1210001 10
10.005 -5.223 2.1270001 10
9.9569998 -5.3909998 2.1070001 10
9.9569998 -5.098 2.108 10
9.9809999 -5.2449999 2.118 10
9.9499998 -5.0500002 2.1059999 10
9.9799995 -5.434 2.1159999 10
9.9799995 -5.3260002 2.1159999 10
9.9569998 -5.4980001 2.1059999 10
9.9659996 -5.1659999 2.112 10
9.9709997 -5.191 2.1140001 10
9.967 -5.5879998 2.1099999 10
9.9530001 -5.619 2.1040001 10
9.9549999 -5.0669999 2.108 10
9.9799995 -5.336 2.1159999 10
9.9989996 -5.2319999 2.125 10
9.9720001 -5.2199998 2.1140001 10
9.9560003 -5.1620002 2.108 10
9.9919996 -5.3470001 2.1210001 10
9.9799995 -5.1999998 2.1170001 10
9.9619999 -5.151 2.1099999 10
9.9499998 -5.0879998 2.1059999 10
9.96 -5.3530002 2.108 10
9.9820004 -5.0960002 2.119 10
9.9510002 -5.289 2.105 10
9.9650002 -5.6440001 2.108 10
9.9639997 -5.5250001 2.109 10
9.9659996 -5.223 2.1110001 10
9.9779997 -5.3899999 2.115 10
9.948 -5.0809999 2.105 10
9.9519997 -5.1690001 2.1059999 10
9.9759998 -5.329 2.115 10
9.9510002 -5.04 2.1059999 10
9.9779997 -5.4520001 2.115 10
9.9569998 -5.4619999 2.1059999 10
9.9689999 -5.0910001 2.1140001 10
9.9580002 -5.0560002 2.109 10
9.9949999 -5.204 2.1240001 10
9.9639997 -5.079 2.112 10
9.9499998 -5.1620002 2.105 10
9.9720001 -5.539 2.112 10
9.9510002 -5.52 2.1040001 10
9.9960003 -5.3280001 2.1229999 10
9.9820004 -5.2389998 2.118 10
9.9820004 -5.25 2.118 10
9.9560003 -5.1560001 2.108 10
9.9729996 -5.178 2.115 10
9.9910002 -5.335 2.1210001 10
9.9510002 -5.375 2.1040001 10
9.9700003 -5.1009998 2.1140001 10
9.9569998 -5.211 2.108 10
9.9809999 -5.2379999 2.118 10
9.967 -5.21 2.112 10
9.9779997 -5.25 2.1159999 10
9.9689999 -5.5089998 2.1110001 10
9.9569998 -5.323 2.1070001 10
9.9569998 -5.2979999 2.1070001 10
10.003 -5.197 2.1270001 10
9.9540005 -5.7090001 2.1040001 10
9.96 -5.5700002 2.1070001 10
9.9750004 -5.4949999 2.1140001 10
9.9759998 -5.2639999 2.115 10
9.9870005 -5.2179999 2.1199999 10
9.9809999 -5.2480001 2.118 10
9.9659996 -5.2309999 2.112 10
10.007 -5.1919999 2.128 10
9.9910002 -5.1430001 2.122 10
9.9569998 -5.0939999 2.109 10
9.9499998 -5.5469999 2.1029999 10
10.002 -5.1789999 2.1259999 10
9.9530001 -5.0580001 2.1070001 10
9.9499998 -5.1999998 2.105 10
9.9589996 -5.1490002 2.109 10
9.9569998 -5.5110002 2.1059999 10
9.9639997 -5.1479998 2.1110001 10
9.9510002 -5.6079998 2.1029999 10
9.9530001 -5.0349998 2.1070001 10
9.9610004 -5.2420001 2.109 10
9.9779997 -5.4660001 2.115 10
9.9630003 -5.6630001 2.1070001 10
9.9770002 -5.5 2.1140001 10
9.9589996 -5.711 2.1059999 10
9.9969997 -5.3299999 2.1240001 10
9.9849997 -5.3509998 2.119 10
9.9589996 -5.1079998 2.109 10
9.9650002 -5.138 2.1110001 10
9.974 -5.4990001 2.1129999 10
9.9759998 -5.2950001 2.115 10
10.001 -5.2750001 2.125 10
9.974 -5.118 2.1159999 10
9.9619999 -5.381 2.109 10
9.9560003 -5.4759998 2.1059999 10
9.9580002 -5.5669999 2.1059999 10
10.008 -5.1960001 2.1289999 10
9.9720001 -5.152 2.1140001 10
9.9750004 -5.5409999 2.1129999 10
9.96 -5.1469998 2.109 10
9.9790001 -5.2509999 2.1170001 10
9.9569998 -5.27 2.1070001 10
9.9949999 -5.1440001 2.1240001 10
9.974 -4.9720001 2.1170001 10
10.009 -5.0770001 2.1300001 10
9.9980001 -5.053 2.1259999 10
9.9980001 -5.0450001 2.1259999 10
10.005 -5.0539999 2.1289999 10
9.9980001 -5.0879998 2.1259999 10
10.003 -4.915 2.1300001 10
9.9759998 -5.0250001 2.1170001 10
9.9940004 -5.0999999 2.1240001 10
9.9860001 -4.973 2.122 10
9.974 -5.0219998 2.1159999 10
9.9589996 -4.98 2.1110001 10
9.974 -4.9720001 2.1170001 10
9.9759998 -5.007 2.1170001 10
9.993 -5.0780001 2.1229999 10
9.9829998 -5.0289998 2.1199999 10
10.009 -4.9190001 2.132 10
9.9639997 -5.0079999 2.112 10
9.9910002 -5.1020002 2.1229999 10
9.9860001 -4.9660001 2.122 10
10.007 -5.0370002 2.1300001 10
10.002 -4.895 2.1300001 10
9.9989996 -4.9829998 2.1270001 10
10.008 -5.119 2.1300001 10
9.9829998 -5.099 2.119 10
9.9899998 -4.9749999 2.1240001 10
10.002 -5.1149998 2.1270001 10
10.007 -5.1560001 2.1289999 10
9.9870005 -4.9629998 2.1229999 10
9.9890003 -5.1110001 2.122 10
10.004 -5.0409999 2.1289999 10
9.9860001 -4.9229999 2.1229999 10
9.9560003 -5.0100002 2.109 10
9.974 -5.0139999 2.1159999 10
9.9619999 -5.0310001 2.1110001 10
10.011 -5.0510001 2.132 10
9.9980001 -5.1389999 2.125 10
9.9960003 -5.0510001 2.125 10
9.9790001 -4.9450002 2.119 10
9.9729996 -5.053 2.115 10
10.005 -5.1370001 2.128 10
10.003 -5.0510001 2.128 10
9.9720001 -4.9770002 2.1159999 10
9.9960003 -4.9450002 2.1270001 10
9.9910002 -4.9829998 2.1240001 10
9.9949999 -5.0110002 2.125 10
9.9750004 -4.9949999 2.1170001 10
10.011 -4.9920001 2.132 10
9.9589996 -4.9819999 2.1099999 10
9.9799995 -5.0320001 2.119 10
9.9750004 -5.0450001 2.1170001 10
10.001 -5.1020002 2.1270001 10
9.9700003 -5.0489998 2.1140001 10
9.9879999 -5.072 2.122 10
10.004 -5.0320001 2.1289999 10
10.005 -4.967 2.1300001 10
9.967 -4.974 2.1140001 10
9.9879999 -4.973 2.1229999 10
10.003 -5.026 2.1289999 10
9.9960003 -5.0669999 2.125 10
9.9899998 -4.9460001 2.1240001 10
9.9799995 -5.0830002 2.118 10
10.009 -5.0939999 2.1300001 10
9.9849997 -4.9759998 2.1210001 10
10.004 -5.119 2.128 10
10.01 -5.0120001 2.131 10
9.9940004 -4.947 2.1259999 10
10.002 -5.026 2.128 10
9.9809999 -5.0339999 2.119 10
9.9940004 -4.9369998 2.1259999 10
9.967 -5.0500002 2.1129999 10
9.9989996 -5.1059999 2.1259999 10
10.004 -5.0370002 2.1289999 10
10 -4.9060001 2.1289999 10
9.9790001 -5.0409999 2.118 10
9.967 -4.9770002 2.1140001 10
10.007 -5.138 2.1289999 10
9.9910002 -5.0019999 2.1240001 10
9.9899998 -4.9250002 2.1240001 10
9.9969997 -5.0100002 2.1259999 10
9.9989996 -5.0009999 2.1270001 10
9.9849997 -4.9660001 2.1210001 10
9.9790001 -5.046 2.118 10
10.001 -5.0640001 2.1270001 10
10.004 -5.0650001 2.128 10
9.9720001 -4.9510002 2.1159999 10
10 -5.0819998 2.1270001 10
9.9750004 -5.0180001 2.1170001 10
9.9879999 -5.0370002 2.122 10
9.9779997 -4.954 2.119 10
10.009 -5.0320001 2.131 10
9.9960003 -5.0500002 2.125 10
9.974 -5.0359998 2.1159999 10
9.9779997 -4.948 2.119 10
9.9650002 -5.007 2.1129999 10
9.9560003 -4.9749999 2.109 10
9.9680004 -4.9949999 2.1140001 10
9.9989996 -5.0479999 2.1270001 10
9.9969997 -5.0970001 2.125 10
9.9820004 -5.0869999 2.119 10
9.9969997 -4.9369998 2.1270001 10
10.006 -5.0770001 2.1289999 10
9.9779997 -5.0359998 2.118 10
9.9820004 -5.0900002 2.119 10
9.9980001 -5.1240001 2.125 10
10.007 -5.1329999 2.1289999 10
9.9860001 -5.0900002 2.1199999 10
9.993 -4.9369998 2.125 10
9.9829998 -4.829 2.1210001 10
9.9759998 -4.9289999 2.118 10
9.9560003 -4.7459998 2.1099999 10
9.9580002 -4.8569999 2.1110001 10
9.9779997 -4.7709999 2.1199999 10
9.9829998 -4.9200001 2.1210001 10
9.9650002 -4.717 2.115 10
9.9469995 -4.7519999 2.1070001 10
9.9940004 -4.868 2.1259999 10
9.974 -4.8839998 2.118 10
9.9709997 -4.8969998 2.1159999 10
9.9530001 -4.6919999 2.109 10
9.9639997 -4.8449998 2.1129999 10
10.008 -4.8800001 2.132 10
9.9870005 -4.8850002 2.1229999 10
10.002 -4.888 2.1300001 10
9.9849997 -4.777 2.1229999 10
9.9799995 -4.8210001 2.1199999 10
9.9770002 -4.711 2.119 10
9.9960003 -4.836 2.1270001 10
9.9490004 -4.7220001 2.108 10
9.9689999 -4.8039999 2.115 10
9.9589996 -4.73 2.112 10
9.9530001 -4.645 2.1099999 10
9.9490004 -4.6869998 2.108 10
9.9790001 -4.8189998 2.1199999 10
9.9870005 -4.8800001 2.1229999 10
9.967 -4.9130001 2.1140001 10
9.9910002 -4.8119998 2.125 10
9.9469995 -4.8699999 2.1059999 10
9.9770002 -4.9050002 2.119 10
9.9949999 -4.8340001 2.1270001 10
9.9770002 -4.8670001 2.119 10
9.9460001 -4.5700002 2.1070001 10
9.9560003 -4.7540002 2.1099999 10
9.9499998 -4.6890001 2.108 10
9.9510002 -4.7979999 2.108 10
9.9899998 -4.7729998 2.125 10
9.9770002 -4.8439999 2.119 10
9.9519997 -4.5630002 2.1099999 10
9.9549999 -4.6389999 2.1099999 10
10.003 -4.8400002 2.1300001 10
9.9890003 -4.7729998 2.125 10
9.9540005 -4.6399999 2.1099999 10
9.948 -4.6329999 2.1070001 10
9.9650002 -4.7080002 2.115 10
9.9809999 -4.7519999 2.1210001 10
9.9589996 -4.9650002 2.1110001 10
9.9860001 -4.7420001 2.1229999 10
9.9560003 -4.796 2.1099999 10
9.9490004 -4.9809999 2.1059999 10
9.9879999 -4.8610001 2.1240001 10
9.9639997 -4.8990002 2.1129999 10
9.9530001 -4.9089999 2.108 10
9.9890003 -4.7820001 2.125 10
9.9659996 -4.6999998 2.115 10
9.9689999 -4.948 2.115 10
9.9879999 -4.7529998 2.1240001 10
9.9750004 -4.7420001 2.119 10
9.9619999 -4.6830001 2.1129999 10
10 -4.8439999 2.1289999 10
9.9569998 -4.7719998 2.1099999 10
9.9560003 -4.9000001 2.109 10
9.9499998 -4.8319998 2.1070001 10
9.9650002 -4.6500001 2.115 10
9.9700003 -4.6820002 2.1170001 10
9.9639997 -4.6680002 2.1140001 10
9.9580002 -4.8610001 2.1110001 10
9.9949999 -4.8499999 2.1270001 10
9.9510002 -4.8070002 2.108 10
9.9510002 -4.5890002 2.109 10
9.9779997 -4.8460002 2.119 10
9.9530001 -4.6690001 2.109 10
9.9799995 -4.7880001 2.1210001 10
9.96 -4.8379998 2.112 10
9.9619999 -4.7789998 2.1129999 10
9.9759998 -4.8070002 2.119 10
9.9650002 -4.8590002 2.1140001 10
9.9510002 -4.9000001 2.1070001 10
9.9530001 -4.9200001 2.108 10
9.9510002 -4.664 2.108 10
9.9510002 -4.9060001 2.1070001 10
9.9989996 -4.8889999 2.128 10
9.9910002 -4.836 2.125 10
9.9650002 -4.6550002 2.115 10
9.9650002 -4.8520002 2.1140001 10
9.9659996 -4.809 2.115 10
10.006 -4.849 2.132 10
9.9790001 -4.8600001 2.1199999 10
9.9499998 -4.5700002 2.109 10
9.9890003 -4.8860002 2.1240001 10
9.9580002 -4.619 2.112 10
9.9540005 -4.789 2.109 10
9.9560003 -4.809 2.1099999 10
9.9729996 -4.8169999 2.1170001 10
9.9569998 -4.9349999 2.1099999 10
9.9589996 -4.757 2.112 10
9.9610004 -4.9590001 2.1110001 10
9.9549999 -4.7210002 2.1099999 10
9.9910002 -4.8330002 2.125 10
9.948 -4.6869998 2.1070001 10
9.9569998 -4.921 2.1099999 10
9.9779997 -4.8330002 2.119 10
9.9750004 -4.8870001 2.118 10
9.9689999 -4.6669998 2.1159999 10
9.9549999 -4.9720001 2.109 10
9.9510002 -4.6440001 2.109 10
9.9829998 -4.7259998 2.122 10
9.9659996 -4.691 2.115 10
9.9829998 -4.8800001 2.1210001 10
9.9790001 -4.7259998 2.1199999 10
9.9589996 -4.7290001 2.112 10
9.9499998 -4.671 2.108 10
9.948 -4.6690001 2.1070001 10
9.9610004 -4.6399999 2.1129999 10
10.007 -4.8790002 2.132 10
9.9849997 -4.902 2.122 10
9.9499998 -4.5960002 2.109 10
9.9510002 -4.6739998 2.108 10
9.9680004 -4.9099998 2.115 10
9.9919996 -4.8189998 2.1259999 10
9.9969997 -4.895 2.128 10
9.9560003 -4.9120002 2.109 10
9.9549999 -4.7179999 2.1099999 10
9.9460001 -4.5650001 2.1070001 10
9.9630003 -4.73 2.1129999 10
9.9549999 -4.7389998 2.1099999 10
9.9499998 -4.9720001 2.1070001 10
9.9770002 -4.8600001 2.119 10
9.9610004 -4.9029999 2.112 10
9.9659996 -4.9099998 2.1140001 10
9.9799995 -4.8410001 2.1199999 10
9.9549999 -4.7459998 2.1099999 10
9.9580002 -4.8639998 2.1099999 10
9.9700003 -4.7080002 2.1170001 10
9.9540005 -4.8260002 2.109 10
9.948 -4.8260002 2.1059999 10
9.9729996 -4.8379998 2.1170001 10
9.9639997 -4.7550001 2.1140001 10
9.9569998 -4.8429999 2.1099999 10
9.9940004 -4.8649998 2.1259999 10
9.9530001 -4.5710001 2.1099999 10
9.9700003 -4.8699999 2.1159999 10
9.9899998 -4.8130002 2.125 10
9.9709997 -4.875 2.1159999 10
10.006 -4.869 2.131 10
10.009 -4.868 2.1329999 10
9.967 -4.6880002 2.115 10
9.96 -4.9590001 2.1110001 10
9.9490004 -4.6240001 2.108 10
9.9580002 -4.9039998 2.1110001 10
9.9560003 -4.849 2.1099999 10
9.9960003 -4.8959999 2.1270001 10
9.9759998 -4.7069998 2.119 10
9.9530001 -4.7199998 2.109 10
9.948 -4.7290001 2.1070001 10
9.9589996 -4.6139998 2.112 10
9.993 -4.8200002 2.1259999 10
9.9519997 -4.9499998 2.1070001 10
9.9499998 -4.6989999 2.108 10
9.96 -4.7030001 2.112 10
9.9899998 -4.8569999 2.1240001 10
9.9610004 -4.8610001 2.112 10
9.974 -4.4130001 2.122 10
10.002 -4.256 2.1389999 10
9.9820004 -4.3330002 2.128 10
9.9879999 -4.4039998 2.1270001 10
9.9919996 -4.2750001 2.1340001 10
9.9650002 -4.4450002 2.1170001 10
9.9919996 -4.2969999 2.1329999 10
9.9720001 -4.3730001 2.1229999 10
10 -4.362 2.1340001 10
9.9619999 -4.4390001 2.1159999 10
9.9759998 -4.427 2.122 10
9.9849997 -4.3099999 2.1300001 10
9.9890003 -4.3909998 2.128 10
9.9910002 -4.3410001 2.131 10
9.9639997 -4.4390001 2.1170001 10
9.9860001 -4.3850002 2.1270001 10
9.9949999 -4.3499999 2.132 10
9.9729996 -4.4130001 2.122 10
9.9870005 -4.3759999 2.128 10
9.9969997 -4.224 2.138 10
9.9770002 -4.4429998 2.122 10
9.9659996 -4.4559999 2.1170001 10
9.9820004 -4.3070002 2.1289999 10
9.9770002 -4.4310002 2.122 10
9.9940004 -4.2340002 2.1370001 10
10.001 -4.3509998 2.1340001 10
10 -4.3730001 2.1329999 10
9.9989996 -4.3660002 2.1329999 10
9.9580002 -4.474 2.1129999 10
9.9879999 -4.256 2.1340001 10
9.9770002 -4.4460001 2.122 10
9.993 -4.2259998 2.1370001 10
10 -4.3319998 2.135 10
9.9960003 -4.2090001 2.138 10
10.008 -4.145 2.145 10
10.001 -4.3130002 2.1359999 10
9.9890003 -4.3049998 2.132 10
9.9779997 -4.3559999 2.1259999 10
9.9770002 -4.3400002 2.1259999 10
9.9980001 -4.1880002 2.1400001 10
9.9650002 -4.4689999 2.1159999 10
9.9799995 -4.3449998 2.1270001 10
10.002 -4.3150001 2.1359999 10
10.004 -4.289 2.138 10
10.003 -4.3579998 2.135 10
9.9870005 -4.3049998 2.131 10
9.9849997 -4.408 2.1259999 10
9.9960003 -4.2670002 2.1359999 10
10.003 -4.2010002 2.141 10
9.9940004 -4.382 2.1300001 10
9.9820004 -4.296 2.1300001 10
9.9989996 -4.3709998 2.1329999 10
9.9829998 -4.3369999 2.128 10
9.9919996 -4.3930001 2.1289999 10
10.009 -4.1339998 2.1459999 10
9.9960003 -4.2210002 2.138 10
10.003 -4.3189998 2.1359999 10
9.9919996 -4.2589998 2.135 10
9.9610004 -4.448 2.1159999 10
9.974 -4.3699999 2.1240001 10
9.9820004 -4.329 2.128 10
9.9840002 -4.2839999 2.131 10
9.9820004 -4.3699999 2.1259999 10
9.9779997 -4.4229999 2.1229999 10
9.9750004 -4.434 2.1210001 10
9.9779997 -4.3670001 2.125 10
9.9989996 -4.1929998 2.1400001 10
9.9759998 -4.348 2.125 10
9.9680004 -4.3940001 2.1210001 10
9.9770002 -4.335 2.1259999 10
10.004 -4.2659998 2.1389999 10
9.9879999 -4.2859998 2.132 10
9.9870005 -4.2670002 2.1329999 10
9.9980001 -4.2670002 2.1370001 10
9.9510002 -4.197 2.1110001 10
9.9680004 -4.1090002 2.122 10
9.9680004 -4.1350002 2.1210001 10
9.9519997 -4.0929999 2.112 10
9.9519997 -4.085 2.1110001 10
9.9449997 -4.066 2.108 10
9.9790001 -4.178 2.128 10
9.9700003 -4.178 2.122 10
9.9680004 -4.3439999 2.1210001 10
9.9519997 -4.085 2.112 10
9.9949999 -4.099 2.138 10
9.9530001 -4.1539998 2.112 10
9.9759998 -4.257 2.1259999 10
9.9460001 -4.0809999 2.108 10
9.96 -4.3870001 2.1159999 10
9.9610004 -4.303 2.1170001 10
9.9560003 -4.204 2.1140001 10
9.9610004 -4.1810002 2.1170001 10
9.9899998 -4.119 2.135 10
9.9940004 -4.1750002 2.1370001 10
9.9619999 -4.1589999 2.118 10
9.9720001 -4.3460002 2.1229999 10
9.9460001 -4.1100001 2.108 10
9.9689999 -4.118 2.122 10
9.9460001 -4.1350002 2.108 10
9.9659996 -4.099 2.1199999 10
9.9759998 -4.1040001 2.1270001 10
9.9619999 -4.2329998 2.118 10
9.9700003 -4.105 2.1229999 10
9.9510002 -4.3660002 2.1099999 10
9.9580002 -4.0960002 2.115 10
9.9870005 -4.1939998 2.1329999 10
9.9759998 -4.2010002 2.1259999 10
9.9759998 -4.1620002 2.1270001 10
9.9569998 -4.198 2.1140001 10
9.9949999 -4.1440001 2.138 10
9.9549999 -4.2210002 2.1129999 10
9.9469995 -4.1919999 2.108 10
9.9460001 -4.3559999 2.108 10
9.9709997 -4.1409998 2.1229999 10
9.9540005 -4.125 2.1129999 10
9.9779997 -4.105 2.1270001 10
9.9540005 -4.3839998 2.112 10
9.9980001 -4.1399999 2.1400001 10
9.9919996 -4.1370001 2.1370001 10
9.9790001 -4.2690001 2.128 10
9.9540005 -4.1609998 2.1129999 10
9.9779997 -4.092 2.128 10
9.9870005 -4.1269999 2.1329999 10
9.9619999 -4.3470001 2.1170001 10
9.9860001 -4.2290001 2.132 10
9.9799995 -4.1760001 2.1289999 10
9.9630003 -4.3049998 2.118 10
9.9709997 -4.3540001 2.1229999 10
9.9580002 -4.296 2.115 10
9.9700003 -4.1059999 2.1229999 10
9.948 -4.4530001 2.109 10
9.9530001 -4.152 2.112 10
9.9779997 -4.2259998 2.1270001 10
9.9949999 -4.1680002 2.138 10
9.9759998 -4.2880001 2.1259999 10
9.96 -4.1880002 2.1159999 10
9.9490004 -4.4920001 2.109 10
9.9879999 -4.1350002 2.1340001 10
9.9680004 -4.1069999 2.122 10
9.9659996 -4.1430001 2.1199999 10
9.9569998 -4.2649999 2.115 10
9.9770002 -4.2909999 2.1270001 10
9.9510002 -4.4660001 2.1099999 10
9.9720001 -4.3189998 2.1240001 10
9.9910002 -4.1589999 2.135 10
9.9589996 -4.2529998 2.1159999 10
9.9879999 -4.1339998 2.1340001 10
9.9469995 -4.3769999 2.108 10
9.9840002 -4.1069999 2.131 10
9.9580002 -4.3540001 2.115 10
9.9910002 -4.1929998 2.135 10
9.9680004 -4.0929999 2.1210001 10
9.9490004 -4.4920001 2.109 10
9.9700003 -4.3369999 2.122 10
9.9469995 -4.283 2.108 10
10 -4.1420002 2.141 10
9.9549999 -4.1290002 2.1129999 10
10.003 -4.1350002 2.1429999 10
9.9720001 -4.322 2.1240001 10
9.9779997 -4.1149998 2.128 10
9.9790001 -4.1409998 2.128 10
9.9469995 -4.1690001 2.108 10
9.9790001 -4.1240001 2.1289999 10
9.9759998 -4.2259998 2.1259999 10
9.9540005 -4.1269999 2.1129999 10
9.967 -4.2459998 2.1210001 10
9.9720001 -4.2600002 2.1229999 10
9.9519997 -4.2690001 2.1110001 10
9.9519997 -4.2950001 2.1110001 10
9.9870005 -4.2309999 2.1329999 10
9.9729996 -4.198 2.125 10
9.9799995 -4.1240001 2.1289999 10
9.9460001 -4.2309999 2.1070001 10
9.9519997 -4.4109998 2.1110001 10
9.9779997 -4.1729999 2.1270001 10
9.96 -4.2729998 2.1159999 10
9.9440002 -4.1269999 2.1070001 10
9.9460001 -4.3639998 2.108 10
9.9639997 -4.0900002 2.119 10
9.9560003 -4.2319999 2.1140001 10
9.9829998 -4.2839999 2.1300001 10
10.004 -4.1259999 2.1440001 10
9.9460001 -4.4299998 2.1070001 10
9.9469995 -4.4330001 2.108 10
9.9879999 -4.1339998 2.1340001 10
9.9449997 -4.132 2.1070001 10
9.9630003 -4.3509998 2.118 10
9.9750004 -4.197 2.1259999 10
9.9589996 -4.1030002 2.1159999 10
9.9840002 -4.1739998 2.131 10
9.9639997 -4.1880002 2.119 10
9.967 -4.3569999 2.1199999 10
9.948 -4.1929998 2.109 10
9.9680004 -4.198 2.1210001 10
9.9619999 -4.1259999 2.118 10
9.9589996 -4.4130001 2.1159999 10
9.9490004 -4.3449998 2.109 10
9.9659996 -4.1040001 2.1199999 10
9.9589996 -4.4130001 2.115 10
9.9549999 -4.1160002 2.1129999 10
9.9680004 -4.1290002 2.1210001 10
9.9969997 -4.1469998 2.1389999 10
9.9700003 -4.1529999 2.1229999 10
9.9499998 -4.2800002 2.1099999 10
9.96 -4.138 2.1159999 10
9.9499998 -4.132 2.1099999 10
9.9460001 -4.0770001 2.108 10
9.9560003 -4.191 2.1140001 10
9.9829998 -4.125 2.131 10
9.9460001 -4.3299999 2.1070001 10
9.9630003 -4.1149998 2.118 10
9.9860001 -4.2189999 2.132 10
9.9940004 -4.1820002 2.138 10
9.9580002 -4.198 2.115 10
9.9750004 -4.0960002 2.1259999 10
9.974 -4.1820002 2.125 10
9.9910002 -4.1960001 2.1359999 10
9.9799995 -4.2490001 2.128 10
9.9790001 -4.2259998 2.128 10
9.9490004 -4.151 2.1099999 10
9.9519997 -4.1690001 2.1110001 10
9.9829998 -4.152 2.131 10
10.005 -4.1100001 2.1440001 10
9.9729996 -4.3140001 2.1240001 10
9.9619999 -4.2459998 2.118 10
9.9820004 -4.2129998 2.1300001 10
9.9580002 -4.4299998 2.115 10
9.9879999 -4.1090002 2.1340001 10
9.9530001 -4.2659998 2.112 10
9.9530001 -4.2459998 2.112 10
9.9650002 -4.3130002 2.119 10
9.9490004 -4.3660002 2.109 10
9.9549999 -4.1539998 2.1140001 10
9.96 -4.3169999 2.1159999 10
9.967 -4.2639999 2.1199999 10
9.9490004 -4.1360002 2.1099999 10
9.9530001 -4.1929998 2.112 10
9.9820004 -4.1100001 2.1300001 10
9.9639997 -4.1890001 2.119 10
9.948 -4.171 2.109 10
9.9799995 -4.211 2.128 10
9.9809999 -4.27 2.1289999 10
9.9540005 -4.3499999 2.112 10
9.9540005 -4.1589999 2.1129999 10
9.9849997 -4.197 2.132 10
9.9560003 -4.073 2.1140001 10
