# .PCD v0.7 - Point Cloud Data file format
VERSION 0.7
FIELDS x y z label
SIZE 4 4 4 4
TYPE F F F U
COUNT 1 1 1 1
WIDTH 1548
HEIGHT 1
VIEWPOINT 0 0 0 1 0 0 0
POINTS 1548
DATA ascii
6.3460002 -8.4460001 2.6500001 10
6.4559999 -8.4639997 2.658 10
6.4689999 -8.4680004 2.6600001 10
6.4710002 -8.5220003 2.661 10
6.48 -8.4610004 2.6600001 10
6.3369999 -8.5179996 2.6500001 10
6.5279999 -8.4469995 2.664 10
6.5279999 -8.5559998 2.6659999 10
6.3649998 -8.5299997 2.6530001 10
6.355 -8.4680004 2.651 10
6.4380002 -8.4510002 2.6570001 10
6.4289999 -8.5 2.6570001 10
6.5019999 -8.4840002 2.6619999 10
6.401 -8.4580002 2.654 10
6.5440001 -8.4940004 2.6659999 10
6.4720001 -8.5120001 2.661 10
6.3860002 -8.5240002 2.654 10
6.5419998 -8.4960003 2.6659999 10
6.3530002 -8.4650002 2.651 10
6.5770001 -8.5120001 2.6689999 10
6.5700002 -8.5100002 2.668 10
6.526 -8.4399996 2.6630001 10
6.3369999 -8.5349998 2.651 10
6.5609999 -8.4860001 2.6670001 10
6.533 -8.5200005 2.6659999 10
6.5180001 -8.559 2.665 10
6.513 -8.5220003 2.664 10
6.4650002 -8.5179996 2.6600001 10
6.5370002 -8.4549999 2.665 10
6.3470001 -8.4980001 2.651 10
6.4349999 -8.4540005 2.6570001 10
6.3639998 -8.4809999 2.652 10
6.5929999 -8.4460001 2.6689999 10
6.3759999 -8.4879999 2.6530001 10
6.5240002 -8.5489998 2.665 10
6.3979998 -8.4630003 2.654 10
6.4640002 -8.552 2.661 10
6.5450001 -8.4910002 2.6659999 10
6.6170001 -8.4709997 2.671 10
6.5139999 -8.5039997 2.664 10
6.3410001 -8.4469995 2.6489999 10
6.5939999 -8.4989996 2.6700001 10
6.4200001 -8.4519997 2.655 10
6.5630002 -8.5010004 2.6670001 10
6.5949998 -8.4940004 2.6700001 10
6.3470001 -8.5349998 2.652 10
6.5159998 -8.4619999 2.6630001 10
6.4229999 -8.4519997 2.6559999 10
6.3390002 -8.4700003 2.6500001 10
6.3829999 -8.5649996 2.655 10
6.4980001 -8.4650002 2.6619999 10
6.599 -8.4510002 2.6689999 10
6.473 -8.5459995 2.661 10
6.3559999 -8.46 2.651 10
6.3410001 -8.5139999 2.651 10
6.3759999 -8.5670004 2.654 10
6.46 -8.467 2.6589999 10
6.3850002 -8.5570002 2.655 10
6.402 -8.4420004 2.654 10
6.355 -8.4849997 2.651 10
6.4089999 -8.4469995 2.655 10
6.5799999 -8.4919996 2.6689999 10
6.3800001 -8.5249996 2.654 10
6.4949999 -8.5530005 2.6630001 10
6.3530002 -8.4820004 2.651 10
6.421 -8.4449997 2.655 10
6.3769999 -8.4639997 2.652 10
6.54 -8.5039997 2.6659999 10
6.5960002 -8.4790001 2.6689999 10
6.3540001 -8.5019999 2.651 10
6.4660001 -8.5279999 2.661 10
6.5539999 -8.4840002 2.6659999 10
6.5219998 -8.5100002 2.664 10
6.5120001 -8.5469999 2.664 10
6.4660001 -8.5430002 2.661 10
6.3759999 -8.5109997 2.6530001 10
6.506 -8.4829998 2.6630001 10
6.4530001 -8.5059996 2.6589999 10
6.3759999 -8.4799995 2.6530001 10
6.527 -8.5030003 2.665 10
6.4489999 -8.5139999 2.6589999 10
6.3990002 -8.4519997 2.654 10
6.447 -8.4639997 2.658 10
6.4400001 -8.4919996 2.658 10
6.474 -8.5129995 2.661 10
6.5250001 -8.4960003 2.664 10
6.4289999 -8.4910002 2.6570001 10
6.349 -8.5620003 2.652 10
6.5009999 -8.4879999 2.6619999 10
6.4889998 -8.5600004 2.6630001 10
6.5279999 -8.4589996 2.664 10
6.3530002 -8.4700003 2.651 10
6.4390001 -8.4899998 2.658 10
6.6409998 -8.448 2.6719999 10
6.3629999 -8.4490004 2.651 10
6.5450001 -8.4689999 2.665 10
6.4920001 -8.5290003 2.6630001 10
6.4710002 -8.5620003 2.6619999 10
6.5219998 -8.4879999 2.664 10
6.526 -8.5190001 2.665 10
6.546 -8.4560003 2.665 10
6.3930001 -8.474 2.654 10
6.3699999 -8.4870005 2.652 10
6.4130001 -8.5179996 2.6559999 10
6.5640001 -8.5109997 2.668 10
6.5250001 -8.5159998 2.665 10
6.3670001 -8.5640001 2.654 10
6.3850002 -8.4460001 2.6530001 10
6.395 -8.5369997 2.655 10
6.3410001 -8.5209999 2.651 10
6.507 -8.5290003 2.664 10
6.552 -8.5019999 2.6670001 10
6.5159998 -8.5039997 2.664 10
6.612 -8.4429998 2.6700001 10
6.5679998 -8.4799995 2.6670001 10
6.3990002 -8.4680004 2.654 10
6.5009999 -8.54 2.6630001 10
6.4510002 -8.5550003 2.6600001 10
6.533 -8.4829998 2.665 10
6.5939999 -8.4870005 2.6689999 10
6.4860001 -8.5220003 2.6619999 10
6.5100002 -8.5010004 2.6630001 10
6.4310002 -8.507 2.6570001 10
6.4439998 -8.4420004 2.6570001 10
6.4860001 -8.4709997 2.661 10
6.4369998 -8.5159998 2.658 10
6.5139999 -8.493 2.6630001 10
6.441 -8.4490004 2.6570001 10
6.3930001 -8.4440002 2.6530001 10
6.6100001 -8.467 2.6700001 10
6.5910001 -8.4899998 2.6689999 10
6.4109998 -8.474 2.655 10
6.5489998 -8.4829998 2.6659999 10
6.5570002 -8.5150003 2.6670001 10
6.368 -8.4870005 2.652 10
6.3179998 -8.4569998 2.648 10
6.4299998 -8.46 2.6559999 10
6.5139999 -8.5080004 2.664 10
6.415 -8.5439997 2.6570001 10
6.559 -8.526 2.668 10
6.402 -8.5150003 2.655 10
6.4629998 -8.5019999 2.6600001 10
6.5929999 -8.493 2.6700001 10
6.368 -8.4589996 2.652 10
6.5100002 -8.5030003 2.6630001 10
6.4860001 -8.5469999 2.6619999 10
6.4699998 -8.4589996 2.6589999 10
6.3850002 -8.5640001 2.655 10
6.3740001 -8.5349998 2.654 10
6.3720002 -8.5179996 2.6530001 10
6.3930001 -8.5039997 2.654 10
6.5139999 -8.5089998 2.664 10
6.54 -8.4840002 2.665 10
6.5050001 -8.5430002 2.664 10
6.5180001 -8.5629997 2.665 10
6.3720002 -8.4630003 2.652 10
6.4990001 -8.5190001 2.6630001 10
6.4359999 -8.4619999 2.6570001 10
6.4359999 -8.5609999 2.6589999 10
6.4349999 -8.4589996 2.6570001 10
6.3280001 -8.4969997 2.6489999 10
6.474 -8.5489998 2.6619999 10
6.3629999 -8.5360003 2.6530001 10
6.5840001 -8.4870005 2.6689999 10
6.4130001 -8.5579996 2.6570001 10
6.4549999 -8.5030003 2.6589999 10
6.3530002 -8.4619999 2.651 10
6.3530002 -8.4469995 2.6500001 10
6.3660002 -8.5469999 2.6530001 10
6.4190001 -8.4770002 2.6559999 10
6.5279999 -8.4460001 2.664 10
6.3369999 -8.4849997 2.6500001 10
6.323 -8.467 2.648 10
6.6059999 -8.4619999 2.6700001 10
6.4200001 -8.5500002 2.6570001 10
6.3649998 -8.5089998 2.652 10
6.6360002 -8.5360003 2.671 10
6.7049999 -8.5539999 2.6730001 10
6.6269999 -8.5200005 2.671 10
6.6389999 -8.5530005 2.671 10
6.6589999 -8.566 2.671 10
6.6739998 -8.4779997 2.6730001 10
6.6550002 -8.4490004 2.6730001 10
6.645 -8.5109997 2.6719999 10
6.6589999 -8.533 2.6719999 10
6.6339998 -8.4829998 2.6719999 10
6.6560001 -8.5109997 2.6719999 10
6.658 -8.4510002 2.6730001 10
6.6929998 -8.5089998 2.6730001 10
6.6890001 -8.5439997 2.6730001 10
6.5890002 -8.5200005 2.6689999 10
6.6659999 -8.4840002 2.6730001 10
6.605 -8.5629997 2.6689999 10
6.625 -8.4809999 2.671 10
6.7020001 -8.5649996 2.6730001 10
6.6919999 -8.507 2.6730001 10
6.6339998 -8.5620003 2.6700001 10
6.5430002 -8.5609999 2.6670001 10
6.6479998 -8.5019999 2.6719999 10
6.6830001 -8.5080004 2.6730001 10
6.618 -8.5670004 2.6700001 10
6.6609998 -8.5439997 2.6719999 10
6.5539999 -8.5550003 2.6670001 10
6.6609998 -8.4840002 2.6730001 10
6.5819998 -8.5410004 2.6689999 10
6.5879998 -8.5349998 2.6689999 10
6.6570001 -8.5600004 2.671 10
6.6849999 -8.5570002 2.6719999 10
6.6339998 -8.4980001 2.671 10
6.6550002 -8.5139999 2.6719999 10
6.5999999 -8.5059996 2.6700001 10
6.6129999 -8.4829998 2.671 10
6.6420002 -8.552 2.671 10
6.651 -8.533 2.671 10
6.5970001 -8.5410004 2.6689999 10
6.632 -8.4989996 2.671 10
6.586 -8.5539999 2.6689999 10
6.6230001 -8.5279999 2.6700001 10
6.6810002 -8.5450001 2.6719999 10
6.6550002 -8.5270004 2.6719999 10
6.6669998 -8.5469999 2.6719999 10
6.6799998 -8.5640001 2.6719999 10
6.5809999 -8.5150003 2.6689999 10
6.6259999 -8.4969997 2.671 10
6.6620002 -8.5500002 2.6719999 10
6.6570001 -8.54 2.671 10
6.5539999 -8.5469999 2.6670001 10
6.6669998 -8.4750004 2.6730001 10
6.6409998 -8.5430002 2.671 10
6.6659999 -8.5579996 2.6719999 10
6.6479998 -8.4639997 2.6719999 10
6.619 -8.5249996 2.6700001 10
6.664 -8.5050001 2.6719999 10
6.6069999 -8.5319996 2.6700001 10
6.6170001 -8.5609999 2.6700001 10
6.7020001 -8.5629997 2.6730001 10
6.697 -8.552 2.6730001 10
6.665 -8.5369997 2.6719999 10
6.6690001 -8.4589996 2.6730001 10
6.6739998 -8.507 2.6730001 10
6.6560001 -8.4490004 2.6730001 10
6.6259999 -8.5270004 2.671 10
6.6100001 -8.5459995 2.6700001 10
6.6849999 -8.5489998 2.6719999 10
6.7010002 -8.559 2.6730001 10
6.6900001 -8.5100002 2.6730001 10
6.6209998 -8.533 2.6700001 10
6.6420002 -8.5059996 2.671 10
6.6739998 -8.4910002 2.6730001 10
6.5890002 -8.5080004 2.6689999 10
6.6290002 -8.5179996 2.671 10
6.6069999 -8.54 2.6700001 10
6.5749998 -8.5550003 2.668 10
6.6040001 -8.5459995 2.6689999 10
6.6560001 -8.4549999 2.6730001 10
6.6129999 -8.5209999 2.6700001 10
6.553 -8.5509996 2.6670001 10
6.605 -8.5299997 2.6700001 10
6.5879998 -8.5469999 2.6689999 10
6.6760001 -8.4790001 2.6730001 10
6.6929998 -8.5380001 2.6730001 10
6.5939999 -8.5500002 2.6689999 10
6.6389999 -8.5410004 2.671 10
6.6469998 -8.5319996 2.671 10
6.677 -8.5620003 2.6719999 10
6.6750002 -8.5030003 2.6730001 10
6.6570001 -8.4540005 2.6730001 10
6.6420002 -8.4750004 2.6719999 10
6.638 -8.4779997 2.6719999 10
6.665 -8.4460001 2.6730001 10
6.6560001 -8.5389996 2.671 10
6.5580001 -8.5450001 2.668 10
6.5609999 -8.5579996 2.668 10
6.6170001 -8.4840002 2.671 10
6.6059999 -8.533 2.6700001 10
6.618 -8.5310001 2.6700001 10
6.5960002 -8.5439997 2.6689999 10
6.645 -8.5369997 2.671 10
6.6479998 -8.4729996 2.6719999 10
6.671 -8.493 2.6730001 10
6.619 -8.4840002 2.671 10
6.631 -8.5489998 2.6700001 10
6.6360002 -8.4949999 2.671 10
6.6469998 -8.5109997 2.6719999 10
6.6090002 -8.5310001 2.6700001 10
6.625 -8.5229998 2.671 10
6.6919999 -8.5469999 2.6730001 10
6.6680002 -8.5620003 2.6719999 10
6.6230001 -8.5220003 2.671 10
6.677 -8.507 2.6730001 10
6.677 -8.4829998 2.6730001 10
6.539 -8.5629997 2.6670001 10
6.6430001 -8.54 2.671 10
6.5949998 -8.5249996 2.6689999 10
6.6230001 -8.4809999 2.671 10
6.6430001 -8.4759998 2.6719999 10
6.6599998 -8.5369997 2.6719999 10
6.6690001 -8.4650002 2.6730001 10
6.6259999 -8.4759998 2.671 10
6.6269999 -8.5419998 2.6700001 10
6.566 -8.5500002 2.668 10
6.631 -8.5120001 2.671 10
6.6690001 -8.5579996 2.6719999 10
6.5510001 -8.559 2.6670001 10
6.6490002 -8.5450001 2.671 10
6.6869998 -8.5220003 2.6730001 10
6.6100001 -8.5500002 2.6700001 10
6.6669998 -8.4659996 2.6730001 10
6.704 -8.5640001 2.6730001 10
6.5689998 -8.552 2.668 10
6.9770002 -8.4460001 2.652 10
6.7420001 -8.4759998 2.6689999 10
6.8449998 -8.5609999 2.665 10
6.8639998 -8.5539999 2.6630001 10
6.7490001 -8.5249996 2.6700001 10
6.8049998 -8.4829998 2.665 10
6.7140002 -8.5299997 2.6730001 10
6.7080002 -8.5109997 2.6719999 10
6.973 -8.46 2.6530001 10
6.7129998 -8.4580002 2.6700001 10
6.8070002 -8.4700003 2.665 10
6.8449998 -8.4790001 2.6619999 10
6.7680001 -8.5139999 2.6689999 10
6.8239999 -8.552 2.6659999 10
6.7550001 -8.5469999 2.6700001 10
6.9039998 -8.4510002 2.6570001 10
6.7620001 -8.5209999 2.6689999 10
6.7659998 -8.4589996 2.6670001 10
6.7950001 -8.5609999 2.668 10
6.8959999 -8.507 2.6600001 10
6.8169999 -8.5600004 2.6670001 10
6.7940001 -8.5679998 2.668 10
6.8740001 -8.507 2.661 10
6.9749999 -8.4700003 2.6530001 10
6.914 -8.5109997 2.6589999 10
6.7319999 -8.5439997 2.6719999 10
6.9359999 -8.4759998 2.6559999 10
6.697 -8.4420004 2.671 10
6.835 -8.4490004 2.6619999 10
6.7659998 -8.5279999 2.6689999 10
6.6999998 -8.4580002 2.671 10
6.8769999 -8.4619999 2.6600001 10
6.8520002 -8.5609999 2.664 10
6.8530002 -8.5600004 2.664 10
6.8660002 -8.5579996 2.6630001 10
6.8899999 -8.5270004 2.661 10
6.7610002 -8.4650002 2.6670001 10
6.7449999 -8.4499998 2.668 10
6.8049998 -8.4779997 2.665 10
6.8130002 -8.5620003 2.6670001 10
6.6760001 -8.4650002 2.6730001 10
6.8400002 -8.4840002 2.6630001 10
6.7509999 -8.4709997 2.668 10
6.7119999 -8.5220003 2.6730001 10
6.9369998 -8.5030003 2.6570001 10
6.9120002 -8.4910002 2.658 10
6.7049999 -8.507 2.6730001 10
6.8540001 -8.5579996 2.664 10
6.7150002 -8.4519997 2.6700001 10
6.8270001 -8.526 2.665 10
6.8889999 -8.559 2.6619999 10
6.7140002 -8.4469995 2.6700001 10
6.8579998 -8.5 2.6619999 10
6.8720002 -8.5690002 2.6630001 10
6.7259998 -8.5290003 2.6719999 10
6.8449998 -8.4429998 2.661 10
6.9029999 -8.5530005 2.661 10
6.882 -8.4460001 2.6589999 10
6.678 -8.4499998 2.6730001 10
6.7820001 -8.5439997 2.6689999 10
6.7220001 -8.5670004 2.6730001 10
6.802 -8.4530001 2.664 10
6.8239999 -8.4770002 2.664 10
6.743 -8.5620003 2.6719999 10
6.8940001 -8.5469999 2.661 10
6.895 -8.4639997 2.658 10
6.8169999 -8.4779997 2.664 10
6.8400002 -8.5159998 2.664 10
6.8850002 -8.4540005 2.6589999 10
6.888 -8.4540005 2.6589999 10
6.96 -8.4840002 2.655 10
6.869 -8.4569998 2.6600001 10
6.8249998 -8.4870005 2.664 10
6.8189998 -8.5380001 2.6659999 10
6.8109999 -8.4890003 2.665 10
6.822 -8.4779997 2.664 10
6.8790002 -8.4569998 2.6589999 10
6.8379998 -8.4429998 2.6619999 10
6.9070001 -8.4580002 2.6570001 10
6.8449998 -8.4729996 2.6619999 10
6.7659998 -8.4700003 2.6670001 10
6.7389998 -8.4870005 2.6700001 10
6.7849998 -8.5319996 2.668 10
6.835 -8.4580002 2.6619999 10
6.9489999 -8.5050001 2.6559999 10
6.8340001 -8.5310001 2.665 10
6.836 -8.4849997 2.6630001 10
6.7189999 -8.5030003 2.671 10
6.8109999 -8.4689999 2.664 10
6.7090001 -8.4759998 2.671 10
6.9000001 -8.4820004 2.6589999 10
6.9679999 -8.4610004 2.6530001 10
6.9429998 -8.5089998 2.6570001 10
6.9099998 -8.5220003 2.6589999 10
6.7659998 -8.474 2.6670001 10
6.7210002 -8.5579996 2.6730001 10
6.7979999 -8.5220003 2.6670001 10
6.7199998 -8.5270004 2.6719999 10
6.8649998 -8.5649996 2.664 10
6.8720002 -8.4689999 2.6600001 10
6.6900001 -8.4429998 2.6719999 10
6.816 -8.4560003 2.6630001 10
6.829 -8.5649996 2.6659999 10
6.8060002 -8.552 2.6670001 10
6.7480001 -8.5050001 2.6700001 10
6.8499999 -8.4429998 2.661 10
6.803 -8.5369997 2.6670001 10
6.7509999 -8.4630003 2.668 10
6.8299999 -8.566 2.6659999 10
6.9699998 -8.4700003 2.654 10
6.7420001 -8.526 2.671 10
6.6799998 -8.4449997 2.6719999 10
6.9029999 -8.5480003 2.661 10
6.7270002 -8.4879999 2.6700001 10
6.7719998 -8.4709997 2.6670001 10
6.737 -8.4770002 2.6689999 10
6.6950002 -8.4420004 2.671 10
6.8610001 -8.4560003 2.6600001 10
6.8429999 -8.5670004 2.665 10
6.8249998 -8.5389996 2.665 10
6.7420001 -8.4440002 2.668 10
6.6849999 -8.4709997 2.6730001 10
6.7610002 -8.5489998 2.6700001 10
6.743 -8.5349998 2.671 10
6.71 -8.4989996 2.6719999 10
6.8540001 -8.4790001 2.6619999 10
6.882 -8.5349998 2.6619999 10
6.8600001 -8.4799995 2.661 10
6.8439999 -8.4619999 2.6619999 10
6.9229999 -8.5190001 2.658 10
6.743 -8.5629997 2.6719999 10
6.8850002 -8.474 2.6589999 10
6.7880001 -8.4790001 2.6659999 10
6.8769999 -8.5559998 2.6619999 10
6.9200001 -8.5360003 2.6589999 10
6.8319998 -8.4980001 2.664 10
6.8959999 -8.5609999 2.661 10
6.8520002 -8.4519997 2.661 10
6.8590002 -8.5039997 2.6619999 10
6.7399998 -8.5419998 2.671 10
6.9349999 -8.4860001 2.6559999 10
6.6719999 -8.4569998 2.6730001 10
6.6820002 -8.441 2.6719999 10
6.7579999 -8.4700003 2.668 10
6.7470002 -8.5559998 2.671 10
6.921 -8.5209999 2.658 10
6.8470001 -8.552 2.664 10
6.895 -8.5129995 2.6600001 10
6.7389998 -8.5290003 2.671 10
6.6789999 -8.4469995 2.6719999 10
6.96 -8.4469995 2.654 10
6.8210001 -8.5489998 2.6659999 10
6.9180002 -8.4960003 2.658 10
6.7249999 -8.4870005 2.671 10
6.711 -8.4619999 2.671 10
6.8709998 -8.4549999 2.6600001 10
6.8889999 -8.4619999 2.6589999 10
6.8010001 -8.5480003 2.6670001 10
6.71 -8.5170002 2.6730001 10
6.882 -8.5240002 2.661 10
6.8839998 -8.4799995 2.6600001 10
6.7389998 -8.4980001 2.6700001 10
6.8169999 -8.4840002 2.664 10
6.7379999 -8.5010004 2.6700001 10
6.8340001 -8.5190001 2.664 10
6.8979998 -8.448 2.658 10
6.8800001 -8.5220003 2.661 10
6.7909999 -8.5100002 2.6670001 10
6.8899999 -8.5389996 2.661 10
6.7470002 -8.507 2.6700001 10
6.777 -8.5480003 2.6689999 10
6.7680001 -8.5530005 2.6700001 10
6.7049999 -8.4510002 2.671 10
6.9169998 -8.5299997 2.6589999 10
6.803 -8.5550003 2.6670001 10
6.73 -8.5319996 2.6719999 10
6.7620001 -8.5500002 2.6700001 10
6.9530001 -8.4569998 2.654 10
6.809 -8.4399996 2.6630001 10
6.9039998 -8.4980001 2.6589999 10
6.8410001 -8.5159998 2.664 10
6.7090001 -8.4949999 2.6719999 10
6.8839998 -8.5220003 2.661 10
6.6960001 -8.4870005 2.6730001 10
6.8930001 -8.5109997 2.6600001 10
6.7649999 -8.4989996 2.668 10
6.8730001 -8.5369997 2.6619999 10
6.8210001 -8.5190001 2.665 10
6.9180002 -8.5039997 2.658 10
6.8850002 -8.5570002 2.6619999 10
6.6929998 -8.4659996 2.6719999 10
6.9400001 -8.4809999 2.6559999 10
6.855 -8.5319996 2.6630001 10
6.8239999 -8.4399996 2.6619999 10
6.8920002 -8.4499998 2.658 10
6.9530001 -8.4799995 2.655 10
6.8049998 -8.5209999 2.6659999 10
6.7290001 -8.5010004 2.671 10
6.8579998 -8.507 2.6619999 10
6.7199998 -8.5530005 2.6730001 10
6.6750002 -8.4399996 2.6719999 10
6.7870002 -8.4549999 2.665 10
6.7420001 -8.4580002 2.6689999 10
6.9299998 -8.4910002 2.6570001 10
6.7839999 -8.5039997 2.6670001 10
6.7519999 -8.4980001 2.6689999 10
6.7540002 -8.4700003 2.668 10
6.9749999 -8.4560003 2.6530001 10
6.8959999 -8.4949999 2.6589999 10
6.9200001 -8.4469995 2.6559999 10
6.73 -8.441 2.6689999 10
6.8839998 -8.5570002 2.6619999 10
6.9260001 -8.533 2.658 10
6.7459998 -8.4750004 2.6689999 10
6.8299999 -8.4490004 2.6619999 10
6.927 -8.5019999 2.6570001 10
6.7810001 -8.46 2.6659999 10
6.8930001 -8.4680004 2.6589999 10
6.802 -8.5600004 2.668 10
6.7800002 -8.5559998 2.6689999 10
6.7129998 -8.5419998 2.6730001 10
6.6900001 -8.4610004 2.6719999 10
6.7080002 -8.5340004 2.6730001 10
6.954 -8.4639997 2.654 10
6.6989999 -8.5190001 2.6730001 10
6.8909998 -8.5530005 2.661 10
6.7420001 -8.5299997 2.671 10
6.9809999 -8.46 2.6530001 10
6.7589998 -8.5279999 2.6700001 10
6.7179999 -8.4680004 2.6700001 10
6.842 -8.4969997 2.6630001 10
6.777 -8.5570002 2.6689999 10
6.8839998 -8.4399996 2.658 10
6.7249999 -8.4610004 2.6700001 10
6.8899999 -8.5030003 2.6600001 10
6.77 -8.4530001 2.6659999 10
6.9460001 -8.4530001 2.655 10
6.77 -8.4639997 2.6670001 10
6.8629999 -8.5699997 2.664 10
6.8639998 -8.4499998 2.6600001 10
6.744 -8.5439997 2.671 10
6.8899999 -8.5349998 2.661 10
6.8670001 -8.5579996 2.6630001 10
6.9070001 -8.5120001 2.6589999 10
6.9250002 -8.4429998 2.6559999 10
6.9429998 -8.4910002 2.6559999 10
6.8369999 -8.5159998 2.664 10
6.902 -8.5369997 2.6600001 10
6.7360001 -8.4919996 2.6700001 10
6.8249998 -8.4429998 2.6619999 10
6.8649998 -8.4949999 2.661 10
6.7719998 -8.5249996 2.6689999 10
6.7620001 -8.5030003 2.6689999 10
6.7480001 -8.467 2.668 10
6.8889999 -8.5220003 2.661 10
6.8610001 -8.4630003 2.661 10
6.8280001 -8.5690002 2.6659999 10
6.7459998 -8.5059996 2.6700001 10
6.8130002 -8.4689999 2.664 10
6.79 -8.4980001 2.6670001 10
6.9050002 -8.4949999 2.6589999 10
6.6859999 -8.4440002 2.6719999 10
6.8889999 -8.5019999 2.6600001 10
6.7870002 -8.4639997 2.6659999 10
6.934 -8.4549999 2.6559999 10
6.9029999 -8.5010004 2.6589999 10
6.8979998 -8.5290003 2.6600001 10
6.915 -8.4589996 2.6570001 10
6.803 -8.5629997 2.668 10
6.743 -8.4879999 2.6689999 10
6.8210001 -8.5539999 2.6659999 10
6.8990002 -8.4989996 2.6589999 10
6.7290001 -8.566 2.6730001 10
6.802 -8.5270004 2.6670001 10
6.8449998 -8.5139999 2.6630001 10
6.914 -8.526 2.6589999 10
6.9510002 -8.4659996 2.655 10
6.8150001 -8.4910002 2.665 10
6.888 -8.5319996 2.661 10
6.9580002 -8.474 2.655 10
6.711 -8.5220003 2.6730001 10
6.9629998 -8.4680004 2.654 10
6.8330002 -8.5159998 2.664 10
6.7189999 -8.4860001 2.671 10
6.8850002 -8.5010004 2.6600001 10
6.6859999 -8.46 2.6719999 10
6.7859998 -8.5679998 2.6689999 10
6.8590002 -8.5019999 2.6619999 10
6.776 -8.5159998 2.668 10
6.9809999 -8.4519997 2.652 10
6.6999998 -8.467 2.6719999 10
6.7670002 -8.4980001 2.668 10
6.9569998 -8.4569998 2.654 10
6.9089999 -8.5120001 2.6589999 10
6.7129998 -8.5129995 2.6719999 10
6.8720002 -8.4960003 2.661 10
6.7459998 -8.507 2.6700001 10
6.7119999 -8.5310001 2.6730001 10
6.7340002 -8.5640001 2.6719999 10
6.7600002 -8.5019999 2.6689999 10
6.763 -8.4779997 2.668 10
6.7160001 -8.4960003 2.671 10
6.6849999 -8.4899998 2.6730001 10
6.7810001 -8.4840002 2.6670001 10
6.71 -8.5279999 2.6730001 10
6.8390002 -8.4709997 2.6619999 10
6.9130001 -8.4429998 2.6570001 10
6.6999998 -8.4469995 2.671 10
6.9229999 -8.5310001 2.6589999 10
6.7659998 -8.5080004 2.668 10
6.7979999 -8.5109997 2.6659999 10
6.862 -8.5109997 2.6619999 10
6.835 -8.5450001 2.665 10
6.895 -8.5550003 2.661 10
6.849 -8.5089998 2.6630001 10
6.869 -8.4899998 2.661 10
6.744 -8.467 2.6689999 10
6.809 -8.4510002 2.664 10
6.711 -8.4750004 2.671 10
6.8569999 -8.5579996 2.664 10
6.7529998 -8.5609999 2.671 10
6.8940001 -8.533 2.661 10
6.7610002 -8.4619999 2.6670001 10
6.796 -8.4870005 2.6659999 10
6.902 -8.533 2.6600001 10
6.7470002 -8.4870005 2.6689999 10
6.9489999 -8.4490004 2.654 10
6.908 -8.4890003 2.658 10
6.8709998 -8.5690002 2.6630001 10
6.8540001 -8.5349998 2.6630001 10
6.7470002 -8.533 2.671 10
6.7340002 -8.4799995 2.6700001 10
6.691 -8.4499998 2.6719999 10
6.756 -8.5220003 2.6700001 10
6.9790001 -8.507 2.652 10
6.9840002 -8.4969997 2.652 10
7.0019999 -8.4399996 2.6500001 10
6.9889998 -8.507 2.651 10
6.9640002 -8.5120001 2.654 10
6.9590001 -8.5120001 2.655 10
6.9679999 -8.5450001 2.6530001 10
7.013 -8.5170002 2.648 10
7.0040002 -8.4630003 2.6500001 10
6.9970002 -8.5629997 2.6489999 10
7.0050001 -8.533 2.648 10
6.9239998 -8.5649996 2.658 10
7.0019999 -8.5679998 2.648 10
6.994 -8.5 2.6500001 10
6.9429998 -8.5530005 2.6559999 10
7.0139999 -8.5200005 2.648 10
6.9679999 -8.5290003 2.6530001 10
6.987 -8.5129995 2.651 10
7.0120001 -8.5489998 2.6470001 10
6.9959998 -8.4919996 2.6500001 10
6.9840002 -8.5279999 2.651 10
6.9460001 -8.5190001 2.6559999 10
6.9450002 -8.5389996 2.6559999 10
6.9720001 -8.4989996 2.6530001 10
6.9850001 -8.474 2.652 10
6.9380002 -8.5550003 2.6570001 10
6.947 -8.5080004 2.6559999 10
6.9640002 -8.4890003 2.654 10
6.9629998 -8.4919996 2.655 10
6.9829998 -8.5550003 2.651 10
6.9359999 -8.5270004 2.6570001 10
6.96 -8.5050001 2.655 10
6.9889998 -8.4619999 2.652 10
6.9330001 -8.5290003 2.658 10
6.993 -8.5270004 2.6500001 10
6.9660001 -8.4980001 2.654 10
7.007 -8.4510002 2.6500001 10
7.0120001 -8.4870005 2.648 10
6.9439998 -8.5270004 2.6559999 10
6.9959998 -8.5159998 2.6500001 10
7.0120001 -8.474 2.6489999 10
6.9840002 -8.5310001 2.651 10
6.9289999 -8.5319996 2.658 10
6.9130001 -8.5649996 2.6600001 10
7.0089998 -8.552 2.648 10
6.954 -8.559 2.655 10
6.9990001 -8.5179996 2.6489999 10
6.9660001 -8.5220003 2.654 10
7.0110002 -8.5389996 2.648 10
6.9879999 -8.5120001 2.651 10
7.006 -8.4659996 2.6489999 10
6.9689999 -8.533 2.6530001 10
6.9949999 -8.5310001 2.6500001 10
7.0050001 -8.4619999 2.6500001 10
6.9879999 -8.526 2.651 10
6.9549999 -8.559 2.654 10
7.006 -8.5050001 2.6489999 10
6.9590001 -8.5100002 2.655 10
7.0229998 -8.5629997 2.6459999 10
6.9559999 -8.5600004 2.654 10
6.927 -8.5559998 2.658 10
6.9450002 -8.5670004 2.6559999 10
6.9349999 -8.5310001 2.6570001 10
6.9400001 -8.566 2.6559999 10
7.0370002 -8.5649996 2.6440001 10
6.9640002 -8.493 2.654 10
7.013 -8.4750004 2.648 10
7.0100002 -8.5340004 2.648 10
6.9239998 -8.5459995 2.6589999 10
6.9650002 -8.5290003 2.654 10
6.9460001 -8.5690002 2.655 10
7 -8.5270004 2.6489999 10
6.954 -8.5050001 2.6559999 10
6.9520001 -8.5550003 2.655 10
6.9860001 -8.5349998 2.651 10
6.928 -8.5489998 2.658 10
6.9499998 -8.5109997 2.6559999 10
6.9899998 -8.4639997 2.652 10
7.0190001 -8.5530005 2.6459999 10
7.0149999 -8.4860001 2.648 10
6.96 -8.5640001 2.654 10
7.0029998 -8.5240002 2.6489999 10
7.006 -8.4799995 2.6489999 10
6.9660001 -8.5360003 2.6530001 10
7.0040002 -8.4490004 2.6500001 10
7.0219998 -8.5349998 2.6459999 10
7.02 -8.5240002 2.6470001 10
7.0190001 -8.493 2.6470001 10
6.9829998 -8.5179996 2.651 10
7.0050001 -8.5039997 2.6489999 10
7.0019999 -8.4849997 2.6500001 10
7.0190001 -8.5159998 2.6470001 10
6.9980001 -8.4709997 2.6500001 10
7.197 -8.507 2.6070001 10
7.0929999 -8.5010004 2.631 10
7.151 -8.5349998 2.618 10
7.1659999 -8.4490004 2.6129999 10
7.1009998 -8.5389996 2.6289999 10
7.0419998 -8.5039997 2.642 10
7.0949998 -8.4429998 2.6289999 10
7.1279998 -8.4840002 2.622 10
7.1350002 -8.5620003 2.622 10
7.0609999 -8.5129995 2.638 10
7.2010002 -8.5080004 2.6059999 10
7.131 -8.5369997 2.622 10
7.1890001 -8.5299997 2.609 10
7.1149998 -8.4659996 2.625 10
7.0949998 -8.4750004 2.6300001 10
7.0489998 -8.441 2.6400001 10
7.1170001 -8.4790001 2.625 10
7.171 -8.5279999 2.6129999 10
7.21 -8.46 2.6029999 10
7.0570002 -8.4440002 2.638 10
7.1079998 -8.5629997 2.628 10
7.0630002 -8.4720001 2.6370001 10
7.0159998 -8.467 2.648 10
7.0710001 -8.474 2.635 10
7.0450001 -8.4560003 2.641 10
7.0580001 -8.5699997 2.6389999 10
7.0510001 -8.4759998 2.6400001 10
7.0700002 -8.4659996 2.635 10
7.0929999 -8.4540005 2.6300001 10
7.079 -8.4799995 2.6329999 10
7.177 -8.5139999 2.6110001 10
7.1869998 -8.4980001 2.609 10
7.152 -8.4809999 2.6170001 10
7.204 -8.4809999 2.605 10
7.184 -8.4899998 2.609 10
7.0469999 -8.441 2.6400001 10
7.0289998 -8.4449997 2.645 10
7.1950002 -8.4399996 2.6059999 10
7.1030002 -8.5299997 2.6289999 10
7.0619998 -8.4949999 2.638 10
7.105 -8.4960003 2.628 10
7.0760002 -8.5670004 2.635 10
7.1230001 -8.5480003 2.6240001 10
7.1350002 -8.5249996 2.6210001 10
7.0949998 -8.5439997 2.631 10
7.131 -8.559 2.622 10
7.131 -8.4589996 2.6210001 10
7.1290002 -8.5159998 2.622 10
7.2309999 -8.4420004 2.598 10
7.099 -8.5380001 2.6300001 10
7.1360002 -8.552 2.6210001 10
7.04 -8.5270004 2.6429999 10
7.138 -8.5679998 2.6210001 10
7.1529999 -8.5249996 2.6170001 10
7.0869999 -8.467 2.632 10
7.0999999 -8.5530005 2.6300001 10
7.1430001 -8.5240002 2.619 10
7.0440001 -8.4499998 2.641 10
7.112 -8.5190001 2.6259999 10
7.1859999 -8.5200005 2.6099999 10
7.1069999 -8.4790001 2.6270001 10
7.164 -8.5319996 2.615 10
7.0229998 -8.4779997 2.6459999 10
7.1199999 -8.5679998 2.625 10
7.0209999 -8.4630003 2.6470001 10
7.1900001 -8.5120001 2.608 10
7.0279999 -8.4919996 2.645 10
7.1350002 -8.5609999 2.622 10
7.0669999 -8.5349998 2.6370001 10
7.165 -8.5039997 2.6140001 10
7.0409999 -8.5480003 2.6429999 10
7.1550002 -8.4879999 2.6159999 10
7.0830002 -8.4919996 2.6329999 10
7.0609999 -8.54 2.638 10
7.0900002 -8.5500002 2.632 10
7.119 -8.5389996 2.625 10
7.0760002 -8.5710001 2.635 10
7.0830002 -8.5640001 2.6340001 10
7.1539998 -8.4650002 2.6159999 10
7.1069999 -8.5480003 2.628 10
7.1290002 -8.4779997 2.622 10
7.0669999 -8.4510002 2.6359999 10
7.0879998 -8.5489998 2.632 10
7.073 -8.5349998 2.635 10
7.223 -8.4519997 2.5999999 10
7.0320001 -8.4860001 2.6440001 10
7.125 -8.4659996 2.6229999 10
7.0780001 -8.5129995 2.6340001 10
7.1220002 -8.4820004 2.6240001 10
7.0300002 -8.5209999 2.645 10
7.1760001 -8.4429998 2.6110001 10
7.2459998 -8.4440002 2.595 10
7.1529999 -8.4630003 2.6159999 10
7.1240001 -8.4469995 2.6229999 10
7.02 -8.4779997 2.6470001 10
7.1820002 -8.4919996 2.6099999 10
7.0539999 -8.5349998 2.6400001 10
7.125 -8.5579996 2.6240001 10
7.0279999 -8.4449997 2.645 10
7.0760002 -8.4460001 2.6340001 10
7.1290002 -8.5089998 2.622 10
7.085 -8.5539999 2.6329999 10
7.1269999 -8.4940004 2.6229999 10
7.1020002 -8.4969997 2.628 10
7.158 -8.5200005 2.6159999 10
7.197 -8.5270004 2.6070001 10
7.0310001 -8.5299997 2.645 10
7.1170001 -8.4820004 2.625 10
7.085 -8.5469999 2.6329999 10
7.204 -8.4709997 2.605 10
7.0879998 -8.4969997 2.632 10
7.1539998 -8.5430002 2.6170001 10
7.2090001 -8.4799995 2.6040001 10
7.0630002 -8.5019999 2.6370001 10
7.1849999 -8.493 2.609 10
7.1240001 -8.5200005 2.6240001 10
7.0780001 -8.5649996 2.635 10
7.21 -8.474 2.6029999 10
7.0609999 -8.533 2.638 10
7.1399999 -8.5629997 2.6210001 10
7.1170001 -8.4870005 2.625 10
7.2129998 -8.474 2.6029999 10
7.1570001 -8.5299997 2.6159999 10
7.046 -8.5299997 2.642 10
7.1880002 -8.4510002 2.608 10
7.0380001 -8.4899998 2.6429999 10
7.1079998 -8.5229998 2.6270001 10
7.0050001 -8.4429998 2.6500001 10
7.2140002 -8.4899998 2.6029999 10
7.191 -8.5050001 2.608 10
7.184 -8.4899998 2.6099999 10
7.0910001 -8.5240002 2.631 10
7.059 -8.5609999 2.6389999 10
7.0689998 -8.467 2.6359999 10
7.0900002 -8.4449997 2.631 10
7.0250001 -8.4989996 2.6459999 10
7.0640001 -8.5550003 2.638 10
7.0149999 -8.4680004 2.648 10
7.2080002 -8.4960003 2.6040001 10
7.0710001 -8.4949999 2.6359999 10
7.0770001 -8.4899998 2.6340001 10
7.0110002 -8.4540005 2.6489999 10
7.1420002 -8.4689999 2.619 10
7.1339998 -8.5050001 2.6210001 10
7.1409998 -8.526 2.6199999 10
7.0710001 -8.5430002 2.6359999 10
7.0549998 -8.4680004 2.6389999 10
7.2129998 -8.441 2.602 10
7.0760002 -8.533 2.635 10
7.059 -8.5050001 2.638 10
7.2389998 -8.4519997 2.596 10
7.1269999 -8.4569998 2.622 10
7.0900002 -8.5419998 2.632 10
7.2210002 -8.467 2.6010001 10
7.073 -8.5559998 2.6359999 10
7.1630001 -8.5500002 2.615 10
7.1989999 -8.4610004 2.6059999 10
7.092 -8.5369997 2.631 10
7.0949998 -8.5570002 2.631 10
7.158 -8.5360003 2.6159999 10
7.0300002 -8.4989996 2.645 10
7.112 -8.4960003 2.6259999 10
7.0560002 -8.4779997 2.6389999 10
7.0570002 -8.5609999 2.6400001 10
7.02 -8.4750004 2.6470001 10
7.152 -8.5109997 2.6170001 10
7.191 -8.526 2.608 10
7.1490002 -8.5080004 2.618 10
7.1300001 -8.4429998 2.6210001 10
7.0640001 -8.5539999 2.638 10
7.1919999 -8.4759998 2.608 10
7.0939999 -8.4969997 2.6300001 10
7.152 -8.5299997 2.6170001 10
7.223 -8.4619999 2.5999999 10
7.1370001 -8.566 2.6210001 10
7.1550002 -8.54 2.6170001 10
7.0510001 -8.4870005 2.6400001 10
7.204 -8.5179996 2.605 10
7.2030001 -8.4820004 2.605 10
7.1799998 -8.5349998 2.6110001 10
7.1729999 -8.5299997 2.612 10
7.1529999 -8.5340004 2.6170001 10
7.066 -8.4589996 2.6359999 10
7.0999999 -8.5220003 2.6289999 10
7.1240001 -8.4650002 2.6229999 10
7.0970001 -8.5509996 2.6300001 10
7.1069999 -8.559 2.628 10
7.072 -8.4980001 2.635 10
7.0430002 -8.4879999 2.642 10
7.1220002 -8.4940004 2.6240001 10
7.177 -8.5010004 2.6110001 10
7.1599998 -8.4639997 2.615 10
7.164 -8.526 2.6140001 10
7.1100001 -8.4639997 2.6259999 10
7.0320001 -8.5150003 2.645 10
7.2270002 -8.4700003 2.5999999 10
7.145 -8.559 2.619 10
7.0300002 -8.4469995 2.6440001 10
7.1630001 -8.5500002 2.615 10
7.164 -8.4420004 2.6140001 10
7.1960001 -8.4420004 2.6059999 10
7.098 -8.4610004 2.6289999 10
7.1069999 -8.4619999 2.6270001 10
7.0960002 -8.5439997 2.6300001 10
7.052 -8.5279999 2.6400001 10
7.2249999 -8.4549999 2.5999999 10
7.1149998 -8.4429998 2.625 10
7.125 -8.4750004 2.6229999 10
7.099 -8.4610004 2.6289999 10
7.0430002 -8.5270004 2.642 10
7.1360002 -8.4840002 2.6199999 10
7.2049999 -8.4890003 2.605 10
7.1230001 -8.5019999 2.6240001 10
7.1700001 -8.5019999 2.6129999 10
7.099 -8.46 2.6289999 10
7.165 -8.5670004 2.615 10
7.2160001 -8.493 2.602 10
7.066 -8.4759998 2.6370001 10
7.0479999 -8.5380001 2.641 10
7.1459999 -8.4709997 2.618 10
7.1630001 -8.4940004 2.615 10
7.145 -8.4499998 2.618 10
7.1700001 -8.4919996 2.6129999 10
7.1020002 -8.448 2.628 10
7.118 -8.5050001 2.625 10
7.0419998 -8.5109997 2.642 10
7.118 -8.4610004 2.6240001 10
7.052 -8.5310001 2.6400001 10
7.0739999 -8.5640001 2.6359999 10
7.1789999 -8.4429998 2.6099999 10
7.1570001 -8.5270004 2.6159999 10
7.1820002 -8.5200005 2.6099999 10
7.1890001 -8.5059996 2.609 10
7.211 -8.4799995 2.6029999 10
7.0689998 -8.5159998 2.6359999 10
7.2080002 -8.4870005 2.6040001 10
7.131 -8.4879999 2.622 10
7.1009998 -8.5530005 2.6289999 10
7.1269999 -8.4820004 2.622 10
7.0419998 -8.5539999 2.6429999 10
7.177 -8.5450001 2.612 10
7.2210002 -8.4840002 2.6010001 10
7.1350002 -8.4940004 2.6210001 10
7.1110001 -8.4989996 2.6259999 10
7.1409998 -8.5 2.6199999 10
7.164 -8.5360003 2.615 10
7.131 -8.4940004 2.622 10
7.2160001 -8.4969997 2.602 10
7.0240002 -8.4700003 2.6459999 10
7.1459999 -8.4849997 2.618 10
7.1269999 -8.5489998 2.6229999 10
7.0370002 -8.4779997 2.6429999 10
7.2680001 -8.4519997 2.5869999 10
7.3779998 -8.4750004 2.5480001 10
7.3260002 -8.4630003 2.566 10
7.309 -8.5469999 2.5680001 10
7.3319998 -8.5310001 2.5610001 10
7.2179999 -8.5620003 2.598 10
7.4310002 -8.4499998 2.5309999 10
7.2160001 -8.566 2.599 10
7.3179998 -8.4940004 2.5680001 10
7.395 -8.4639997 2.543 10
7.3210001 -8.4469995 2.569 10
7.3790002 -8.4560003 2.5480001 10
7.244 -8.4969997 2.5929999 10
7.2270002 -8.5579996 2.595 10
7.3860002 -8.4490004 2.546 10
7.211 -8.5310001 2.602 10
7.3039999 -8.5500002 2.569 10
7.296 -8.4440002 2.5780001 10
7.2470002 -8.4659996 2.5929999 10
7.2620001 -8.5710001 2.5829999 10
7.2309999 -8.5319996 2.596 10
7.2800002 -8.5620003 2.5769999 10
7.3600001 -8.4969997 2.553 10
7.3080001 -8.5220003 2.569 10
7.2329998 -8.4940004 2.5969999 10
7.3299999 -8.4569998 2.5650001 10
7.2579999 -8.5050001 2.5880001 10
7.25 -8.4989996 2.5910001 10
7.3000002 -8.5419998 2.5710001 10
7.2470002 -8.4510002 2.5940001 10
7.211 -8.5500002 2.6010001 10
7.2470002 -8.5170002 2.5910001 10
7.263 -8.4849997 2.5869999 10
7.2620001 -8.5 2.586 10
7.3940001 -8.4399996 2.5439999 10
7.2379999 -8.5469999 2.592 10
7.2719998 -8.552 2.5799999 10
7.3140001 -8.4899998 2.569 10
7.2119999 -8.5559998 2.6010001 10
7.2199998 -8.4989996 2.6010001 10
7.211 -8.5620003 2.6010001 10
7.3169999 -8.4899998 2.5680001 10
7.296 -8.5150003 2.5739999 10
7.3759999 -8.4549999 2.549 10
7.3379998 -8.4469995 2.563 10
7.4130001 -8.467 2.536 10
7.3759999 -8.4689999 2.549 10
7.302 -8.4560003 2.575 10
7.1999998 -8.5670004 2.6040001 10
7.3119998 -8.4840002 2.5699999 10
7.3270001 -8.46 2.566 10
7.2649999 -8.5710001 2.582 10
7.2309999 -8.5530005 2.5940001 10
7.2529998 -8.4639997 2.5910001 10
7.381 -8.4820004 2.546 10
7.349 -8.441 2.559 10
7.408 -8.4440002 2.539 10
7.2490001 -8.4540005 2.5929999 10
7.3740001 -8.46 2.55 10
7.2049999 -8.5579996 2.6029999 10
7.4169998 -8.4619999 2.5350001 10
7.375 -8.4870005 2.5480001 10
7.2880001 -8.4700003 2.579 10
7.2470002 -8.4949999 2.592 10
7.2480001 -8.5530005 2.5880001 10
7.3390002 -8.4650002 2.562 10
7.3379998 -8.5170002 2.559 10
7.2210002 -8.5640001 2.5969999 10
7.3449998 -8.5139999 2.5569999 10
7.323 -8.4949999 2.566 10
7.3839998 -8.474 2.546 10
7.3340001 -8.4589996 2.5639999 10
7.2509999 -8.5270004 2.589 10
7.2519999 -8.4519997 2.592 10
7.3530002 -8.4510002 2.5580001 10
7.1900001 -8.5609999 2.608 10
7.2719998 -8.5030003 2.5829999 10
7.3870001 -8.4530001 2.546 10
7.415 -8.4540005 2.536 10
7.2659998 -8.4729996 2.5869999 10
7.223 -8.5100002 2.599 10
7.3099999 -8.5349998 2.5680001 10
7.2600002 -8.5369997 2.585 10
7.2529998 -8.5550003 2.5869999 10
7.3330002 -8.5270004 2.5610001 10
7.237 -8.4639997 2.5969999 10
7.3010001 -8.4680004 2.575 10
7.3790002 -8.4460001 2.549 10
7.2800002 -8.4799995 2.5810001 10
7.2129998 -8.5679998 2.5999999 10
7.2360001 -8.5530005 2.5929999 10
7.303 -8.4820004 2.573 10
7.1950002 -8.5500002 2.6070001 10
7.2979999 -8.4569998 2.576 10
7.2639999 -8.5159998 2.585 10
7.362 -8.4840002 2.553 10
7.2950001 -8.5100002 2.575 10
7.3390002 -8.4809999 2.5610001 10
7.3400002 -8.4980001 2.5599999 10
7.408 -8.4630003 2.5380001 10
7.3369999 -8.4549999 2.563 10
7.1989999 -8.5530005 2.605 10
7.2610002 -8.552 2.5840001 10
7.2800002 -8.4840002 2.5810001 10
7.4109998 -8.4580002 2.5369999 10
7.3470001 -8.4940004 2.5569999 10
7.3309999 -8.4960003 2.563 10
7.2659998 -8.4790001 2.586 10
7.276 -8.4440002 2.5840001 10
7.3530002 -8.4469995 2.5580001 10
7.2579999 -8.4639997 2.5899999 10
7.3730001 -8.4960003 2.5480001 10
7.2329998 -8.566 2.5929999 10
7.2610002 -8.5100002 2.586 10
7.2610002 -8.4899998 2.5869999 10
7.2150002 -8.5570002 2.5999999 10
7.2880001 -8.4549999 2.5799999 10
7.2340002 -8.5600004 2.5929999 10
7.2740002 -8.474 2.5840001 10
7.3579998 -8.5030003 2.553 10
7.2969999 -8.448 2.5769999 10
7.3759999 -8.4969997 2.5469999 10
7.3000002 -8.5190001 2.572 10
7.342 -8.4949999 2.559 10
7.3060002 -8.4790001 2.572 10
7.2399998 -8.46 2.596 10
7.408 -8.4469995 2.539 10
7.2579999 -8.46 2.5899999 10
7.204 -8.5629997 2.6029999 10
7.2620001 -8.5179996 2.586 10
7.3870001 -8.46 2.546 10
7.2800002 -8.4429998 2.5829999 10
7.2589998 -8.5 2.5869999 10
7.2969999 -8.4840002 2.575 10
7.3699999 -8.4919996 2.55 10
7.2969999 -8.4420004 2.5769999 10
7.1789999 -8.5719995 2.6110001 10
7.3429999 -8.4709997 2.5599999 10
7.2639999 -8.4510002 2.5880001 10
7.296 -8.526 2.573 10
7.395 -8.4770002 2.5420001 10
7.224 -8.566 2.596 10
7.316 -8.5319996 2.566 10
7.2940001 -8.4709997 2.5769999 10
7.2280002 -8.5240002 2.5969999 10
7.211 -8.5550003 2.6010001 10
7.2649999 -8.4720001 2.5869999 10
7.3460002 -8.5209999 2.5569999 10
7.3390002 -8.4960003 2.5599999 10
7.3790002 -8.4659996 2.5480001 10
7.3400002 -8.5179996 2.559 10
7.3509998 -8.5089998 2.5550001 10
7.296 -8.4720001 2.576 10
7.3470001 -8.4650002 2.559 10
7.2399998 -8.4809999 2.595 10
7.223 -8.5010004 2.5999999 10
7.3920002 -8.467 2.5439999 10
7.2950001 -8.5170002 2.5739999 10
7.2709999 -8.4899998 2.5840001 10
7.263 -8.4870005 2.5869999 10
7.2680001 -8.4849997 2.585 10
7.3709998 -8.4700003 2.55 10
7.2540002 -8.5670004 2.586 10
7.2839999 -8.4870005 2.579 10
7.4239998 -8.4499998 2.533 10
7.303 -8.5209999 2.5710001 10
7.2509999 -8.4549999 2.592 10
7.2789998 -8.5249996 2.579 10
7.336 -8.5170002 2.5599999 10
7.2470002 -8.4460001 2.5940001 10
7.3800001 -8.4689999 2.5480001 10
7.2389998 -8.4809999 2.595 10
7.2119999 -8.5679998 2.5999999 10
7.2709999 -8.4949999 2.5840001 10
7.283 -8.5 2.579 10
7.2709999 -8.5469999 2.5810001 10
7.381 -8.4639997 2.5469999 10
7.3150001 -8.5270004 2.5669999 10
7.3959999 -8.4829998 2.5409999 10
7.2989998 -8.5249996 2.572 10
7.342 -8.5059996 2.559 10
7.2529998 -8.5539999 2.5869999 10
7.2639999 -8.4919996 2.586 10
7.2820001 -8.5679998 2.576 10
7.4299998 -8.4549999 2.5309999 10
7.2919998 -8.552 2.573 10
7.2740002 -8.5030003 2.582 10
7.2690001 -8.5349998 2.582 10
7.2709999 -8.5340004 2.5810001 10
7.2979999 -8.4540005 2.576 10
7.2659998 -8.5419998 2.5829999 10
7.322 -8.4879999 2.566 10
7.382 -8.4499998 2.5480001 10
7.2199998 -8.5129995 2.5999999 10
7.3730001 -8.467 2.55 10
7.2459998 -8.4809999 2.5929999 10
7.2909999 -8.4510002 2.579 10
7.289 -8.5089998 2.5769999 10
7.2379999 -8.5570002 2.592 10
7.2620001 -8.4820004 2.5869999 10
7.3629999 -8.5039997 2.5510001 10
7.3309999 -8.507 2.562 10
7.2129998 -8.5640001 2.5999999 10
7.2360001 -8.5439997 2.5929999 10
7.3400002 -8.4619999 2.5610001 10
7.2540002 -8.4799995 2.5899999 10
7.2729998 -8.5310001 2.5810001 10
7.3309999 -8.4469995 2.5650001 10
7.342 -8.4770002 2.5599999 10
7.3060002 -8.507 2.5710001 10
7.23 -8.5530005 2.595 10
7.2259998 -8.5649996 2.595 10
7.2579999 -8.4680004 2.589 10
7.2550001 -8.5059996 2.589 10
7.2160001 -8.5129995 2.602 10
7.388 -8.4469995 2.546 10
7.3210001 -8.5539999 2.5639999 10
7.402 -8.5 2.5409999 10
7.3889999 -8.5299997 2.5450001 10
7.355 -8.5389996 2.5550001 10
7.3520002 -8.573 2.5569999 10
7.3049998 -8.5620003 2.569 10
7.4390001 -8.4650002 2.529 10
7.414 -8.5229998 2.5380001 10
7.401 -8.5349998 2.5420001 10
7.401 -8.4870005 2.54 10
7.4070001 -8.4980001 2.539 10
7.3150001 -8.5649996 2.566 10
7.4089999 -8.507 2.539 10
7.3169999 -8.559 2.566 10
7.3610001 -8.5120001 2.552 10
7.3850002 -8.5139999 2.546 10
7.4310002 -8.4589996 2.5309999 10
7.3759999 -8.5640001 2.55 10
7.3270001 -8.5679998 2.563 10
7.349 -8.5450001 2.5569999 10
7.3899999 -8.559 2.546 10
7.4089999 -8.533 2.54 10
7.3559999 -8.5699997 2.556 10
7.4120002 -8.474 2.5369999 10
7.3509998 -8.5279999 2.5550001 10
7.3979998 -8.526 2.543 10
7.4050002 -8.5039997 2.54 10
7.3930001 -8.5120001 2.543 10
7.3909998 -8.5629997 2.546 10
7.3839998 -8.5699997 2.5480001 10
7.3429999 -8.5530005 2.5580001 10
7.3899999 -8.5570002 2.546 10
7.3239999 -8.5629997 2.5639999 10
7.362 -8.5530005 2.553 10
7.3959999 -8.5089998 2.5420001 10
7.3210001 -8.5459995 2.5639999 10
7.3590002 -8.5559998 2.5539999 10
7.4359999 -8.4589996 2.529 10
7.402 -8.526 2.5420001 10
7.3629999 -8.5249996 2.552 10
7.335 -8.533 2.5599999 10
7.4450002 -8.4469995 2.527 10
7.4039998 -8.5380001 2.5420001 10
7.335 -8.5419998 2.5599999 10
7.4000001 -8.5340004 2.5420001 10
7.381 -8.5480003 2.5480001 10
7.302 -8.566 2.5699999 10
7.3280001 -8.5699997 2.563 10
7.3660002 -8.5120001 2.55 10
7.3239999 -8.5609999 2.5639999 10
7.381 -8.5 2.546 10
7.3740001 -8.5489998 2.55 10
7.3579998 -8.5299997 2.553 10
7.4219999 -8.4960003 2.5350001 10
7.4169998 -8.5209999 2.5369999 10
7.3449998 -8.5539999 2.5580001 10
7.3260002 -8.5509996 2.563 10
7.421 -8.4790001 2.5350001 10
7.316 -8.5600004 2.566 10
7.4000001 -8.5389996 2.543 10
7.4050002 -8.5170002 2.54 10
7.381 -8.5039997 2.546 10
7.3909998 -8.5229998 2.5439999 10
7.434 -8.467 2.53 10
7.3080001 -8.559 2.5680001 10
7.3390002 -8.5450001 2.559 10
7.3429999 -8.5690002 2.559 10
7.4109998 -8.4860001 2.5369999 10
7.408 -8.5489998 2.5409999 10
7.3520002 -8.5430002 2.556 10
7.414 -8.4720001 2.536 10
7.3429999 -8.5579996 2.559 10
7.402 -8.5319996 2.5420001 10
7.382 -8.5100002 2.546 10
7.427 -8.4729996 2.533 10
7.4089999 -8.4949999 2.5380001 10
7.3470001 -8.559 2.5580001 10
7.3299999 -8.573 2.563 10
7.4060001 -8.4829998 2.539 10
7.2880001 -8.5719995 2.5739999 10
7.3569999 -8.5290003 2.5539999 10
7.3779998 -8.5100002 2.5469999 10
7.3569999 -8.5559998 2.5550001 10
7.3660002 -8.5190001 2.5510001 10
7.4320002 -8.5670004 2.5309999 10
7.4099998 -8.5439997 2.54 10
7.428 -8.4969997 2.533 10
7.4889998 -8.5670004 2.5079999 10
7.507 -8.5570002 2.5 10
7.4219999 -8.5469999 2.5350001 10
7.454 -8.5500002 2.5220001 10
7.441 -8.5469999 2.5280001 10
7.4419999 -8.4639997 2.5280001 10
7.48 -8.5509996 2.5120001 10
7.4380002 -8.5690002 2.5280001 10
7.494 -8.5290003 2.506 10
7.487 -8.5150003 2.5090001 10
7.4260001 -8.5310001 2.5339999 10
7.4899998 -8.5480003 2.5079999 10
7.4109998 -8.5600004 2.539 10
7.4650002 -8.4770002 2.5179999 10
7.4549999 -8.5050001 2.5220001 10
7.507 -8.5620003 2.5009999 10
7.4439998 -8.5550003 2.526 10
7.4489999 -8.5229998 2.5250001 10
7.4840002 -8.5430002 2.51 10
7.441 -8.5229998 2.5280001 10
7.4159999 -8.5640001 2.5380001 10
7.4699998 -8.4790001 2.516 10
7.4400001 -8.4940004 2.529 10
7.4400001 -8.4840002 2.5280001 10
7.4840002 -8.5690002 2.51 10
7.4380002 -8.5579996 2.529 10
7.4260001 -8.5679998 2.5339999 10
7.427 -8.5699997 2.533 10
7.4489999 -8.4829998 2.5250001 10
7.493 -8.573 2.506 10
7.4380002 -8.5550003 2.529 10
7.421 -8.533 2.536 10
7.4710002 -8.5319996 2.516 10
7.4899998 -8.5439997 2.5079999 10
7.4689999 -8.5670004 2.516 10
7.4439998 -8.5039997 2.527 10
7.5019999 -8.5459995 2.503 10
7.4629998 -8.559 2.5179999 10
7.4590001 -8.5120001 2.52 10
7.4699998 -8.5679998 2.516 10
7.4390001 -8.4829998 2.529 10
7.4169998 -8.5419998 2.5369999 10
7.4439998 -8.5649996 2.526 10
7.4619999 -8.5249996 2.5190001 10
7.4660001 -8.5410004 2.5179999 10
7.4840002 -8.5459995 2.51 10
7.4970002 -8.5670004 2.5050001 10
7.428 -8.5469999 2.533 10
7.4530001 -8.5579996 2.5220001 10
7.467 -8.5550003 2.517 10
7.4419999 -8.5389996 2.527 10
7.4949999 -8.5559998 2.5050001 10
7.4530001 -8.4589996 2.5239999 10
7.414 -8.5539999 2.539 10
7.4679999 -8.5419998 2.517 10
7.4489999 -8.4580002 2.5250001 10
7.4580002 -8.5640001 2.5209999 10
7.4920001 -8.533 2.507 10
7.4549999 -8.493 2.5220001 10
7.5 -8.5530005 2.5039999 10
7.441 -8.5469999 2.527 10
7.4689999 -8.526 2.516 10
7.4689999 -8.4790001 2.517 10
7.4759998 -8.573 2.513 10
7.4910002 -8.5559998 2.507 10
7.4530001 -8.4960003 2.523 10
7.4429998 -8.54 2.527 10
7.434 -8.5120001 2.5309999 10
7.4689999 -8.5319996 2.516 10
7.421 -8.5620003 2.536 10
7.4530001 -8.4949999 2.523 10
7.4660001 -8.4919996 2.5179999 10
7.4689999 -8.5050001 2.516 10
7.4499998 -8.5109997 2.5239999 10
7.4400001 -8.4790001 2.529 10
7.4629998 -8.4680004 2.5190001 10
7.4879999 -8.5389996 2.5079999 10
7.4809999 -8.5419998 2.5109999 10
7.4219999 -8.5360003 2.5350001 10
7.4949999 -8.4840002 2.5050001 10
7.5780001 -8.4440002 2.467 10
7.5209999 -8.4799995 2.493 10
7.6300001 -8.4399996 2.444 10
7.507 -8.5080004 2.5 10
7.6100001 -8.4779997 2.454 10
7.5240002 -8.4899998 2.4920001 10
7.513 -8.4639997 2.497 10
7.559 -8.5740004 2.4779999 10
7.5450001 -8.5500002 2.483 10
7.6059999 -8.4659996 2.4549999 10
7.5669999 -8.5419998 2.474 10
7.5819998 -8.4750004 2.4660001 10
7.5489998 -8.4619999 2.4809999 10
7.487 -8.507 2.5090001 10
7.6230001 -8.5100002 2.448 10
7.527 -8.5419998 2.4909999 10
7.6300001 -8.5150003 2.4449999 10
7.553 -8.5459995 2.48 10
7.5760002 -8.4750004 2.4690001 10
7.5949998 -8.4589996 2.46 10
7.4920001 -8.4870005 2.507 10
7.5489998 -8.5310001 2.4820001 10
7.5819998 -8.4720001 2.4660001 10
7.5739999 -8.4949999 2.47 10
7.6030002 -8.4790001 2.4560001 10
7.54 -8.5039997 2.4849999 10
7.5359998 -8.533 2.487 10
7.539 -8.4899998 2.4849999 10
7.4990001 -8.5059996 2.5039999 10
7.6079998 -8.5719995 2.4549999 10
7.5489998 -8.5209999 2.4809999 10
7.5120001 -8.5489998 2.4990001 10
7.4980001 -8.4790001 2.5039999 10
7.5939999 -8.4980001 2.461 10
7.5019999 -8.5200005 2.5020001 10
7.5479999 -8.5609999 2.4820001 10
7.6209998 -8.4610004 2.448 10
7.5599999 -8.5340004 2.477 10
7.5170002 -8.5679998 2.4960001 10
7.4689999 -8.4460001 2.516 10
7.5739999 -8.4820004 2.47 10
7.6040001 -8.5159998 2.457 10
7.5599999 -8.5369997 2.4760001 10
7.5929999 -8.474 2.461 10
7.5159998 -8.5089998 2.4960001 10
7.5 -8.526 2.503 10
7.5469999 -8.4870005 2.4820001 10
7.6160002 -8.5290003 2.451 10
7.5599999 -8.5620003 2.477 10
7.6240001 -8.5620003 2.448 10
7.5510001 -8.5640001 2.4809999 10
7.5120001 -8.4829998 2.497 10
7.6129999 -8.4610004 2.4519999 10
7.6209998 -8.4499998 2.448 10
7.6079998 -8.5489998 2.4549999 10
7.6240001 -8.5059996 2.447 10
7.559 -8.4840002 2.477 10
7.6240001 -8.5209999 2.448 10
7.493 -8.4840002 2.506 10
7.585 -8.5039997 2.4649999 10
7.6230001 -8.4969997 2.448 10
7.5479999 -8.4709997 2.4809999 10
7.5 -8.4919996 2.503 10
7.6329999 -8.4429998 2.4430001 10
7.6100001 -8.4949999 2.454 10
7.553 -8.4820004 2.4790001 10
7.5970001 -8.4449997 2.4590001 10
7.4889998 -8.4969997 2.5079999 10
7.6160002 -8.5120001 2.451 10
7.539 -8.4490004 2.4849999 10
7.5679998 -8.5679998 2.473 10
7.6220002 -8.5089998 2.448 10
7.5890002 -8.4860001 2.4630001 10
7.6279998 -8.552 2.4460001 10
7.5419998 -8.5480003 2.4849999 10
7.6139998 -8.4829998 2.4519999 10
7.5510001 -8.4890003 2.48 10
7.5640001 -8.5310001 2.4749999 10
7.54 -8.467 2.4849999 10
7.52 -8.4659996 2.494 10
7.6170001 -8.4639997 2.45 10
7.553 -8.5550003 2.48 10
7.6240001 -8.5039997 2.448 10
7.6199999 -8.5089998 2.4489999 10
7.539 -8.4420004 2.4849999 10
7.4920001 -8.4420004 2.506 10
7.5689998 -8.5349998 2.473 10
7.5999999 -8.5 2.4579999 10
7.5830002 -8.5310001 2.4660001 10
7.5949998 -8.4429998 2.46 10
7.5209999 -8.4919996 2.494 10
7.4860001 -8.4759998 2.5090001 10
7.5599999 -8.526 2.477 10
7.5879998 -8.4720001 2.4630001 10
7.5209999 -8.5249996 2.494 10
7.5580001 -8.526 2.477 10
7.5570002 -8.5209999 2.4779999 10
7.5009999 -8.4449997 2.5020001 10
7.5219998 -8.5240002 2.494 10
7.6009998 -8.5649996 2.4590001 10
7.5819998 -8.4549999 2.4660001 10
7.4629998 -8.4469995 2.5190001 10
7.599 -8.5719995 2.46 10
7.5079999 -8.441 2.4990001 10
7.598 -8.5600004 2.46 10
7.6059999 -8.5600004 2.4560001 10
7.467 -8.4639997 2.5179999 10
7.5019999 -8.4440002 2.5020001 10
7.5580001 -8.5609999 2.4779999 10
7.5450001 -8.4989996 2.483 10
7.5910001 -8.4829998 2.4619999 10
7.5240002 -8.4849997 2.4920001 10
7.527 -8.4569998 2.4909999 10
7.5279999 -8.5719995 2.4909999 10
7.5510001 -8.4849997 2.48 10
7.6040001 -8.4549999 2.4560001 10
7.6240001 -8.5430002 2.448 10
7.553 -8.5419998 2.48 10
7.5209999 -8.573 2.494 10
7.5830002 -8.5349998 2.4660001 10
7.4850001 -8.4860001 2.51 10
7.5939999 -8.5159998 2.461 10
7.5180001 -8.4750004 2.4949999 10
7.638 -8.4650002 2.441 10
7.5570002 -8.5670004 2.4779999 10
7.631 -8.4580002 2.444 10
7.5339999 -8.5209999 2.4879999 10
7.6199999 -8.552 2.45 10
7.5219998 -8.5150003 2.494 10
7.6040001 -8.4910002 2.4560001 10
7.5549998 -8.4980001 2.4779999 10
7.5009999 -8.4809999 2.503 10
7.6079998 -8.5270004 2.4549999 10
7.5250001 -8.5220003 2.4920001 10
7.5339999 -8.5220003 2.4879999 10
7.5819998 -8.4709997 2.4660001 10
7.5430002 -8.5279999 2.484 10
7.5359998 -8.4890003 2.487 10
7.5040002 -8.5 2.5009999 10
7.4910002 -8.4989996 2.507 10
7.5500002 -8.4879999 2.4809999 10
7.5079999 -8.533 2.5 10
7.4840002 -8.4829998 2.51 10
7.52 -8.5229998 2.494 10
7.5890002 -8.4759998 2.4630001 10
7.5120001 -8.4849997 2.4979999 10
7.6149998 -8.559 2.4519999 10
7.5560002 -8.5559998 2.4790001 10
7.5180001 -8.5550003 2.4960001 10
7.5840001 -8.4639997 2.4649999 10
7.5650001 -8.4890003 2.474 10
7.5970001 -8.566 2.46 10
7.5749998 -8.448 2.4690001 10
7.5040002 -8.4870005 2.5009999 10
7.5279999 -8.493 2.49 10
7.5549998 -8.5150003 2.4790001 10
7.5549998 -8.4650002 2.4779999 10
7.6020002 -8.4610004 2.457 10
7.6370001 -8.4420004 2.441 10
7.5300002 -8.5469999 2.49 10
7.5349998 -8.5039997 2.487 10
7.5380001 -8.4969997 2.4860001 10
7.5500002 -8.4770002 2.48 10
7.586 -8.4540005 2.464 10
7.5630002 -8.5480003 2.4749999 10
7.5489998 -8.5240002 2.4820001 10
7.619 -8.4750004 2.4489999 10
7.5040002 -8.4790001 2.5009999 10
7.5760002 -8.5229998 2.4690001 10
7.5430002 -8.5080004 2.484 10
7.618 -8.5550003 2.451 10
7.6149998 -8.4960003 2.451 10
7.5890002 -8.5509996 2.464 10
7.5349998 -8.5229998 2.4879999 10
7.5339999 -8.4890003 2.4879999 10
7.5960002 -8.5609999 2.461 10
