# .PCD v0.7 - Point Cloud Data file format
VERSION 0.7
FIELDS x y z label
SIZE 4 4 4 4
TYPE F F F U
COUNT 1 1 1 1
WIDTH 1712
HEIGHT 1
VIEWPOINT 0 0 0 1 0 0 0
POINTS 1712
DATA ascii
5.5999999 -1.452 2.378 10
5.7529998 -1.392 2.4649999 10
5.6149998 -1.404 2.3859999 10
5.7049999 -1.319 2.437 10
5.6100001 -1.4349999 2.3829999 10
5.7379999 -1.406 2.457 10
5.6149998 -1.466 2.3859999 10
5.7360001 -1.403 2.4549999 10
5.5339999 -1.464 2.3399999 10
5.7550001 -1.48 2.467 10
5.572 -1.418 2.3610001 10
5.6659999 -1.335 2.415 10
5.7540002 -1.3380001 2.4649999 10
5.6960001 -1.273 2.4319999 10
5.5650001 -1.428 2.358 10
5.724 -1.4349999 2.4489999 10
5.723 -1.295 2.447 10
5.6729999 -1.476 2.4200001 10
5.7459998 -1.386 2.461 10
5.6880002 -1.388 2.428 10
5.7540002 -1.2690001 2.4649999 10
5.7329998 -1.382 2.454 10
5.6620002 -1.4069999 2.4130001 10
5.6820002 -1.335 2.424 10
5.599 -1.433 2.3770001 10
5.6529999 -1.3940001 2.408 10
5.6440001 -1.449 2.4030001 10
5.6040001 -1.409 2.3800001 10
5.7540002 -1.448 2.4660001 10
5.7119999 -1.4069999 2.4419999 10
5.6570001 -1.38 2.4100001 10
5.6929998 -1.3609999 2.431 10
5.7249999 -1.276 2.4489999 10
5.585 -1.475 2.369 10
5.763 -1.396 2.471 10
5.6020002 -1.362 2.378 10
5.6399999 -1.345 2.4000001 10
5.6409998 -1.39 2.401 10
5.7490001 -1.242 2.4619999 10
5.7140002 -1.263 2.4419999 10
5.6999998 -1.273 2.434 10
5.7329998 -1.34 2.4530001 10
5.7069998 -1.316 2.438 10
5.7080002 -1.336 2.4389999 10
5.5900002 -1.462 2.372 10
5.7059999 -1.2920001 2.438 10
5.6339998 -1.41 2.3970001 10
5.7420001 -1.344 2.4579999 10
5.704 -1.405 2.437 10
5.5419998 -1.418 2.3440001 10
5.6350002 -1.363 2.3970001 10
5.6040001 -1.4119999 2.3800001 10
5.6820002 -1.395 2.425 10
5.5619998 -1.448 2.3559999 10
5.7150002 -1.442 2.444 10
5.6149998 -1.386 2.3859999 10
5.6139998 -1.471 2.3859999 10
5.5110002 -1.456 2.3269999 10
5.723 -1.36 2.448 10
5.6810002 -1.329 2.424 10
5.7340002 -1.235 2.4530001 10
5.6469998 -1.408 2.404 10
5.7290001 -1.4349999 2.4519999 10
5.5960002 -1.478 2.3759999 10
5.7189999 -1.36 2.4460001 10
5.7090001 -1.311 2.4389999 10
5.665 -1.34 2.414 10
5.5630002 -1.447 2.3570001 10
5.6659999 -1.313 2.415 10
5.7280002 -1.416 2.451 10
5.6919999 -1.429 2.4300001 10
5.5879998 -1.472 2.3710001 10
5.546 -1.434 2.3469999 10
5.7399998 -1.401 2.4579999 10
5.711 -1.465 2.4419999 10
5.7589998 -1.401 2.4690001 10
5.6370001 -1.479 2.3989999 10
5.6550002 -1.455 2.4089999 10
5.6339998 -1.442 2.3970001 10
5.552 -1.441 2.3499999 10
5.652 -1.401 2.4070001 10
5.658 -1.4630001 2.411 10
5.652 -1.437 2.4070001 10
5.7249999 -1.277 2.4489999 10
5.6669998 -1.4069999 2.4159999 10
5.756 -1.438 2.467 10
5.5819998 -1.39 2.3670001 10
5.7080002 -1.3839999 2.4389999 10
5.691 -1.386 2.4300001 10
5.5739999 -1.454 2.3629999 10
5.7199998 -1.318 2.4460001 10
5.7340002 -1.312 2.454 10
5.7529998 -1.275 2.464 10
5.744 -1.447 2.46 10
5.6170001 -1.479 2.3870001 10
5.5229998 -1.466 2.3329999 10
5.6719999 -1.324 2.418 10
5.7290001 -1.341 2.451 10
5.7340002 -1.4170001 2.454 10
5.6370001 -1.426 2.3989999 10
5.6360002 -1.374 2.398 10
5.7129998 -1.461 2.4430001 10
5.7280002 -1.442 2.451 10
5.7519999 -1.25 2.464 10
5.7199998 -1.382 2.4460001 10
5.658 -1.409 2.411 10
5.6700001 -1.437 2.418 10
5.7129998 -1.303 2.4419999 10
5.7389998 -1.336 2.457 10
5.5780001 -1.3839999 2.365 10
5.737 -1.3710001 2.4560001 10
5.6900001 -1.362 2.4289999 10
5.7459998 -1.352 2.461 10
5.625 -1.454 2.392 10
5.7080002 -1.268 2.4389999 10
5.6469998 -1.325 2.404 10
5.598 -1.47 2.3759999 10
5.6560001 -1.381 2.4089999 10
5.7659998 -1.473 2.473 10
5.6259999 -1.428 2.3929999 10
5.7119999 -1.416 2.4419999 10
5.744 -1.281 2.46 10
5.6370001 -1.332 2.398 10
5.5599999 -1.48 2.355 10
5.651 -1.478 2.4070001 10
5.598 -1.39 2.3759999 10
5.5209999 -1.471 2.3329999 10
5.573 -1.439 2.362 10
5.6849999 -1.476 2.4260001 10
5.5900002 -1.4220001 2.372 10
5.6500001 -1.397 2.4059999 10
5.6789999 -1.443 2.4230001 10
5.7160001 -1.428 2.444 10
5.664 -1.457 2.414 10
5.6220002 -1.386 2.3900001 10
5.7129998 -1.4529999 2.4430001 10
5.75 -1.247 2.4630001 10
5.7090001 -1.426 2.4400001 10
5.5869999 -1.406 2.3699999 10
5.7449999 -1.358 2.46 10
5.5949998 -1.471 2.375 10
5.6389999 -1.3660001 2.4000001 10
5.6669998 -1.367 2.4159999 10
5.7090001 -1.42 2.4400001 10
5.6300001 -1.4 2.3940001 10
5.7259998 -1.316 2.4489999 10
5.7059999 -1.474 2.4389999 10
5.7280002 -1.267 2.45 10
5.723 -1.399 2.448 10
5.6680002 -1.329 2.4159999 10
5.6570001 -1.362 2.4100001 10
5.7519999 -1.3380001 2.464 10
5.7249999 -1.312 2.4489999 10
5.6009998 -1.408 2.378 10
5.6550002 -1.42 2.4089999 10
5.645 -1.35 2.4030001 10
5.526 -1.454 2.335 10
5.7350001 -1.289 2.454 10
5.6440001 -1.459 2.4030001 10
5.7150002 -1.28 2.4430001 10
5.743 -1.2309999 2.4590001 10
5.7470002 -1.275 2.461 10
5.632 -1.441 2.3959999 10
5.7020001 -1.478 2.4360001 10
5.6259999 -1.3839999 2.3929999 10
5.579 -1.382 2.365 10
5.5890002 -1.449 2.3710001 10
5.6869998 -1.359 2.427 10
5.717 -1.304 2.444 10
5.677 -1.309 2.421 10
5.6859999 -1.391 2.427 10
5.6919999 -1.402 2.4300001 10
5.5229998 -1.4450001 2.3340001 10
5.7129998 -1.409 2.4419999 10
5.7529998 -1.313 2.4649999 10
5.724 -1.308 2.448 10
5.6459999 -1.3710001 2.404 10
5.7129998 -1.393 2.4419999 10
5.7090001 -1.313 2.4400001 10
5.6919999 -1.465 2.4300001 10
5.7160001 -1.447 2.444 10
5.7150002 -1.428 2.444 10
5.7470002 -1.424 2.4619999 10
5.7259998 -1.318 2.4489999 10
5.658 -1.401 2.411 10
5.704 -1.306 2.4360001 10
5.6939998 -1.381 2.431 10
5.737 -1.324 2.4549999 10
5.631 -1.4 2.395 10
5.7140002 -1.278 2.4419999 10
5.7119999 -1.308 2.441 10
5.638 -1.341 2.3989999 10
5.6620002 -1.3279999 2.4130001 10
5.5710001 -1.416 2.3610001 10
5.5749998 -1.4 2.3629999 10
5.6739998 -1.475 2.4200001 10
5.5819998 -1.406 2.3670001 10
5.7010002 -1.466 2.4360001 10
5.6529999 -1.373 2.4070001 10
5.7059999 -1.303 2.438 10
5.7480001 -1.271 2.4619999 10
5.553 -1.475 2.3510001 10
5.743 -1.451 2.4590001 10
5.677 -1.392 2.421 10
5.6490002 -1.377 2.405 10
5.7010002 -1.4579999 2.4349999 10
5.6719999 -1.309 2.418 10
5.6069999 -1.405 2.381 10
5.7480001 -1.461 2.4630001 10
5.756 -1.4349999 2.467 10
5.5339999 -1.456 2.3399999 10
5.7490001 -1.444 2.4630001 10
5.6490002 -1.323 2.405 10
5.6069999 -1.421 2.381 10
5.5040002 -1.454 2.323 10
5.6760001 -1.419 2.421 10
5.6030002 -1.431 2.3789999 10
5.6469998 -1.3660001 2.404 10
5.757 -1.3710001 2.467 10
5.7319999 -1.416 2.4530001 10
5.5760002 -1.451 2.3640001 10
5.7119999 -1.321 2.441 10
5.6009998 -1.421 2.378 10
5.7259998 -1.471 2.45 10
5.5450001 -1.4220001 2.346 10
5.684 -1.332 2.4260001 10
5.5879998 -1.42 2.3710001 10
5.6030002 -1.405 2.3789999 10
5.6009998 -1.41 2.378 10
5.7509999 -1.255 2.4630001 10
5.5240002 -1.447 2.3340001 10
5.7350001 -1.3329999 2.454 10
5.744 -1.455 2.46 10
5.711 -1.4529999 2.441 10
5.6739998 -1.388 2.4200001 10
5.6139998 -1.3940001 2.385 10
5.7470002 -1.262 2.461 10
5.6760001 -1.312 2.4200001 10
5.7249999 -1.3710001 2.4489999 10
5.71 -1.284 2.4400001 10
5.7059999 -1.443 2.438 10
5.5609999 -1.447 2.3559999 10
5.7220001 -1.411 2.447 10
5.6799998 -1.455 2.424 10
5.5479999 -1.448 2.348 10
5.698 -1.323 2.4330001 10
5.6090002 -1.396 2.3829999 10
5.6620002 -1.316 2.4130001 10
5.573 -1.446 2.362 10
5.6599998 -1.408 2.4119999 10
5.6030002 -1.428 2.3789999 10
5.7020001 -1.271 2.4360001 10
5.6110001 -1.464 2.3840001 10
5.9520001 -1.324 2.549 10
5.9120002 -1.419 2.533 10
6.0009999 -1.354 2.569 10
5.8930001 -1.432 2.5250001 10
5.9489999 -1.3559999 2.5480001 10
5.8899999 -1.403 2.5239999 10
5.9879999 -1.37 2.563 10
5.9260001 -1.421 2.5380001 10
5.9619999 -1.329 2.553 10
5.9000001 -1.339 2.5280001 10
5.9530001 -1.444 2.549 10
5.8720002 -1.427 2.516 10
5.967 -1.293 2.5550001 10
5.9070001 -1.391 2.5309999 10
5.9809999 -1.428 2.5599999 10
5.9549999 -1.451 2.55 10
5.8740001 -1.383 2.517 10
5.9380002 -1.327 2.543 10
5.9920001 -1.365 2.5650001 10
5.902 -1.3710001 2.529 10
5.9889998 -1.461 2.563 10
5.9899998 -1.251 2.5650001 10
5.9959998 -1.257 2.5669999 10
5.9499998 -1.2869999 2.5480001 10
5.8709998 -1.424 2.516 10
5.9749999 -1.365 2.5580001 10
5.8579998 -1.472 2.5109999 10
5.823 -1.452 2.497 10
5.9359999 -1.346 2.5420001 10
5.9439998 -1.327 2.546 10
5.9580002 -1.302 2.5510001 10
5.8990002 -1.446 2.527 10
5.9569998 -1.439 2.55 10
5.9330001 -1.382 2.5409999 10
6.0009999 -1.348 2.569 10
5.9530001 -1.369 2.549 10
5.8509998 -1.449 2.5079999 10
5.915 -1.393 2.5339999 10
5.9829998 -1.258 2.5610001 10
6.0019999 -1.238 2.569 10
5.915 -1.375 2.5339999 10
6.0019999 -1.299 2.569 10
5.9120002 -1.336 2.533 10
5.9250002 -1.415 2.5380001 10
5.9910002 -1.293 2.5650001 10
5.8670001 -1.427 2.5139999 10
5.8189998 -1.438 2.4949999 10
5.8559999 -1.393 2.51 10
6.007 -1.355 2.5710001 10
5.9450002 -1.319 2.546 10
5.9840002 -1.322 2.562 10
5.9899998 -1.4400001 2.5639999 10
5.9089999 -1.352 2.5320001 10
5.8979998 -1.4119999 2.527 10
6.007 -1.351 2.5710001 10
5.8660002 -1.4529999 2.5139999 10
5.9829998 -1.432 2.5610001 10
5.9910002 -1.294 2.5650001 10
5.9759998 -1.324 2.559 10
6.0029998 -1.2970001 2.5699999 10
5.921 -1.4170001 2.536 10
5.9650002 -1.3789999 2.5539999 10
5.8260002 -1.448 2.4979999 10
6.0050001 -1.475 2.5699999 10
5.9889998 -1.363 2.5639999 10
5.8969998 -1.395 2.527 10
5.902 -1.4349999 2.529 10
5.9130001 -1.358 2.533 10
5.9679999 -1.427 2.5550001 10
5.9359999 -1.42 2.5420001 10
5.9650002 -1.3609999 2.5539999 10
5.948 -1.457 2.5469999 10
5.9920001 -1.317 2.5650001 10
6.0050001 -1.309 2.5699999 10
5.994 -1.266 2.566 10
5.8990002 -1.3890001 2.527 10
5.961 -1.351 2.552 10
5.941 -1.3710001 2.5439999 10
5.9660001 -1.4579999 2.5539999 10
5.9310002 -1.456 2.54 10
5.8600001 -1.478 2.5120001 10
5.8899999 -1.388 2.5239999 10
5.961 -1.37 2.552 10
5.895 -1.433 2.526 10
5.9629998 -1.365 2.553 10
5.8400002 -1.448 2.5039999 10
5.9879999 -1.357 2.563 10
5.9530001 -1.447 2.549 10
5.9460001 -1.4579999 2.546 10
5.921 -1.47 2.536 10
5.9629998 -1.324 2.553 10
5.8990002 -1.351 2.5280001 10
5.862 -1.4069999 2.5120001 10
5.836 -1.46 2.5020001 10
5.9320002 -1.436 2.5409999 10
5.941 -1.295 2.5439999 10
5.9860001 -1.474 2.562 10
5.8379998 -1.448 2.503 10
5.9640002 -1.301 2.5539999 10
5.9749999 -1.421 2.5580001 10
5.9650002 -1.373 2.5539999 10
6.0050001 -1.258 2.5710001 10
6.0050001 -1.4220001 2.5699999 10
5.9390001 -1.3 2.5439999 10
5.954 -1.3150001 2.55 10
5.901 -1.433 2.5280001 10
5.9229999 -1.393 2.5369999 10
5.9310002 -1.429 2.54 10
5.9920001 -1.3839999 2.5650001 10
5.941 -1.357 2.5450001 10
5.9629998 -1.455 2.553 10
5.8930001 -1.419 2.5250001 10
6.0050001 -1.3380001 2.5699999 10
5.8740001 -1.477 2.517 10
5.9590001 -1.321 2.552 10
6.013 -1.365 2.573 10
5.9949999 -1.301 2.566 10
5.9809999 -1.369 2.5599999 10
5.8579998 -1.474 2.5109999 10
5.948 -1.35 2.5469999 10
5.941 -1.377 2.5439999 10
5.9489999 -1.426 2.5480001 10
5.9380002 -1.363 2.543 10
6.0029998 -1.3200001 2.569 10
5.9510002 -1.4170001 2.5480001 10
5.8829999 -1.37 2.5209999 10
5.9439998 -1.322 2.546 10
5.9959998 -1.238 2.5669999 10
5.9419999 -1.48 2.5439999 10
5.8800001 -1.47 2.52 10
5.8720002 -1.4069999 2.516 10
5.9879999 -1.321 2.563 10
5.9619999 -1.4680001 2.553 10
5.9489999 -1.462 2.5469999 10
5.8369999 -1.469 2.5020001 10
5.9169998 -1.396 2.5350001 10
5.8179998 -1.4809999 2.4949999 10
6.0079999 -1.351 2.5710001 10
5.9429998 -1.37 2.5450001 10
5.8670001 -1.4349999 2.5150001 10
5.8899999 -1.432 2.5239999 10
5.9910002 -1.365 2.5650001 10
5.829 -1.437 2.4990001 10
6 -1.2359999 2.569 10
5.9770002 -1.358 2.559 10
5.9569998 -1.369 2.5510001 10
5.8969998 -1.446 2.527 10
5.9229999 -1.385 2.5369999 10
5.9819999 -1.339 2.5610001 10
5.9219999 -1.341 2.5369999 10
6.0009999 -1.443 2.5680001 10
5.9959998 -1.4299999 2.566 10
5.9089999 -1.41 2.5309999 10
5.9419999 -1.479 2.5450001 10
5.8309999 -1.434 2.5 10
5.9780002 -1.2690001 2.5599999 10
5.9590001 -1.4529999 2.552 10
6.0089998 -1.352 2.572 10
5.8829999 -1.3710001 2.5209999 10
5.8039999 -1.469 2.4890001 10
5.9000001 -1.388 2.5280001 10
5.8239999 -1.465 2.497 10
6.0019999 -1.307 2.569 10
5.987 -1.342 2.563 10
6 -1.383 2.5680001 10
5.9250002 -1.398 2.5380001 10
5.9359999 -1.452 2.5420001 10
5.9590001 -1.319 2.552 10
5.967 -1.4809999 2.5539999 10
5.8499999 -1.433 2.5079999 10
6.0050001 -1.391 2.5699999 10
5.8829999 -1.4349999 2.5209999 10
5.914 -1.454 2.533 10
5.8899999 -1.473 2.5239999 10
5.8119998 -1.4630001 2.4920001 10
5.8559999 -1.423 2.51 10
5.9920001 -1.411 2.5650001 10
5.9699998 -1.397 2.556 10
5.8629999 -1.434 2.513 10
5.934 -1.344 2.5420001 10
5.9910002 -1.409 2.5639999 10
5.8509998 -1.475 2.5079999 10
5.9749999 -1.444 2.5580001 10
5.9429998 -1.349 2.5450001 10
6.0029998 -1.376 2.569 10
6 -1.349 2.5680001 10
5.8860002 -1.392 2.5220001 10
5.7909999 -1.48 2.484 10
6.0110002 -1.3329999 2.572 10
5.8559999 -1.45 2.51 10
5.8730001 -1.374 2.517 10
5.8449998 -1.42 2.506 10
5.974 -1.39 2.5580001 10
5.868 -1.414 2.5150001 10
5.9460001 -1.395 2.546 10
5.9520001 -1.325 2.549 10
5.9980001 -1.35 2.5669999 10
5.9400001 -1.393 2.5439999 10
5.8639998 -1.419 2.513 10
5.9219999 -1.321 2.5369999 10
5.9959998 -1.283 2.5669999 10
5.9190001 -1.367 2.536 10
5.8600001 -1.397 2.5120001 10
5.9980001 -1.2410001 2.5680001 10
5.9970002 -1.4529999 2.5669999 10
5.9850001 -1.309 2.562 10
5.9980001 -1.42 2.5669999 10
5.9829998 -1.476 2.5610001 10
5.9450002 -1.387 2.546 10
5.9899998 -1.332 2.5639999 10
5.961 -1.304 2.552 10
5.9299998 -1.375 2.54 10
5.8909998 -1.399 2.5239999 10
5.8790002 -1.444 2.5190001 10
5.9889998 -1.2460001 2.5639999 10
5.9619999 -1.469 2.553 10
5.8439999 -1.4630001 2.5050001 10
6.0029998 -1.381 2.569 10
5.9990001 -1.36 2.5680001 10
5.941 -1.472 2.5439999 10
5.9099998 -1.401 2.5320001 10
5.8779998 -1.438 2.5190001 10
5.987 -1.476 2.563 10
5.9089999 -1.329 2.5320001 10
5.8790002 -1.457 2.5190001 10
5.816 -1.467 2.494 10
5.9780002 -1.387 2.559 10
5.8860002 -1.36 2.5220001 10
6.0120001 -1.455 2.573 10
5.9289999 -1.406 2.54 10
5.967 -1.398 2.5550001 10
5.9619999 -1.3380001 2.553 10
6.006 -1.277 2.5710001 10
5.8870001 -1.375 2.5220001 10
5.908 -1.4529999 2.5309999 10
5.842 -1.446 2.5039999 10
5.8790002 -1.447 2.5190001 10
5.9780002 -1.444 2.559 10
5.8099999 -1.466 2.4909999 10
5.9640002 -1.462 2.5539999 10
5.914 -1.3279999 2.5339999 10
5.881 -1.423 2.52 10
5.9699998 -1.285 2.556 10
5.8119998 -1.47 2.4920001 10
5.961 -1.447 2.552 10
5.9770002 -1.369 2.559 10
6.0019999 -1.238 2.569 10
5.9790001 -1.334 2.5599999 10
5.882 -1.414 2.5209999 10
5.9860001 -1.421 2.562 10
5.9910002 -1.245 2.5650001 10
5.9510002 -1.341 2.5480001 10
5.7859998 -1.477 2.4820001 10
5.8239999 -1.472 2.497 10
5.882 -1.4170001 2.52 10
5.994 -1.2410001 2.566 10
5.9520001 -1.388 2.549 10
5.9660001 -1.2690001 2.5550001 10
5.8759999 -1.466 2.5179999 10
5.8499999 -1.472 2.5079999 10
5.9809999 -1.321 2.5610001 10
5.9520001 -1.277 2.549 10
5.895 -1.469 2.526 10
5.9990001 -1.29 2.5680001 10
5.9679999 -1.392 2.5550001 10
5.9310002 -1.459 2.54 10
5.8000002 -1.464 2.487 10
5.862 -1.442 2.5120001 10
5.8769999 -1.376 2.5190001 10
5.948 -1.4119999 2.5469999 10
5.8969998 -1.408 2.527 10
5.9330001 -1.418 2.5409999 10
5.9889998 -1.267 2.5639999 10
5.9990001 -1.291 2.5680001 10
5.9050002 -1.348 2.53 10
5.835 -1.4170001 2.5020001 10
5.9380002 -1.443 2.543 10
5.8590002 -1.469 2.5109999 10
6.0100002 -1.3559999 2.572 10
5.9879999 -1.438 2.563 10
5.8959999 -1.3940001 2.526 10
5.8309999 -1.478 2.5 10
6.0120001 -1.416 2.573 10
5.9660001 -1.443 2.5539999 10
5.9809999 -1.293 2.5610001 10
5.8330002 -1.479 2.5009999 10
5.8270001 -1.464 2.4979999 10
5.9299998 -1.439 2.54 10
5.902 -1.41 2.5280001 10
5.9489999 -1.283 2.5480001 10
5.967 -1.421 2.5550001 10
5.8800001 -1.4450001 2.52 10
5.8400002 -1.461 2.503 10
5.954 -1.369 2.55 10
5.9949999 -1.378 2.566 10
6.0079999 -1.462 2.5710001 10
5.9219999 -1.3660001 2.5369999 10
5.9710002 -1.434 2.556 10
5.9970002 -1.434 2.5669999 10
5.9679999 -1.256 2.556 10
5.9780002 -1.406 2.559 10
5.9829998 -1.322 2.5610001 10
5.9359999 -1.34 2.5420001 10
5.8200002 -1.472 2.4960001 10
5.941 -1.316 2.5439999 10
5.947 -1.352 2.5469999 10
5.9320002 -1.3049999 2.5409999 10
5.9510002 -1.317 2.5480001 10
5.9860001 -1.249 2.563 10
5.9809999 -1.357 2.5599999 10
5.8119998 -1.447 2.4920001 10
5.9320002 -1.48 2.54 10
5.974 -1.393 2.5569999 10
5.98 -1.431 2.5599999 10
5.8829999 -1.467 2.5209999 10
5.9840002 -1.429 2.5610001 10
5.9829998 -1.392 2.5610001 10
5.9889998 -1.436 2.5639999 10
5.9860001 -1.318 2.562 10
6.0149999 -1.4400001 2.5739999 10
5.882 -1.4529999 2.52 10
5.8730001 -1.404 2.517 10
5.993 -1.409 2.5650001 10
5.8720002 -1.437 2.516 10
5.9419999 -1.288 2.5450001 10
5.9039998 -1.386 2.53 10
5.9299998 -1.4809999 2.54 10
5.9130001 -1.4119999 2.533 10
5.875 -1.3789999 2.5179999 10
5.9109998 -1.337 2.5320001 10
5.9619999 -1.461 2.553 10
5.921 -1.353 2.536 10
5.9920001 -1.4809999 2.5650001 10
5.9689999 -1.47 2.5550001 10
5.9660001 -1.359 2.5539999 10
5.9569998 -1.3839999 2.5510001 10
5.902 -1.41 2.529 10
5.961 -1.344 2.553 10
5.8899999 -1.4069999 2.5239999 10
5.8470001 -1.4579999 2.506 10
5.9320002 -1.461 2.54 10
5.9699998 -1.319 2.556 10
5.9879999 -1.238 2.5639999 10
5.862 -1.433 2.5120001 10
5.908 -1.452 2.5309999 10
5.8449998 -1.281 2.5039999 10
5.7789998 -1.4450001 2.4779999 10
5.8140001 -1.421 2.493 10
5.7659998 -1.311 2.471 10
5.7680001 -1.421 2.473 10
5.8239999 -1.318 2.4949999 10
5.9260001 -1.2460001 2.5380001 10
5.8210001 -1.414 2.4960001 10
5.8179998 -1.307 2.493 10
5.796 -1.322 2.484 10
5.7719998 -1.256 2.473 10
5.7610002 -1.2309999 2.4679999 10
5.9000001 -1.331 2.5280001 10
5.7969999 -1.431 2.4860001 10
5.8909998 -1.255 2.523 10
5.7909999 -1.42 2.483 10
5.9229999 -1.242 2.536 10
5.9229999 -1.253 2.5369999 10
5.822 -1.393 2.4960001 10
5.8000002 -1.336 2.4860001 10
5.763 -1.309 2.47 10
5.7659998 -1.334 2.471 10
5.9070001 -1.316 2.5309999 10
5.902 -1.291 2.5280001 10
5.763 -1.337 2.47 10
5.789 -1.397 2.4820001 10
5.7930002 -1.4630001 2.4849999 10
5.777 -1.284 2.4749999 10
5.7690001 -1.353 2.473 10
5.8730001 -1.238 2.5150001 10
5.8520002 -1.295 2.507 10
5.823 -1.368 2.4960001 10
5.902 -1.321 2.529 10
5.8309999 -1.3150001 2.4990001 10
5.8699999 -1.336 2.5150001 10
5.7779999 -1.262 2.4749999 10
5.8390002 -1.3609999 2.503 10
5.8080001 -1.244 2.4879999 10
5.7729998 -1.334 2.474 10
5.9060001 -1.312 2.53 10
5.8080001 -1.318 2.4890001 10
5.7859998 -1.3940001 2.4809999 10
5.8200002 -1.2819999 2.493 10
5.855 -1.308 2.5090001 10
5.7719998 -1.284 2.473 10
5.7950001 -1.459 2.4849999 10
5.869 -1.302 2.5139999 10
5.902 -1.304 2.5280001 10
5.7649999 -1.341 2.471 10
5.8769999 -1.258 2.517 10
5.79 -1.36 2.4820001 10
5.9120002 -1.312 2.533 10
5.8790002 -1.26 2.5179999 10
5.7979999 -1.395 2.4860001 10
5.77 -1.3789999 2.474 10
5.802 -1.399 2.4879999 10
5.8340001 -1.3150001 2.5 10
5.803 -1.418 2.4879999 10
5.7870002 -1.37 2.4809999 10
5.8460002 -1.337 2.5050001 10
5.7789998 -1.3660001 2.477 10
5.8200002 -1.433 2.4949999 10
5.7839999 -1.33 2.4790001 10
5.9299998 -1.235 2.539 10
5.8150001 -1.304 2.4909999 10
5.8629999 -1.308 2.5120001 10
5.7919998 -1.238 2.4809999 10
5.7540002 -1.245 2.4649999 10
5.8299999 -1.295 2.4979999 10
5.8460002 -1.317 2.5050001 10
5.7979999 -1.311 2.4849999 10
5.9070001 -1.2460001 2.529 10
5.868 -1.251 2.513 10
5.9829998 -1.237 2.562 10
5.8959999 -1.248 2.5250001 10
5.8140001 -1.258 2.4909999 10
5.9159999 -1.251 2.533 10
5.934 -1.245 2.5409999 10
5.8260002 -1.3099999 2.4960001 10
5.895 -1.309 2.5250001 10
5.7870002 -1.3609999 2.4809999 10
5.8639998 -1.311 2.5120001 10
5.783 -1.474 2.4809999 10
5.802 -1.367 2.487 10
5.9130001 -1.24 2.5320001 10
5.8179998 -1.378 2.494 10
5.8140001 -1.286 2.4909999 10
5.8600001 -1.294 2.51 10
5.7789998 -1.2869999 2.4760001 10
5.8610001 -1.3430001 2.5120001 10
5.8449998 -1.298 2.5039999 10
5.8119998 -1.2920001 2.49 10
5.8709998 -1.307 2.5150001 10
5.7729998 -1.239 2.473 10
5.7690001 -1.378 2.473 10
5.8730001 -1.288 2.516 10
5.8439999 -1.258 2.503 10
5.7870002 -1.399 2.4809999 10
5.8979998 -1.288 2.527 10
5.823 -1.306 2.4949999 10
5.8099999 -1.313 2.49 10
5.941 -1.265 2.5439999 10
5.8010001 -1.307 2.4860001 10
5.8730001 -1.24 2.5150001 10
5.816 -1.4 2.493 10
5.77 -1.245 2.4719999 10
5.9359999 -1.271 2.5420001 10
5.9029999 -1.327 2.529 10
5.8520002 -1.2869999 2.507 10
5.8249998 -1.28 2.4949999 10
5.7639999 -1.271 2.47 10
5.895 -1.34 2.526 10
5.8499999 -1.268 2.506 10
5.8140001 -1.237 2.49 10
5.8169999 -1.284 2.4920001 10
5.8699999 -1.262 2.5139999 10
5.881 -1.336 2.52 10
5.8039999 -1.359 2.4879999 10
5.8140001 -1.372 2.4920001 10
5.777 -1.41 2.477 10
5.7719998 -1.439 2.4749999 10
5.8309999 -1.415 2.5 10
5.934 -1.232 2.5409999 10
5.869 -1.244 2.513 10
5.7979999 -1.4529999 2.487 10
5.8860002 -1.331 2.5220001 10
5.777 -1.42 2.477 10
5.848 -1.3710001 2.506 10
5.9689999 -1.24 2.556 10
5.7839999 -1.2970001 2.4790001 10
5.934 -1.274 2.5409999 10
5.7849998 -1.29 2.4790001 10
5.8319998 -1.347 2.4990001 10
5.9219999 -1.268 2.536 10
5.8039999 -1.311 2.487 10
5.7709999 -1.293 2.473 10
5.901 -1.317 2.5280001 10
5.7810001 -1.381 2.4779999 10
5.777 -1.466 2.4779999 10
5.8940001 -1.294 2.5250001 10
5.8779998 -1.288 2.5179999 10
5.789 -1.237 2.48 10
5.8169999 -1.396 2.494 10
5.7880001 -1.284 2.48 10
5.7950001 -1.299 2.483 10
5.7750001 -1.405 2.4760001 10
5.816 -1.24 2.4909999 10
5.8569999 -1.3559999 2.51 10
5.7940001 -1.426 2.484 10
5.8449998 -1.316 2.5039999 10
5.8670001 -1.336 2.5139999 10
5.836 -1.2690001 2.5 10
5.776 -1.391 2.4760001 10
5.777 -1.281 2.4749999 10
5.7610002 -1.341 2.4690001 10
5.8010001 -1.3099999 2.4860001 10
5.8130002 -1.3940001 2.4920001 10
5.8309999 -1.3789999 2.4990001 10
5.7800002 -1.258 2.4760001 10
5.8260002 -1.403 2.4979999 10
5.7579999 -1.256 2.467 10
5.908 -1.298 2.5309999 10
5.809 -1.314 2.4890001 10
5.8559999 -1.2869999 2.5090001 10
5.8429999 -1.365 2.5039999 10
5.8870001 -1.242 2.5209999 10
5.7810001 -1.397 2.4790001 10
5.8080001 -1.411 2.49 10
5.8010001 -1.3430001 2.4860001 10
5.8169999 -1.408 2.494 10
5.7680001 -1.336 2.4719999 10
5.7690001 -1.329 2.473 10
5.8720002 -1.33 2.516 10
5.875 -1.362 2.5179999 10
5.8470001 -1.346 2.506 10
5.777 -1.365 2.4760001 10
5.855 -1.346 2.5090001 10
5.7740002 -1.4630001 2.477 10
5.7639999 -1.329 2.471 10
5.8010001 -1.429 2.4879999 10
5.776 -1.476 2.4779999 10
5.7740002 -1.418 2.4760001 10
5.77 -1.258 2.4719999 10
5.902 -1.283 2.5280001 10
5.888 -1.281 2.5220001 10
5.8499999 -1.345 2.507 10
5.8699999 -1.234 2.5139999 10
5.848 -1.309 2.5050001 10
5.842 -1.307 2.503 10
5.7639999 -1.272 2.47 10
5.8889999 -1.288 2.5220001 10
5.8390002 -1.34 2.5020001 10
5.7880001 -1.3200001 2.4809999 10
5.8839998 -1.307 2.5209999 10
5.7690001 -1.373 2.473 10
5.902 -1.329 2.529 10
5.848 -1.342 2.506 10
5.7810001 -1.434 2.4790001 10
5.8130002 -1.424 2.493 10
5.7870002 -1.3660001 2.4809999 10
5.777 -1.479 2.4779999 10
5.823 -1.234 2.494 10
5.7930002 -1.301 2.4820001 10
5.7550001 -1.265 2.4660001 10
5.7870002 -1.465 2.4820001 10
5.8369999 -1.339 2.5020001 10
5.789 -1.375 2.4820001 10
5.8530002 -1.351 2.5079999 10
5.9369998 -1.281 2.543 10
5.8909998 -1.283 2.5239999 10
5.9380002 -1.2309999 2.543 10
5.855 -1.253 2.5079999 10
5.789 -1.368 2.4820001 10
5.967 -1.235 2.5550001 10
5.7740002 -1.3890001 2.4760001 10
5.7800002 -1.339 2.477 10
5.8629999 -1.238 2.5109999 10
5.8249998 -1.233 2.4949999 10
5.8470001 -1.346 2.506 10
5.8119998 -1.332 2.4909999 10
5.7579999 -1.242 2.467 10
5.7680001 -1.413 2.473 10
5.7639999 -1.271 2.4690001 10
5.8400002 -1.373 2.503 10
5.7919998 -1.3380001 2.4820001 10
5.8509998 -1.238 2.506 10
5.9159999 -1.2460001 2.533 10
5.8639998 -1.308 2.5120001 10
5.8200002 -1.26 2.493 10
5.901 -1.248 2.527 10
5.8099999 -1.3609999 2.49 10
5.8590002 -1.2589999 2.5090001 10
5.9390001 -1.251 2.543 10
5.776 -1.296 2.4749999 10
5.8369999 -1.289 2.5009999 10
5.8150001 -1.314 2.4920001 10
5.8899999 -1.3380001 2.5239999 10
5.9720001 -1.25 2.5569999 10
5.8270001 -1.39 2.4979999 10
5.7810001 -1.456 2.4790001 10
5.8709998 -1.255 2.5150001 10
5.7979999 -1.381 2.4849999 10
5.809 -1.296 2.4890001 10
5.7820001 -1.419 2.48 10
5.7789998 -1.459 2.4790001 10
5.8979998 -1.24 2.526 10
5.9380002 -1.266 2.543 10
5.8449998 -1.359 2.5050001 10
5.8920002 -1.238 2.523 10
5.7800002 -1.256 2.4760001 10
5.8829999 -1.245 2.5190001 10
5.908 -1.291 2.5309999 10
5.8850002 -1.353 2.5220001 10
5.8579998 -1.33 2.51 10
5.7989998 -1.322 2.4849999 10
5.8260002 -1.42 2.4979999 10
5.7729998 -1.436 2.4760001 10
5.7800002 -1.342 2.477 10
5.8060002 -1.434 2.49 10
5.8369999 -1.257 2.5 10
5.902 -1.245 2.527 10
5.7680001 -1.454 2.474 10
5.8720002 -1.303 2.516 10
5.803 -1.267 2.4860001 10
5.796 -1.289 2.483 10
5.901 -1.3049999 2.5280001 10
5.8369999 -1.3710001 2.5020001 10
5.8769999 -1.2359999 2.517 10
5.7979999 -1.423 2.4860001 10
5.7979999 -1.233 2.483 10
5.79 -1.33 2.4809999 10
5.888 -1.251 2.5220001 10
5.9050002 -1.249 2.529 10
5.8579998 -1.331 2.51 10
5.8940001 -1.2640001 2.5239999 10
5.7989998 -1.341 2.4860001 10
5.9289999 -1.274 2.539 10
5.7620001 -1.3049999 2.4690001 10
5.868 -1.242 2.513 10
5.8330002 -1.3380001 2.5 10
5.823 -1.299 2.4949999 10
5.8720002 -1.2460001 2.5150001 10
5.7579999 -1.257 2.467 10
5.8730001 -1.344 2.517 10
5.9050002 -1.295 2.53 10
5.7620001 -1.2640001 2.4690001 10
5.901 -1.242 2.527 10
5.7880001 -1.3 2.48 10
5.888 -1.291 2.5220001 10
5.947 -1.274 2.5469999 10
5.7940001 -1.454 2.4849999 10
5.7919998 -1.2690001 2.4809999 10
5.7620001 -1.3200001 2.4690001 10
5.8649998 -1.322 2.513 10
5.7940001 -1.24 2.4820001 10
5.8709998 -1.3049999 2.5150001 10
5.8130002 -1.257 2.49 10
5.8610001 -1.296 2.5109999 10
5.822 -1.2690001 2.494 10
5.8759999 -1.279 2.517 10
5.8049998 -1.301 2.487 10
5.8590002 -1.273 2.51 10
5.8189998 -1.242 2.4920001 10
5.862 -1.272 2.5109999 10
5.8499999 -1.345 2.507 10
5.8340001 -1.3890001 2.5009999 10
5.849 -1.399 2.507 10
5.7950001 -1.447 2.4849999 10
5.8969998 -1.3 2.526 10
5.7979999 -1.258 2.484 10
5.8390002 -1.24 2.5009999 10
5.8509998 -1.318 2.507 10
5.7820001 -1.4680001 2.48 10
5.9549999 -1.243 2.55 10
5.8189998 -1.237 2.4920001 10
5.8509998 -1.28 2.506 10
5.7820001 -1.25 2.477 10
5.9380002 -1.272 2.543 10
5.8280001 -1.3839999 2.4979999 10
5.8779998 -1.362 2.5190001 10
5.9159999 -1.271 2.5339999 10
5.8870001 -1.237 2.5209999 10
5.7680001 -1.399 2.473 10
5.8520002 -1.365 2.5079999 10
5.8670001 -1.3660001 2.5139999 10
5.7919998 -1.457 2.484 10
5.8530002 -1.262 2.507 10
5.948 -1.275 2.5469999 10
5.8060002 -1.325 2.4879999 10
5.948 -1.248 2.5469999 10
5.8860002 -1.353 2.5220001 10
5.927 -1.25 2.5380001 10
5.8969998 -1.296 2.526 10
5.7950001 -1.405 2.4849999 10
5.9380002 -1.242 2.543 10
5.8520002 -1.28 2.507 10
5.8099999 -1.378 2.4909999 10
5.849 -1.354 2.507 10
5.8299999 -1.299 2.4979999 10
5.8039999 -1.428 2.4890001 10
5.9310002 -1.256 2.54 10
5.809 -1.247 2.4879999 10
5.881 -1.276 2.5190001 10
6.0700002 -1.472 2.5880001 10
6.2600002 -1.327 2.635 10
6.2800002 -1.418 2.641 10
6.3109999 -1.354 2.648 10
6.263 -1.376 2.6359999 10
6.3260002 -1.476 2.652 10
6.2909999 -1.39 2.6429999 10
6.3260002 -1.432 2.652 10
6.1820002 -1.452 2.6159999 10
6.1110001 -1.437 2.598 10
6.3249998 -1.314 2.652 10
6.3260002 -1.46 2.652 10
6.2740002 -1.449 2.6389999 10
6.3249998 -1.337 2.652 10
6.2020001 -1.462 2.6210001 10
6.138 -1.405 2.605 10
6.1220002 -1.455 2.6010001 10
6.2490001 -1.3 2.6329999 10
6.1859999 -1.406 2.6170001 10
6.1849999 -1.416 2.6170001 10
6.3080001 -1.452 2.648 10
6.2150002 -1.339 2.6240001 10
6.224 -1.471 2.6270001 10
6.2389998 -1.477 2.6300001 10
6.0640001 -1.465 2.5869999 10
6.2820001 -1.276 2.641 10
6.257 -1.347 2.635 10
6.1170001 -1.414 2.5999999 10
6.3340001 -1.248 2.654 10
6.3049998 -1.275 2.6459999 10
6.0879998 -1.454 2.592 10
6.244 -1.403 2.632 10
6.2529998 -1.339 2.6340001 10
6.2480001 -1.411 2.6329999 10
6.296 -1.3940001 2.645 10
6.1750002 -1.48 2.6140001 10
6.21 -1.377 2.6229999 10
6.2579999 -1.429 2.635 10
6.1680002 -1.438 2.6129999 10
6.2119999 -1.423 2.6240001 10
6.1750002 -1.398 2.6140001 10
6.1040001 -1.457 2.5969999 10
6.3189998 -1.409 2.6500001 10
6.2789998 -1.275 2.6400001 10
6.316 -1.377 2.6500001 10
6.2750001 -1.325 2.6389999 10
6.3049998 -1.36 2.6470001 10
6.303 -1.359 2.6459999 10
6.3169999 -1.455 2.6500001 10
6.2670002 -1.314 2.6370001 10
6.276 -1.475 2.6400001 10
6.184 -1.42 2.6170001 10
6.1160002 -1.449 2.5999999 10
6.2319999 -1.332 2.628 10
6.3239999 -1.253 2.651 10
6.2680001 -1.358 2.6370001 10
6.1030002 -1.448 2.596 10
6.2839999 -1.437 2.642 10
6.1869998 -1.397 2.6170001 10
6.1849999 -1.377 2.6170001 10
6.3260002 -1.253 2.652 10
6.276 -1.455 2.6400001 10
6.2919998 -1.303 2.6429999 10
6.1589999 -1.4220001 2.6099999 10
6.303 -1.414 2.6459999 10
6.1360002 -1.4069999 2.6040001 10
6.296 -1.323 2.6440001 10
6.3109999 -1.326 2.648 10
6.3140001 -1.369 2.6489999 10
6.217 -1.471 2.625 10
6.2789998 -1.378 2.6400001 10
6.1300001 -1.4170001 2.6029999 10
6.198 -1.4680001 2.6199999 10
6.3189998 -1.284 2.6500001 10
6.3119998 -1.286 2.648 10
6.27 -1.396 2.638 10
6.3169999 -1.331 2.6500001 10
6.2649999 -1.437 2.6370001 10
6.2649999 -1.438 2.6370001 10
6.1529999 -1.404 2.609 10
6.3010001 -1.286 2.6459999 10
6.316 -1.3940001 2.6500001 10
6.2340002 -1.4 2.6289999 10
6.2940001 -1.439 2.6440001 10
6.0710001 -1.47 2.5880001 10
6.3280001 -1.335 2.652 10
6.2620001 -1.288 2.6359999 10
6.1750002 -1.482 2.6140001 10
6.1989999 -1.368 2.6199999 10
6.2909999 -1.426 2.6440001 10
6.3379998 -1.274 2.655 10
6.3239999 -1.2869999 2.651 10
6.158 -1.402 2.6099999 10
6.1690001 -1.472 2.6129999 10
6.0879998 -1.465 2.5929999 10
6.0630002 -1.465 2.586 10
6.204 -1.41 2.6210001 10
6.2820001 -1.398 2.641 10
6.2880001 -1.3660001 2.642 10
6.2820001 -1.418 2.641 10
6.1279998 -1.466 2.6029999 10
6.3150001 -1.449 2.6489999 10
6.237 -1.387 2.6300001 10
6.1690001 -1.388 2.6129999 10
6.3150001 -1.2640001 2.6489999 10
6.2810001 -1.381 2.641 10
6.1129999 -1.436 2.599 10
6.2389998 -1.446 2.6300001 10
6.3130002 -1.285 2.6489999 10
6.2160001 -1.327 2.6240001 10
6.1760001 -1.4170001 2.615 10
6.3010001 -1.405 2.6459999 10
6.1389999 -1.477 2.6059999 10
6.289 -1.391 2.6429999 10
6.3210001 -1.4579999 2.651 10
6.1989999 -1.403 2.6199999 10
6.2989998 -1.3660001 2.645 10
6.2810001 -1.3329999 2.641 10
6.335 -1.238 2.654 10
6.0900002 -1.4529999 2.5929999 10
6.2810001 -1.3279999 2.641 10
6.3039999 -1.271 2.6459999 10
6.1350002 -1.432 2.6040001 10
6.2740002 -1.334 2.6389999 10
6.1760001 -1.443 2.615 10
6.1360002 -1.4 2.605 10
6.3140001 -1.454 2.6489999 10
6.1259999 -1.411 2.602 10
6.1090002 -1.464 2.598 10
6.2160001 -1.461 2.625 10
6.1599998 -1.452 2.6110001 10
6.3070002 -1.2920001 2.6470001 10
6.2950001 -1.284 2.6440001 10
6.2670002 -1.314 2.6370001 10
6.3169999 -1.26 2.6489999 10
6.3000002 -1.441 2.6459999 10
6.2659998 -1.353 2.6370001 10
6.3109999 -1.33 2.648 10
6.2690001 -1.374 2.638 10
6.105 -1.45 2.5969999 10
6.257 -1.447 2.635 10
6.3039999 -1.35 2.6459999 10
6.2309999 -1.3839999 2.628 10
6.1100001 -1.476 2.598 10
6.276 -1.399 2.6400001 10
6.2049999 -1.449 2.622 10
6.336 -1.35 2.655 10
6.2090001 -1.46 2.6229999 10
6.217 -1.426 2.625 10
6.3460002 -1.239 2.6570001 10
6.3140001 -1.358 2.6489999 10
6.2969999 -1.283 2.645 10
6.2020001 -1.4220001 2.6210001 10
6.2969999 -1.47 2.645 10
6.244 -1.323 2.631 10
6.3280001 -1.348 2.652 10
6.1989999 -1.388 2.6199999 10
6.2800002 -1.383 2.6400001 10
6.2080002 -1.456 2.6229999 10
6.322 -1.234 2.651 10
6.1069999 -1.472 2.5969999 10
6.1469998 -1.47 2.6070001 10
6.322 -1.255 2.651 10
6.158 -1.459 2.6099999 10
6.2399998 -1.354 2.631 10
6.1539998 -1.382 2.609 10
6.3319998 -1.33 2.6530001 10
6.2779999 -1.364 2.6400001 10
6.164 -1.454 2.612 10
6.21 -1.362 2.6229999 10
6.3340001 -1.252 2.654 10
6.1719999 -1.447 2.6140001 10
6.2950001 -1.396 2.6440001 10
6.1100001 -1.473 2.598 10
6.0580001 -1.472 2.585 10
6.2389998 -1.428 2.6300001 10
6.335 -1.373 2.654 10
6.1999998 -1.36 2.6199999 10
6.1490002 -1.418 2.608 10
6.2490001 -1.309 2.6329999 10
6.171 -1.405 2.6129999 10
6.3249998 -1.452 2.652 10
6.1939998 -1.456 2.619 10
6.3189998 -1.335 2.6500001 10
6.1630001 -1.415 2.6110001 10
6.2750001 -1.3430001 2.6389999 10
6.2249999 -1.34 2.6270001 10
6.289 -1.369 2.6429999 10
6.1500001 -1.4529999 2.608 10
6.2249999 -1.349 2.6270001 10
6.2620001 -1.465 2.6359999 10
6.2480001 -1.431 2.6329999 10
6.2839999 -1.2869999 2.641 10
6.322 -1.3150001 2.651 10
6.2360001 -1.3200001 2.6289999 10
6.1440001 -1.451 2.6070001 10
6.2789998 -1.386 2.6400001 10
6.303 -1.321 2.6459999 10
6.309 -1.446 2.648 10
6.2249999 -1.456 2.6270001 10
6.2490001 -1.301 2.6329999 10
6.3249998 -1.362 2.652 10
6.2150002 -1.393 2.6240001 10
6.303 -1.449 2.6470001 10
6.263 -1.426 2.6359999 10
6.296 -1.377 2.6440001 10
6.0799999 -1.4809999 2.5910001 10
6.2639999 -1.467 2.6370001 10
6.2150002 -1.476 2.6240001 10
6.2360001 -1.339 2.6289999 10
6.119 -1.434 2.5999999 10
6.125 -1.413 2.602 10
6.302 -1.42 2.6459999 10
6.119 -1.461 2.5999999 10
6.256 -1.4119999 2.635 10
6.2119999 -1.441 2.6240001 10
6.164 -1.41 2.6110001 10
6.3369999 -1.274 2.654 10
6.2589998 -1.393 2.635 10
6.2030001 -1.465 2.6210001 10
6.2709999 -1.337 2.638 10
6.1440001 -1.411 2.6059999 10
6.2670002 -1.337 2.6370001 10
6.2059999 -1.464 2.622 10
6.118 -1.425 2.5999999 10
6.2309999 -1.3890001 2.628 10
6.125 -1.447 2.602 10
6.29 -1.452 2.6429999 10
6.2969999 -1.419 2.645 10
6.1100001 -1.471 2.598 10
6.3000002 -1.2539999 2.645 10
6.2420001 -1.428 2.631 10
6.2010002 -1.378 2.6210001 10
6.2870002 -1.268 2.642 10
6.2979999 -1.443 2.645 10
6.2800002 -1.471 2.641 10
6.329 -1.441 2.6530001 10
6.1329999 -1.424 2.6040001 10
6.309 -1.3099999 2.648 10
6.1570001 -1.439 2.6099999 10
6.3200002 -1.441 2.651 10
6.256 -1.303 2.6340001 10
6.3270001 -1.36 2.652 10
6.244 -1.431 2.632 10
6.1799998 -1.411 2.6159999 10
6.1669998 -1.4119999 2.612 10
6.276 -1.383 2.6400001 10
6.2540002 -1.349 2.6340001 10
6.1550002 -1.399 2.609 10
6.3109999 -1.321 2.648 10
6.2779999 -1.393 2.6400001 10
6.3119998 -1.253 2.648 10
6.2199998 -1.381 2.625 10
6.151 -1.423 2.608 10
6.0370002 -1.4809999 2.5799999 10
6.2270002 -1.466 2.6270001 10
6.1950002 -1.369 2.619 10
6.303 -1.349 2.6459999 10
6.1479998 -1.438 2.608 10
6.2069998 -1.427 2.622 10
6.152 -1.4349999 2.609 10
6.2179999 -1.393 2.625 10
6.1290002 -1.47 2.6029999 10
6.3400002 -1.291 2.655 10
6.3150001 -1.308 2.6489999 10
6.2550001 -1.476 2.6340001 10
6.2719998 -1.466 2.6389999 10
6.3210001 -1.263 2.6500001 10
6.2859998 -1.274 2.642 10
6.3000002 -1.408 2.6459999 10
6.2519999 -1.301 2.6329999 10
6.2410002 -1.462 2.631 10
6.2470002 -1.337 2.632 10
6.3010001 -1.391 2.6459999 10
6.2740002 -1.444 2.6389999 10
6.2199998 -1.427 2.6259999 10
6.316 -1.285 2.6489999 10
6.3049998 -1.3150001 2.6470001 10
6.316 -1.461 2.6500001 10
6.1999998 -1.437 2.6210001 10
6.2290001 -1.476 2.628 10
6.316 -1.316 2.6489999 10
6.3249998 -1.251 2.651 10
6.224 -1.38 2.6259999 10
6.1230001 -1.442 2.6010001 10
6.191 -1.414 2.618 10
6.303 -1.357 2.6459999 10
6.165 -1.4809999 2.612 10
6.2540002 -1.345 2.6340001 10
6.1209998 -1.47 2.6010001 10
6.21 -1.398 2.6229999 10
6.211 -1.462 2.6229999 10
6.1149998 -1.441 2.599 10
6.29 -1.29 2.6429999 10
6.2059999 -1.402 2.622 10
6.2270002 -1.332 2.6270001 10
6.1999998 -1.4069999 2.6199999 10
6.3109999 -1.344 2.648 10
6.3010001 -1.464 2.6459999 10
6.2350001 -1.4299999 2.6289999 10
6.2080002 -1.406 2.6229999 10
6.27 -1.383 2.638 10
6.178 -1.377 2.615 10
6.3260002 -1.368 2.652 10
6.2709999 -1.349 2.638 10
6.3010001 -1.378 2.6459999 10
6.2979999 -1.2869999 2.645 10
6.323 -1.319 2.651 10
6.3249998 -1.446 2.652 10
6.2600002 -1.348 2.635 10
6.2119999 -1.4400001 2.6240001 10
6.244 -1.3890001 2.632 10
6.0809999 -1.467 2.5910001 10
6.322 -1.4529999 2.651 10
6.1669998 -1.395 2.612 10
6.3340001 -1.3099999 2.654 10
6.2930002 -1.271 2.6440001 10
6.2919998 -1.391 2.6440001 10
6.2309999 -1.324 2.628 10
6.2950001 -1.447 2.6440001 10
6.302 -1.416 2.6459999 10
6.1810002 -1.391 2.6159999 10
6.3010001 -1.369 2.6459999 10
6.2690001 -1.45 2.638 10
6.303 -1.398 2.6459999 10
6.3169999 -1.323 2.6500001 10
6.2639999 -1.479 2.6370001 10
6.2470002 -1.424 2.632 10
6.2550001 -1.358 2.6340001 10
6.2470002 -1.47 2.632 10
6.3309999 -1.401 2.6530001 10
6.2399998 -1.306 2.6300001 10
6.3130002 -1.478 2.6489999 10
6.2589998 -1.359 2.635 10
6.224 -1.479 2.6270001 10
6.2329998 -1.4299999 2.6289999 10
6.164 -1.45 2.612 10
6.132 -1.398 2.6040001 10
6.0890002 -1.471 2.5929999 10
6.3060002 -1.359 2.6470001 10
6.2319999 -1.397 2.6289999 10
6.2519999 -1.461 2.6340001 10
6.3010001 -1.475 2.6459999 10
6.2649999 -1.39 2.6370001 10
6.0819998 -1.441 2.5910001 10
6.2969999 -1.4220001 2.645 10
6.2189999 -1.342 2.625 10
6.244 -1.406 2.632 10
6.2969999 -1.375 2.645 10
6.2480001 -1.3 2.632 10
6.2979999 -1.36 2.645 10
6.2449999 -1.355 2.632 10
6.257 -1.465 2.635 10
6.1459999 -1.426 2.6070001 10
6.1609998 -1.446 2.6110001 10
6.1259999 -1.449 2.602 10
6.1880002 -1.47 2.618 10
6.0890002 -1.47 2.5929999 10
6.1090002 -1.434 2.598 10
6.2470002 -1.349 2.632 10
6.316 -1.314 2.6489999 10
6.0809999 -1.482 2.5910001 10
6.145 -1.424 2.6070001 10
6.2839999 -1.313 2.641 10
6.0970001 -1.4809999 2.595 10
6.21 -1.414 2.6229999 10
6.3340001 -1.294 2.654 10
6.2919998 -1.4400001 2.6440001 10
6.1399999 -1.413 2.605 10
6.0560002 -1.479 2.585 10
6.3099999 -1.395 2.648 10
6.289 -1.398 2.6429999 10
6.2870002 -1.4 2.642 10
6.3369999 -1.3150001 2.655 10
6.3369999 -1.295 2.655 10
6.0539999 -1.472 2.5840001 10
6.244 -1.451 2.632 10
6.1230001 -1.474 2.6010001 10
6.2350001 -1.4 2.6289999 10
6.2470002 -1.344 2.632 10
6.1810002 -1.382 2.6159999 10
6.2309999 -1.4119999 2.628 10
6.204 -1.475 2.622 10
6.3179998 -1.35 2.6500001 10
6.2399998 -1.406 2.631 10
6.132 -1.425 2.6040001 10
6.2820001 -1.378 2.641 10
6.2810001 -1.443 2.641 10
6.1110001 -1.447 2.598 10
6.3060002 -1.41 2.6470001 10
6.1389999 -1.406 2.605 10
6.2420001 -1.332 2.631 10
6.29 -1.399 2.6429999 10
6.303 -1.392 2.6459999 10
6.3319998 -1.323 2.6530001 10
6.2950001 -1.411 2.6440001 10
6.3189998 -1.469 2.651 10
6.1550002 -1.443 2.609 10
6.2969999 -1.473 2.645 10
6.2340002 -1.397 2.6289999 10
6.3280001 -1.286 2.652 10
6.303 -1.355 2.6459999 10
6.223 -1.4299999 2.6259999 10
6.3099999 -1.378 2.648 10
6.2329998 -1.397 2.6289999 10
6.1950002 -1.396 2.619 10
6.164 -1.37 2.6110001 10
6.283 -1.472 2.641 10
6.3140001 -1.385 2.6489999 10
6.1560001 -1.381 2.609 10
6.3330002 -1.29 2.654 10
6.1729999 -1.469 2.6140001 10
6.224 -1.443 2.6270001 10
6.217 -1.427 2.625 10
6.1680002 -1.284 2.612 10
6.098 -1.283 2.5940001 10
6.1479998 -1.266 2.6070001 10
6.1869998 -1.237 2.6170001 10
6.0570002 -1.351 2.5840001 10
6.0900002 -1.299 2.592 10
6.2800002 -1.2539999 2.6400001 10
6.0929999 -1.41 2.5940001 10
6.1459999 -1.257 2.6070001 10
6.0830002 -1.256 2.5910001 10
6.0500002 -1.455 2.5829999 10
6.1900001 -1.325 2.618 10
6.1989999 -1.293 2.6199999 10
6.191 -1.251 2.618 10
6.0879998 -1.388 2.592 10
6.0409999 -1.337 2.5799999 10
6.0970001 -1.2460001 2.5940001 10
6.046 -1.325 2.5810001 10
6.184 -1.242 2.6159999 10
6.1009998 -1.387 2.596 10
6.1760001 -1.239 2.6140001 10
6.0739999 -1.37 2.589 10
6.1669998 -1.345 2.612 10
6.0549998 -1.39 2.5840001 10
6.039 -1.467 2.5799999 10
6.1149998 -1.398 2.599 10
6.309 -1.234 2.6470001 10
6.1300001 -1.2359999 2.602 10
6.027 -1.396 2.5769999 10
6.1279998 -1.354 2.602 10
6.0799999 -1.2819999 2.5899999 10
6.125 -1.2359999 2.6010001 10
6.0440001 -1.387 2.5810001 10
6.131 -1.382 2.6029999 10
6.105 -1.29 2.596 10
6.0549998 -1.376 2.5840001 10
6.0219998 -1.326 2.575 10
6.2340002 -1.291 2.6289999 10
6.1690001 -1.3099999 2.612 10
6.1149998 -1.321 2.599 10
6.0440001 -1.41 2.5810001 10
6.0770001 -1.303 2.589 10
6.1690001 -1.276 2.612 10
6.0679998 -1.2410001 2.5869999 10
6.0349998 -1.4349999 2.579 10
6.2649999 -1.27 2.6359999 10
6.1329999 -1.318 2.6029999 10
6.0879998 -1.26 2.592 10
6.1490002 -1.262 2.6070001 10
6.0879998 -1.273 2.592 10
6.0409999 -1.302 2.5799999 10
6.145 -1.313 2.6059999 10
6.2399998 -1.2589999 2.6300001 10
6.1789999 -1.263 2.615 10
6.092 -1.3200001 2.5929999 10
6.0650001 -1.249 2.586 10
6.0320001 -1.277 2.5780001 10
6.0879998 -1.335 2.592 10
6.02 -1.341 2.575 10
6.1240001 -1.2920001 2.6010001 10
6.0489998 -1.289 2.582 10
6.092 -1.262 2.5929999 10
6.1479998 -1.367 2.6070001 10
6.1859999 -1.3150001 2.6170001 10
6.1630001 -1.25 2.6110001 10
6.0440001 -1.41 2.5810001 10
6.2090001 -1.2359999 2.622 10
6.0409999 -1.33 2.5799999 10
6.1869998 -1.288 2.6170001 10
6.1230001 -1.266 2.6010001 10
6.026 -1.3150001 2.576 10
6.0549998 -1.38 2.5840001 10
6.0430002 -1.4450001 2.5810001 10
6.1399999 -1.294 2.605 10
6.1090002 -1.358 2.5969999 10
6.1090002 -1.244 2.5969999 10
6.066 -1.347 2.5869999 10
6.0770001 -1.3890001 2.5899999 10
6.1490002 -1.381 2.608 10
6.1059999 -1.2309999 2.596 10
6.1630001 -1.351 2.6110001 10
6.2909999 -1.242 2.6429999 10
6.085 -1.28 2.5910001 10
6.0910001 -1.29 2.5929999 10
6.1560001 -1.263 2.609 10
6.0240002 -1.4349999 2.576 10
6.184 -1.285 2.6159999 10
6.1129999 -1.273 2.598 10
6.0170002 -1.278 2.5739999 10
6.0310001 -1.2920001 2.5780001 10
6.2220001 -1.249 2.6259999 10
6.0159998 -1.434 2.5739999 10
6.0450001 -1.3200001 2.5810001 10
6.0619998 -1.296 2.585 10
6.132 -1.334 2.6029999 10
6.1040001 -1.314 2.596 10
6.0089998 -1.2539999 2.572 10
6.1750002 -1.299 2.6140001 10
6.1090002 -1.243 2.5969999 10
6.0190001 -1.324 2.575 10
6.1859999 -1.281 2.6170001 10
6.0599999 -1.4119999 2.585 10
6.1690001 -1.33 2.6129999 10
6.3049998 -1.238 2.6459999 10
6.0939999 -1.351 2.5940001 10
6.0960002 -1.355 2.5940001 10
6.027 -1.275 2.5769999 10
6.1079998 -1.325 2.5969999 10
6.1960001 -1.286 2.619 10
6.1059999 -1.404 2.5969999 10
6.151 -1.296 2.608 10
6.1490002 -1.344 2.6070001 10
6.1389999 -1.3099999 2.605 10
6.0310001 -1.235 2.5780001 10
6.1869998 -1.335 2.6170001 10
6.1020002 -1.304 2.596 10
6.2620001 -1.24 2.6359999 10
6.0450001 -1.24 2.5810001 10
6.0370002 -1.289 2.579 10
6.3049998 -1.2309999 2.6459999 10
6.0700002 -1.324 2.5869999 10
6.131 -1.318 2.6029999 10
6.0180001 -1.462 2.575 10
6.0650001 -1.351 2.586 10
6.1399999 -1.252 2.605 10
6.0570002 -1.334 2.5840001 10
6.198 -1.276 2.6199999 10
6.1750002 -1.304 2.6140001 10
6.2220001 -1.296 2.6259999 10
6.0609999 -1.409 2.586 10
6.0749998 -1.387 2.589 10
6.112 -1.275 2.598 10
6.0279999 -1.283 2.5769999 10
6.0110002 -1.24 2.573 10
6.1459999 -1.375 2.6070001 10
6.1209998 -1.33 2.5999999 10
6.0380001 -1.266 2.579 10
6.0489998 -1.365 2.5829999 10
6.1950002 -1.275 2.619 10
6.1680002 -1.256 2.612 10
6.2140002 -1.326 2.6240001 10
6.0830002 -1.404 2.5910001 10
6.178 -1.2819999 2.6140001 10
6.0240002 -1.411 2.576 10
6.178 -1.266 2.615 10
6.085 -1.4119999 2.592 10
6.2030001 -1.307 2.6210001 10
6.2600002 -1.237 2.635 10
6.0879998 -1.255 2.592 10
6.027 -1.272 2.5769999 10
6.0219998 -1.466 2.576 10
6.066 -1.424 2.5869999 10
6.1129999 -1.298 2.598 10
6.1129999 -1.29 2.598 10
6.0289998 -1.317 2.5769999 10
6.132 -1.372 2.6029999 10
6.1220002 -1.285 2.5999999 10
6.112 -1.255 2.598 10
6.1469998 -1.306 2.6070001 10
6.0890002 -1.342 2.592 10
6.1040001 -1.255 2.596 10
6.0450001 -1.237 2.5810001 10
6.1430001 -1.276 2.6059999 10
6.1570001 -1.299 2.609 10
6.0619998 -1.415 2.586 10
6.0869999 -1.386 2.592 10
6.0809999 -1.237 2.5899999 10
6.0640001 -1.2690001 2.586 10
6.053 -1.4529999 2.5840001 10
6.2880001 -1.26 2.642 10
6.0679998 -1.24 2.5869999 10
6.0840001 -1.325 2.5910001 10
6.0250001 -1.307 2.576 10
6.119 -1.284 2.5999999 10
6.0770001 -1.425 2.5899999 10
6.119 -1.357 2.5999999 10
6.0970001 -1.2539999 2.5940001 10
6.0599999 -1.247 2.585 10
6.1399999 -1.276 2.605 10
6.2220001 -1.252 2.6259999 10
6.0669999 -1.2589999 2.5869999 10
6.0689998 -1.237 2.5869999 10
6.2069998 -1.261 2.622 10
6.0240002 -1.3940001 2.576 10
6.1630001 -1.3329999 2.6110001 10
6.0809999 -1.275 2.5899999 10
6.152 -1.26 2.608 10
6.1350002 -1.253 2.6040001 10
6.1919999 -1.316 2.618 10
6.1659999 -1.367 2.612 10
6.0359998 -1.3609999 2.579 10
6.2179999 -1.308 2.625 10
6.1960001 -1.2920001 2.619 10
6.026 -1.436 2.5769999 10
6.0190001 -1.456 2.575 10
6.085 -1.354 2.5910001 10
6.105 -1.346 2.596 10
6.0370002 -1.363 2.579 10
6.1609998 -1.235 2.6099999 10
6.0599999 -1.391 2.585 10
6.105 -1.238 2.596 10
6.1110001 -1.2640001 2.598 10
6.0679998 -1.388 2.5869999 10
6.2750001 -1.271 2.6389999 10
6.1240001 -1.314 2.6010001 10
6.0180001 -1.302 2.5739999 10
6.1859999 -1.248 2.6159999 10
6.0599999 -1.3 2.585 10
6.0910001 -1.354 2.5929999 10
6.066 -1.351 2.5869999 10
6.2420001 -1.251 2.631 10
6.0830002 -1.359 2.5910001 10
6.0700002 -1.277 2.5869999 10
6.1880002 -1.242 2.6170001 10
6.1880002 -1.2410001 2.6170001 10
6.1789999 -1.247 2.615 10
6.2020001 -1.325 2.6210001 10
6.1209998 -1.357 2.5999999 10
6.0869999 -1.3789999 2.592 10
6.1900001 -1.312 2.618 10
6.0710001 -1.395 2.5880001 10
6.105 -1.385 2.5969999 10
6.1079998 -1.24 2.5969999 10
6.0689998 -1.332 2.5869999 10
6.1040001 -1.332 2.596 10
6.0149999 -1.311 2.5739999 10
6.171 -1.3150001 2.6129999 10
6.053 -1.354 2.5840001 10
6.1989999 -1.332 2.6199999 10
6.2420001 -1.302 2.631 10
6.1539998 -1.272 2.608 10
6.2420001 -1.233 2.6300001 10
6.0180001 -1.425 2.575 10
6.1020002 -1.418 2.596 10
6.0619998 -1.344 2.586 10
6.0279999 -1.447 2.5769999 10
6.1820002 -1.265 2.6159999 10
6.0240002 -1.3940001 2.576 10
6.0279999 -1.348 2.5769999 10
6.0440001 -1.411 2.5810001 10
6.0279999 -1.3049999 2.5769999 10
6.046 -1.368 2.582 10
6.026 -1.337 2.576 10
6.059 -1.321 2.585 10
6.027 -1.455 2.5769999 10
6.0349998 -1.427 2.579 10
6.2550001 -1.245 2.6340001 10
6.1240001 -1.388 2.6010001 10
6.2839999 -1.2589999 2.641 10
6.0380001 -1.363 2.5799999 10
6.0900002 -1.428 2.5929999 10
6.0970001 -1.334 2.5940001 10
6.0320001 -1.38 2.5780001 10
6.2519999 -1.237 2.6329999 10
6.171 -1.351 2.6129999 10
6.092 -1.358 2.5929999 10
6.0560002 -1.3430001 2.5840001 10
6.243 -1.2690001 2.631 10
6.1269999 -1.387 2.602 10
6.0320001 -1.47 2.5780001 10
6.2420001 -1.2539999 2.631 10
6.0970001 -1.306 2.5940001 10
6.073 -1.275 2.5880001 10
6.0960002 -1.381 2.5940001 10
6.0739999 -1.403 2.589 10
6.2020001 -1.3329999 2.6210001 10
6.0190001 -1.473 2.575 10
6.2020001 -1.275 2.6210001 10
6.1360002 -1.349 2.6040001 10
6.1389999 -1.332 2.605 10
6.0450001 -1.2359999 2.5810001 10
6.0320001 -1.415 2.5780001 10
6.0300002 -1.452 2.5780001 10
6.0560002 -1.29 2.5840001 10
6.1750002 -1.294 2.6140001 10
6.0209999 -1.472 2.576 10
6.052 -1.317 2.5829999 10
6.119 -1.332 2.5999999 10
6.0310001 -1.457 2.5780001 10
6.0580001 -1.304 2.5840001 10
6.1409998 -1.377 2.6059999 10
6.0840001 -1.2819999 2.5910001 10
6.1939998 -1.284 2.619 10
6.1069999 -1.3839999 2.5969999 10
6.0799999 -1.357 2.5899999 10
6.0619998 -1.399 2.586 10
6.0440001 -1.272 2.5810001 10
6.1290002 -1.397 2.6029999 10
6.04 -1.471 2.5810001 10
6.2540002 -1.291 2.6340001 10
6.2950001 -1.252 2.6440001 10
6.1149998 -1.3940001 2.599 10
6.1269999 -1.306 2.602 10
6.066 -1.408 2.5869999 10
6.125 -1.325 2.6010001 10
6.0669999 -1.4450001 2.5869999 10
6.059 -1.4119999 2.585 10
6.1479998 -1.312 2.6070001 10
6.0819998 -1.418 2.5910001 10
6.0910001 -1.402 2.5929999 10
6.1209998 -1.3380001 2.6010001 10
6.1069999 -1.265 2.5969999 10
6.1799998 -1.239 2.615 10
6.0689998 -1.418 2.5880001 10
6.2199998 -1.3049999 2.625 10
6.0219998 -1.444 2.576 10
6.1220002 -1.369 2.6010001 10
6.066 -1.327 2.5869999 10
6.1020002 -1.247 2.595 10
6.0469999 -1.245 2.5810001 10
6.256 -1.272 2.6340001 10
6.1090002 -1.3839999 2.598 10
6.0510001 -1.353 2.5829999 10
6.1240001 -1.265 2.6010001 10
6.0370002 -1.332 2.579 10
6.2319999 -1.29 2.628 10
6.0500002 -1.261 2.582 10
6.0370002 -1.26 2.579 10
6.0500002 -1.262 2.582 10
6.0430002 -1.275 2.5810001 10
6.145 -1.327 2.6059999 10
6.1529999 -1.321 2.608 10
6.1539998 -1.288 2.609 10
6.0440001 -1.403 2.5810001 10
6.1069999 -1.258 2.5969999 10
6.244 -1.253 2.631 10
6.0609999 -1.368 2.585 10
6.2379999 -1.28 2.6300001 10
6.1869998 -1.319 2.6170001 10
6.2659998 -1.2690001 2.6370001 10
6.217 -1.283 2.6240001 10
6.1030002 -1.399 2.596 10
6.1259999 -1.243 2.6010001 10
6.131 -1.346 2.6029999 10
6.0599999 -1.419 2.585 10
6.059 -1.27 2.585 10
6.0799999 -1.362 2.5899999 10
6.1989999 -1.314 2.6199999 10
6.1389999 -1.255 2.605 10
6.2670002 -1.261 2.6370001 10
6.0500002 -1.278 2.582 10
6.2030001 -1.24 2.6210001 10
6.0890002 -1.316 2.592 10
6.02 -1.349 2.575 10
6.165 -1.336 2.6110001 10
6.0960002 -1.2970001 2.5940001 10
6.079 -1.373 2.5899999 10
6.0469999 -1.26 2.582 10
6.0440001 -1.329 2.5810001 10
6.0560002 -1.365 2.5840001 10
6.0669999 -1.3940001 2.5869999 10
6.1869998 -1.279 2.6170001 10
6.2150002 -1.271 2.6240001 10
6.1079998 -1.341 2.5969999 10
6.1290002 -1.304 2.602 10
6.0320001 -1.233 2.5780001 10
6.0630002 -1.279 2.586 10
