# .PCD v0.7 - Point Cloud Data file format
VERSION 0.7
FIELDS x y z label
SIZE 4 4 4 4
TYPE F F F U
COUNT 1 1 1 1
WIDTH 1690
HEIGHT 1
VIEWPOINT 0 0 0 1 0 0 0
POINTS 1690
DATA ascii
19.498501 1.2595 2.273 7
19.547501 1.2735 2.2190001 7
19.5175 1.2625 2.221 7
19.519501 1.2685 2.276 7
19.5445 1.2755001 2.243 7
19.5315 1.2715 2.253 7
19.5345 1.2704999 2.2379999 7
19.5075 1.2665 2.2969999 7
19.5135 1.2605 2.2190001 7
19.550501 1.2755001 2.22 7
19.5425 1.2735 2.2320001 7
19.526501 1.2715 2.2780001 7
19.490499 1.2595 2.303 7
19.5555 1.2765 2.2160001 7
19.540501 1.2755001 2.2620001 7
19.5275 1.2695 2.2520001 7
19.519501 1.2625 2.221 7
19.5285 1.2704999 2.257 7
19.5455 1.2765 2.2509999 7
19.4935 1.2615 2.3110001 7
19.5245 1.2665 2.2360001 7
19.5425 1.2755001 2.2609999 7
19.5655 1.2785 2.2 7
19.556499 1.2775 2.217 7
19.5205 1.2665 2.253 7
19.556499 1.2785 2.2349999 7
19.504499 1.2615 2.26 7
19.5005 1.2635 2.325 7
19.5555 1.2725 2.3269999 7
19.5445 1.2695 2.345 7
19.5875 1.2735 2.3859999 7
19.563499 1.2735 2.339 7
19.5275 1.2665 2.339 7
19.5515 1.2765 2.2750001 7
19.504499 1.2635 2.3299999 7
19.5825 1.2715 2.395 7
19.5825 1.2735 2.375 7
19.543501 1.2715 2.3210001 7
19.543501 1.2665 2.3710001 7
19.5735 1.2715 2.381 7
19.5425 1.2755001 2.2739999 7
19.5285 1.2654999 2.3610001 7
19.557501 1.2755001 2.2939999 7
19.553499 1.2765 2.277 7
19.554501 1.2755001 2.2909999 7
19.5765 1.2715 2.388 7
19.5695 1.2745 2.3380001 7
19.556499 1.2755001 2.2980001 7
19.5345 1.2725 2.2880001 7
19.554501 1.2735 2.3180001 7
19.5665 1.2715 2.3710001 7
19.525499 1.2685 2.3099999 7
19.554501 1.2715 2.345 7
19.5905 1.2735 2.3889999 7
19.5235 1.2675 2.319 7
19.5235 1.2685 2.3139999 7
19.574499 1.2715 2.3840001 7
19.550501 1.2675 2.375 7
19.5275 1.2704999 2.2920001 7
19.5235 1.2675 2.3239999 7
19.5415 1.2735 2.2939999 7
19.526501 1.2665 2.3399999 7
19.5805 1.2735 2.3659999 7
19.5345 1.2675 2.3499999 7
19.5445 1.2715 2.3169999 7
19.547501 1.2685 2.3599999 7
19.5245 1.2665 2.3380001 7
19.5515 1.2704999 2.3469999 7
19.526501 1.2654999 2.3510001 7
19.553499 1.2755001 2.2880001 7
19.5455 1.2765 2.266 7
19.5425 1.2704999 2.3280001 7
19.5485 1.2675 2.3729999 7
19.585501 1.2735 2.378 7
19.5455 1.2675 2.369 7
19.557501 1.2704999 2.362 7
19.5515 1.2765 2.2720001 7
19.546499 1.2715 2.329 7
19.5235 1.2654999 2.349 7
19.553499 1.2775 2.263 7
19.533501 1.2675 2.3429999 7
19.5725 1.2745 2.3429999 7
19.563499 1.2765 2.2939999 7
19.561501 1.2695 2.3840001 7
19.577499 1.2725 2.3789999 7
19.5455 1.2704999 2.329 7
19.5315 1.2695 2.3169999 7
19.550501 1.2775 2.2650001 7
19.518499 1.2685 2.2950001 7
19.519501 1.2645 2.3529999 7
19.5515 1.2695 2.362 7
19.5805 1.2725 2.382 7
19.567499 1.2745 2.3329999 7
19.5005 1.2635 2.3169999 7
19.502501 1.2645 2.319 7
19.509501 1.2635 2.6900001 7
19.595501 0.8955 2.1800001 7
19.598499 0.85750002 2.1800001 7
19.605499 0.83850002 2.1760001 7
19.605499 0.87849998 2.1730001 7
19.5895 0.95649999 2.1789999 7
19.609501 0.84750003 2.1719999 7
19.6085 0.82849997 2.175 7
19.609501 0.82450002 2.175 7
19.5765 0.95850003 2.1900001 7
19.598499 0.90149999 2.177 7
19.6045 0.83850002 2.177 7
19.578501 0.94950002 2.1889999 7
19.602501 0.85149997 2.178 7
19.6015 0.90549999 2.174 7
19.5965 0.86049998 2.1819999 7
19.5935 0.88550001 2.1830001 7
19.5835 0.96749997 2.184 7
19.6105 0.84249997 2.171 7
19.588499 0.91049999 2.184 7
19.5935 0.89450002 2.181 7
19.599501 0.8635 2.1800001 7
19.5825 0.93550003 2.188 7
19.606501 0.86750001 2.1730001 7
19.5945 0.9425 2.1760001 7
19.5935 0.87949997 2.1830001 7
19.605499 0.87050003 2.1730001 7
19.585501 0.94050002 2.184 7
19.5965 0.89450002 2.1789999 7
19.592501 0.9425 2.178 7
19.5805 0.96649998 2.187 7
19.591499 0.95450002 2.178 7
19.606501 0.87849998 2.1719999 7
19.595501 0.90850002 2.1789999 7
19.5895 0.93349999 2.1819999 7
19.5895 0.89850003 2.184 7
19.578501 1.0125 2.188 7
19.5825 1.0175 2.1849999 7
19.5805 1.0985 2.187 7
19.5795 1.1535 2.1889999 7
19.5765 0.97149998 2.1889999 7
19.581499 1.0965 2.187 7
19.5765 1.0154999 2.1900001 7
19.578501 0.9745 2.188 7
19.574499 0.97750002 2.191 7
19.5805 1.0935 2.187 7
19.577499 1.0615 2.1900001 7
19.5825 1.0455 2.1849999 7
19.5805 1.0935 2.188 7
19.5795 0.97549999 2.187 7
19.5795 1.1485 2.188 7
19.5795 1.1155 2.1889999 7
19.584499 1.0495 2.184 7
19.5865 1.0335 2.1819999 7
19.5805 1.1665 2.188 7
19.5755 1.0005 2.1900001 7
19.5805 0.98949999 2.1860001 7
19.5825 1.0795 2.1849999 7
19.5865 1.0555 2.1819999 7
14.4345 0.88050002 2.1800001 7
14.4435 0.8635 2.187 7
14.4315 0.89249998 2.1789999 7
14.4295 0.91250002 2.181 7
14.4245 0.9425 2.181 7
14.4265 0.9145 2.178 7
14.4295 0.9095 2.181 7
14.4305 0.90549999 2.181 7
14.4205 0.94050002 2.1760001 7
14.4345 0.88249999 2.1800001 7
14.4195 0.95649999 2.178 7
14.4385 0.88550001 2.1860001 7
14.4165 0.97250003 2.178 7
14.4185 0.96850002 2.1789999 7
14.4265 0.92949998 2.181 7
14.4365 0.88150001 2.1830001 7
14.3825 1.2535 2.266 7
14.3835 1.2555 2.224 7
14.3825 1.2555 2.2520001 7
14.3835 1.2535 2.1949999 7
14.3815 1.2555 2.283 7
14.3835 1.2555 2.197 7
14.3835 1.2575001 2.221 7
14.3805 1.2535 2.325 7
14.4335 0.87949997 2.1789999 7
14.4435 0.85650003 2.178 7
14.4355 0.87650001 2.174 7
14.4415 0.86150002 2.1730001 7
14.4375 0.87150002 2.181 7
16.286501 0.89850003 2.1919999 7
16.2805 0.88050002 2.1930001 7
16.2365 0.89749998 2.1919999 7
16.258499 0.89249998 2.1919999 7
16.248501 0.8915 2.1919999 7
16.3055 0.88749999 2.1919999 7
16.244499 0.9005 2.1919999 7
16.3025 0.88749999 2.1919999 7
16.435499 0.87050003 2.194 7
16.373501 0.8725 2.194 7
16.3085 0.87349999 2.194 7
16.317499 0.8865 2.1919999 7
16.304501 0.88150001 2.1930001 7
16.3645 0.87349999 2.1930001 7
16.334499 0.88950002 2.1919999 7
16.3015 0.87550002 2.1930001 7
16.293501 0.87550002 2.1930001 7
16.275499 0.88849998 2.1919999 7
16.3715 0.87550002 2.1930001 7
16.377501 0.87150002 2.194 7
16.4275 0.86750001 2.194 7
16.404499 0.87650001 2.1930001 7
16.238501 0.88849998 2.1919999 7
16.321501 0.87949997 2.1930001 7
16.365499 0.88349998 2.1930001 7
16.314501 0.8775 2.1930001 7
16.258499 0.8955 2.1919999 7
16.275499 0.88450003 2.1930001 7
16.425501 0.86949998 2.194 7
16.355499 0.87550002 2.1930001 7
16.3335 0.88749999 2.1919999 7
16.4095 0.87050003 2.194 7
16.296499 0.8775 2.1930001 7
16.2995 0.89349997 2.1919999 7
16.2365 0.8915 2.1919999 7
16.3965 0.86949998 2.194 7
16.407499 0.86750001 2.194 7
16.356501 0.8775 2.1930001 7
16.276501 0.88349998 2.1930001 7
16.3645 0.88249999 2.1930001 7
16.311501 0.89349997 2.1919999 7
16.2985 0.8915 2.1919999 7
18.574499 1.2565 2.704 7
18.574499 1.2585 2.7049999 7
18.5725 1.2575001 2.7049999 7
18.619499 1.2615 2.7049999 7
18.665501 1.2625 2.7049999 7
18.6015 1.2575001 2.704 7
18.807501 1.2605 2.701 7
18.591499 1.2565 2.704 7
18.6915 1.2615 2.704 7
18.7915 1.2625 2.7030001 7
18.6835 1.2615 2.704 7
18.7855 1.2625 2.7030001 7
18.8225 1.2605 2.701 7
18.7005 1.2585 2.7019999 7
18.613501 1.2615 2.7049999 7
18.744499 1.2625 2.704 7
18.936501 1.2625 2.701 7
18.886499 1.2625 2.701 7
19.0975 1.2615 2.7030001 7
19.122499 1.2615 2.7030001 7
18.9095 1.2605 2.7 7
18.9545 1.2615 2.701 7
18.9405 1.2615 2.701 7
19.0865 1.2625 2.7030001 7
18.911501 1.2625 2.7019999 7
19.060499 1.2625 2.7030001 7
19.0005 1.2625 2.7030001 7
19.077499 1.2625 2.7030001 7
19.136499 1.2625 2.704 7
19.1495 1.2625 2.704 7
19.157499 1.2615 2.7030001 7
19.2055 1.2625 2.701 7
19.179501 1.2625 2.7019999 7
19.504499 1.2625 2.6900001 7
17.4695 0.83050001 2.1730001 7
17.4715 0.8355 2.174 7
16.193501 0.92250001 2.1860001 7
16.1975 0.91750002 2.1889999 7
16.509501 0.84850001 2.1860001 7
16.519501 0.83249998 2.1700001 7
16.5145 0.84549999 2.1719999 7
16.509501 0.85549998 2.177 7
16.505501 0.85650003 2.1889999 7
16.512501 0.85149997 2.171 7
16.511499 0.8495 2.177 7
15.5435 0.78250003 2.1700001 7
15.5025 0.78149998 2.1730001 7
15.6515 0.7845 2.178 7
15.5335 0.78250003 2.175 7
15.6555 0.7845 2.181 7
15.6425 0.78350002 2.1689999 7
15.6525 0.7845 2.1830001 7
15.6035 0.78350002 2.1830001 7
15.4645 0.78049999 2.1670001 7
15.5855 0.78250003 2.1730001 7
15.5975 0.78350002 2.175 7
15.5635 0.78250003 2.1670001 7
15.5425 0.78250003 2.1659999 7
15.5115 0.78149998 2.1670001 7
15.4375 0.78049999 2.174 7
15.6185 0.78350002 2.1830001 7
15.6185 0.78350002 2.178 7
15.5855 0.78250003 2.1700001 7
15.6575 0.7845 2.184 7
15.6635 0.7845 2.178 7
15.5705 0.78250003 2.1819999 7
15.6415 0.78350002 2.174 7
15.5995 0.78350002 2.1730001 7
15.6445 0.7845 2.1800001 7
15.4765 0.78149998 2.174 7
15.4425 0.78049999 2.1730001 7
15.4665 0.78049999 2.1659999 7
15.4675 0.78049999 2.1700001 7
15.6355 0.78350002 2.175 7
15.5365 0.78250003 2.1760001 7
15.6105 0.78350002 2.181 7
15.6275 0.78350002 2.178 7
15.5465 0.78250003 2.1760001 7
15.5625 0.78250003 2.174 7
15.6635 0.7845 2.1819999 7
15.4825 0.78149998 2.1670001 7
15.3865 0.77950001 2.1659999 7
15.4385 0.78049999 2.1659999 7
15.6445 0.7845 2.175 7
15.6525 0.7845 2.1670001 7
15.6655 0.7845 2.177 7
15.6765 0.7845 2.1830001 7
15.8365 0.77950001 2.1700001 7
15.7025 0.78350002 2.178 7
15.7545 0.78250003 2.1819999 7
15.8065 0.78049999 2.171 7
15.7755 0.78149998 2.168 7
15.7865 0.78049999 2.168 7
15.7005 0.78350002 2.1659999 7
15.7115 0.78350002 2.1819999 7
15.6825 0.7845 2.175 7
15.7265 0.78350002 2.1830001 7
15.7415 0.78350002 2.1830001 7
15.7055 0.78350002 2.1800001 7
15.7985 0.78049999 2.1800001 7
15.7795 0.78049999 2.1670001 7
15.7865 0.78049999 2.1689999 7
15.7795 0.78149998 2.1719999 7
15.8305 0.78049999 2.1760001 7
15.7315 0.78350002 2.1689999 7
15.7515 0.78250003 2.174 7
15.6805 0.7845 2.1719999 7
15.7115 0.78350002 2.171 7
15.7145 0.78350002 2.1819999 7
15.7755 0.78049999 2.1670001 7
15.7325 0.78250003 2.1659999 7
15.8205 0.78049999 2.174 7
15.7175 0.78350002 2.1830001 7
15.6825 0.78350002 2.1659999 7
15.6795 0.7845 2.1760001 7
15.7085 0.78350002 2.1689999 7
15.6925 0.7845 2.177 7
15.7465 0.78250003 2.1670001 7
15.7285 0.78350002 2.1700001 7
15.9615 1.0245 2.1800001 7
15.9875 1.0095 2.1819999 7
16.025499 0.99250001 2.178 7
16.0385 0.98949999 2.1789999 7
16.0905 0.98150003 2.178 7
16.0755 0.98250002 2.1800001 7
16.098499 0.9795 2.1800001 7
16.0595 0.98449999 2.1819999 7
16.1035 0.97750002 2.1819999 7
16.127501 0.96649998 2.184 7
16.1485 0.96149999 2.177 7
16.1705 0.95249999 2.1760001 7
16.165501 0.95349997 2.178 7
16.1285 0.96749997 2.181 7
16.1565 0.95749998 2.178 7
16.1535 0.95950001 2.177 7
16.251499 0.91649997 2.178 7
16.2195 0.92449999 2.184 7
16.2335 0.91350001 2.1889999 7
16.2085 0.93449998 2.178 7
16.2395 0.91949999 2.1800001 7
16.2255 0.92949998 2.175 7
16.293501 0.8955 2.187 7
16.258499 0.91649997 2.174 7
16.2855 0.90350002 2.1800001 7
16.297501 0.89850003 2.1819999 7
16.272499 0.91149998 2.175 7
16.2955 0.89649999 2.1849999 7
16.2815 0.9005 2.1849999 7
16.286501 0.8955 2.188 7
16.262501 0.90649998 2.1849999 7
16.2665 0.90149999 2.1900001 7
16.297501 0.90549999 2.1730001 7
16.265499 0.90149999 2.1900001 7
16.303499 0.89649999 2.1819999 7
16.2885 0.89749998 2.1860001 7
16.2785 0.90750003 2.178 7
16.3995 0.86549997 2.177 7
16.4245 0.86549997 2.175 7
16.4235 0.86650002 2.174 7
16.4235 0.86549997 2.1760001 7
16.4135 0.86650002 2.1730001 7
16.411501 0.86549997 2.174 7
16.466499 0.86750001 2.174 7
16.4855 0.86849999 2.171 7
16.498501 0.86949998 2.171 7
17.5245 0.78549999 2.1700001 7
17.5445 0.78549999 2.1689999 7
17.536501 0.78549999 2.1700001 7
17.5695 0.78549999 2.1670001 7
17.533501 0.78549999 2.1700001 7
17.532499 0.78649998 2.168 7
17.664499 0.79149997 2.1730001 7
17.5875 0.78750002 2.171 7
17.7505 0.79650003 2.177 7
17.6565 0.79250002 2.177 7
17.5805 0.78750002 2.171 7
17.598499 0.79049999 2.178 7
17.647499 0.7895 2.1700001 7
17.741501 0.79549998 2.175 7
17.6385 0.79049999 2.1719999 7
17.716499 0.7985 2.187 7
17.713499 0.79350001 2.1719999 7
17.737499 0.79549998 2.175 7
17.592501 0.78649998 2.168 7
17.574499 0.78649998 2.1700001 7
17.6905 0.79149997 2.1689999 7
17.606501 0.78850001 2.1719999 7
17.6035 0.78649998 2.1670001 7
17.692499 0.79250002 2.1730001 7
17.6395 0.79049999 2.1730001 7
17.6985 0.79250002 2.171 7
17.737499 0.79650003 2.1789999 7
17.598499 0.78649998 2.168 7
17.5905 0.78750002 2.1719999 7
17.7465 0.79949999 2.1849999 7
17.716499 0.79449999 2.175 7
17.6595 0.79149997 2.174 7
17.612499 0.79049999 2.178 7
17.5965 0.78649998 2.1670001 7
17.5765 0.78750002 2.1719999 7
17.568501 0.78649998 2.171 7
17.6845 0.79049999 2.1689999 7
17.5945 0.78850001 2.174 7
17.7495 0.79650003 2.1760001 7
17.6385 0.79250002 2.178 7
17.5735 0.78649998 2.1689999 7
17.5835 0.7895 2.178 7
17.942499 0.79449999 2.1730001 7
17.9545 0.79350001 2.171 7
17.8815 0.79549998 2.1760001 7
17.7775 0.79650003 2.177 7
17.8645 0.79250002 2.1670001 7
17.796499 0.79750001 2.1789999 7
17.7805 0.79750001 2.1800001 7
17.7635 0.79750001 2.1800001 7
17.806499 0.79750001 2.1789999 7
17.8515 0.79449999 2.1730001 7
17.849501 0.79449999 2.171 7
17.7605 0.79750001 2.1800001 7
17.9025 0.79549998 2.1760001 7
17.7565 0.79549998 2.1730001 7
17.9925 0.79250002 2.1689999 7
17.800501 0.79650003 2.178 7
17.8605 0.79650003 2.1789999 7
17.796499 0.79350001 2.1689999 7
17.7815 0.79350001 2.1670001 7
17.7605 0.79750001 2.178 7
17.7945 0.7985 2.1830001 7
17.9405 0.79250002 2.1689999 7
17.762501 0.79549998 2.1719999 7
17.855499 0.79650003 2.177 7
17.883499 0.79549998 2.177 7
17.827499 0.79250002 2.1670001 7
17.782499 0.79350001 2.168 7
17.768499 0.79350001 2.168 7
17.998501 0.79149997 2.168 7
17.7875 0.79350001 2.168 7
17.9345 0.79350001 2.1700001 7
17.8155 0.79449999 2.171 7
17.8375 0.79650003 2.178 7
17.872499 0.79549998 2.175 7
17.897499 0.79549998 2.177 7
17.8465 0.79549998 2.1730001 7
17.945499 0.79250002 2.1689999 7
17.765499 0.79549998 2.174 7
18.0105 0.80150002 2.1830001 7
17.883499 0.8035 2.1889999 7
18.2085 0.80949998 2.188 7
18.0445 0.79549998 2.1730001 7
18.099501 0.80049998 2.178 7
18.064501 0.80250001 2.1819999 7
18.144501 0.79750001 2.1730001 7
17.7885 0.80250001 2.1889999 7
17.8505 0.80150002 2.1860001 7
18.1485 0.79350001 2.1670001 7
17.908501 0.80250001 2.1860001 7
18.1485 0.80650002 2.1849999 7
17.893499 0.80049998 2.184 7
18.136499 0.80449998 2.1830001 7
17.9695 0.79350001 2.1719999 7
18.0175 0.80449998 2.1860001 7
17.8915 0.79949999 2.1819999 7
18.1625 0.8035 2.1800001 7
17.863501 0.79949999 2.1830001 7
17.9685 0.80449998 2.188 7
18.015499 0.79449999 2.1730001 7
17.959499 0.79449999 2.1730001 7
18.0305 0.80449998 2.1849999 7
18.098499 0.8035 2.1830001 7
17.8405 0.80250001 2.1889999 7
18.130501 0.79350001 2.1670001 7
18.032499 0.80650002 2.188 7
18.109501 0.8035 2.1819999 7
18.120501 0.80150002 2.1789999 7
17.900499 0.80250001 2.187 7
17.8335 0.80049998 2.1860001 7
18.0665 0.79549998 2.1719999 7
18.120501 0.80449998 2.184 7
18.0425 0.80650002 2.188 7
18.0065 0.79949999 2.1789999 7
18.129499 0.7985 2.175 7
18.1285 0.80049998 2.178 7
18.0595 0.79949999 2.178 7
17.8305 0.80049998 2.1860001 7
17.987499 0.79750001 2.178 7
18.129499 0.80150002 2.1789999 7
18.0795 0.80650002 2.187 7
18.001499 0.79350001 2.1719999 7
17.901501 0.79750001 2.1789999 7
17.9695 0.79750001 2.178 7
18.0145 0.80250001 2.184 7
17.886499 0.80250001 2.188 7
18.0515 0.80549997 2.187 7
18.077499 0.7985 2.175 7
18.1085 0.79650003 2.1730001 7
17.9235 0.80449998 2.1889999 7
18.188499 0.7985 2.1730001 7
17.8675 0.80150002 2.187 7
17.9645 0.80549997 2.1889999 7
18.018499 0.80549997 2.187 7
17.952499 0.79949999 2.1800001 7
18.192499 0.80150002 2.177 7
17.845501 0.80250001 2.188 7
18.057501 0.80049998 2.1789999 7
17.9415 0.79650003 2.177 7
17.9895 0.80449998 2.187 7
18.1215 0.8075 2.188 7
17.9165 0.80049998 2.1830001 7
18.129499 0.79350001 2.1670001 7
18.1535 0.80650002 2.1849999 7
17.960501 0.80150002 2.184 7
18.109501 0.7985 2.175 7
17.9095 0.80049998 2.184 7
17.995501 0.80549997 2.1889999 7
18.168501 0.79350001 2.1670001 7
18.0805 0.80049998 2.1789999 7
18.046499 0.79250002 2.168 7
18.1975 0.80549997 2.1830001 7
18.063499 0.79549998 2.1719999 7
18.1905 0.80849999 2.187 7
18.0625 0.7985 2.177 7
18.0975 0.80449998 2.184 7
17.9765 0.80049998 2.1819999 7
18.1105 0.80650002 2.1860001 7
18.1845 0.80849999 2.187 7
17.946501 0.79949999 2.181 7
17.8055 0.80049998 2.1860001 7
17.9305 0.80250001 2.1849999 7
18.0805 0.79250002 2.1670001 7
17.911501 0.80150002 2.1849999 7
18.502501 0.81550002 2.1849999 7
18.4835 0.80650002 2.175 7
18.491501 0.8075 2.175 7
18.379499 0.79949999 2.168 7
18.435499 0.80549997 2.175 7
18.446501 0.80849999 2.178 7
18.3915 0.8035 2.1730001 7
18.286501 0.79750001 2.168 7
18.4205 0.80449998 2.1730001 7
18.481501 0.80949998 2.178 7
18.4505 0.80650002 2.175 7
18.4245 0.80949998 2.1800001 7
18.449499 0.8075 2.177 7
18.3895 0.80250001 2.1719999 7
18.453501 0.80650002 2.175 7
18.4025 0.80150002 2.1700001 7
18.4545 0.80049998 2.168 7
18.4715 0.80549997 2.1730001 7
18.355499 0.80250001 2.1730001 7
18.508499 0.80849999 2.1760001 7
18.5105 0.81550002 2.1849999 7
18.4055 0.7985 2.1670001 7
18.502501 0.81349999 2.1830001 7
18.4645 0.81150001 2.181 7
18.463499 0.80150002 2.1689999 7
18.369499 0.7985 2.1670001 7
18.386499 0.80150002 2.171 7
18.4515 0.8035 2.171 7
18.456499 0.8075 2.177 7
18.3465 0.79949999 2.1689999 7
18.4765 0.80650002 2.174 7
18.4335 0.8035 2.1719999 7
18.3955 0.80250001 2.1719999 7
18.366501 0.8035 2.1730001 7
18.4505 0.80849999 2.178 7
18.460501 0.80449998 2.1730001 7
18.491501 0.81349999 2.1819999 7
18.2565 0.80549997 2.1800001 7
18.275499 0.80949998 2.1860001 7
18.227501 0.8075 2.1849999 7
18.282499 0.80549997 2.181 7
18.248501 0.80150002 2.175 7
18.3995 0.8125 2.1849999 7
18.2255 0.79949999 2.1730001 7
18.2055 0.7985 2.1730001 7
18.2115 0.79750001 2.1700001 7
18.3295 0.8075 2.181 7
18.363501 0.81150001 2.1849999 7
18.213499 0.79949999 2.174 7
18.334499 0.80650002 2.1789999 7
18.255501 0.80049998 2.1730001 7
18.2495 0.80449998 2.1789999 7
18.2505 0.80849999 2.1849999 7
18.4205 0.81150001 2.1819999 7
18.2675 0.80150002 2.175 7
18.431499 0.81550002 2.187 7
18.2805 0.80150002 2.175 7
18.213499 0.8035 2.1789999 7
18.2465 0.79750001 2.168 7
18.4715 0.81650001 2.187 7
18.407499 0.8125 2.1849999 7
18.2495 0.80849999 2.184 7
18.247499 0.80049998 2.174 7
18.300501 0.80650002 2.181 7
18.4345 0.81449997 2.1860001 7
18.2505 0.80949998 2.1860001 7
18.4165 0.81449997 2.188 7
18.2295 0.80250001 2.177 7
18.3915 0.8075 2.178 7
18.282499 0.8075 2.1830001 7
18.245501 0.80849999 2.1860001 7
18.408501 0.81050003 2.181 7
18.3915 0.80949998 2.181 7
18.383499 0.8075 2.178 7
18.238501 0.79949999 2.1719999 7
18.245501 0.81050003 2.188 7
18.390499 0.8125 2.1849999 7
18.272499 0.7985 2.171 7
18.4175 0.81150001 2.1819999 7
18.2185 0.80049998 2.174 7
18.4715 0.81650001 2.187 7
18.428499 0.81449997 2.187 7
18.2745 0.79750001 2.1689999 7
18.2185 0.80049998 2.175 7
18.2015 0.79949999 2.1730001 7
18.331499 0.81150001 2.1860001 7
18.2285 0.7985 2.171 7
18.3255 0.8125 2.188 7
18.199499 0.79750001 2.171 7
18.311501 0.80250001 2.175 7
18.8085 0.79750001 2.1719999 7
18.741501 0.79949999 2.174 7
18.8085 0.80549997 2.1849999 7
18.796499 0.80049998 2.1760001 7
18.7005 0.79650003 2.168 7
18.7715 0.80449998 2.1819999 7
18.759501 0.80250001 2.1789999 7
18.8085 0.79650003 2.1700001 7
18.747499 0.79549998 2.168 7
18.765499 0.8035 2.1800001 7
18.7665 0.7985 2.174 7
18.814501 0.8035 2.181 7
18.806499 0.79750001 2.1719999 7
18.7295 0.79650003 2.1689999 7
18.7735 0.79949999 2.175 7
18.7255 0.79650003 2.168 7
18.8295 0.80049998 2.178 7
18.720501 0.7985 2.1719999 7
18.7985 0.79949999 2.175 7
18.8225 0.79949999 2.1760001 7
18.828501 0.80650002 2.1860001 7
18.772499 0.79549998 2.168 7
18.8265 0.80250001 2.1800001 7
18.813499 0.80250001 2.181 7
18.8165 0.79549998 2.1689999 7
18.7055 0.79949999 2.174 7
18.7805 0.80449998 2.1819999 7
18.5765 0.81449997 2.1860001 7
18.634501 0.80549997 2.178 7
18.6565 0.80849999 2.1830001 7
18.6455 0.80549997 2.178 7
18.751499 0.8035 2.181 7
18.5725 0.80049998 2.1689999 7
18.557501 0.81050003 2.1800001 7
18.647499 0.79949999 2.171 7
18.5175 0.8035 2.171 7
18.6595 0.80949998 2.184 7
18.699499 0.8075 2.1830001 7
18.561501 0.8035 2.1719999 7
18.5355 0.81349999 2.1830001 7
18.6175 0.80549997 2.177 7
18.699499 0.81050003 2.1860001 7
18.678499 0.80250001 2.1760001 7
18.578501 0.8075 2.178 7
18.786501 0.80549997 2.184 7
18.5415 0.81449997 2.1849999 7
18.615499 0.79949999 2.1700001 7
18.6595 0.80949998 2.1830001 7
18.567499 0.80150002 2.171 7
18.7505 0.80849999 2.187 7
18.629499 0.80949998 2.1819999 7
18.6395 0.80150002 2.1730001 7
18.730499 0.80650002 2.1830001 7
18.6015 0.80150002 2.1719999 7
18.8025 0.80849999 2.188 7
18.6385 0.80250001 2.175 7
18.561501 0.79949999 2.1670001 7
18.6045 0.80849999 2.181 7
18.6525 0.79750001 2.1700001 7
18.602501 0.81050003 2.1819999 7
18.740499 0.80250001 2.1789999 7
18.532499 0.79949999 2.1670001 7
18.6605 0.80449998 2.177 7
18.6385 0.8075 2.1800001 7
18.717501 0.80150002 2.1760001 7
18.5765 0.81150001 2.1819999 7
18.5895 0.79750001 2.1670001 7
18.6425 0.81349999 2.187 7
18.681499 0.80150002 2.175 7
18.633499 0.81349999 2.187 7
18.5895 0.81349999 2.1860001 7
18.5445 0.81050003 2.1800001 7
18.6495 0.80650002 2.1800001 7
18.5945 0.80449998 2.175 7
18.717501 0.8075 2.184 7
18.755501 0.8075 2.1849999 7
18.776501 0.8075 2.1860001 7
18.6695 0.79949999 2.1730001 7
18.543501 0.81449997 2.184 7
18.577499 0.80250001 2.1719999 7
18.5725 0.79949999 2.168 7
18.5245 0.8075 2.1760001 7
18.769501 0.81050003 2.1889999 7
18.5215 0.80849999 2.1760001 7
18.7435 0.80949998 2.187 7
18.7185 0.8125 2.1889999 7
18.682501 0.79949999 2.1719999 7
18.550501 0.80250001 2.171 7
18.657499 0.81050003 2.1849999 7
18.7115 0.80150002 2.1760001 7
18.557501 0.81650001 2.188 7
18.7395 0.80549997 2.1819999 7
18.577499 0.81650001 2.188 7
18.9555 0.81050003 2.1860001 7
18.977501 0.8125 2.187 7
18.9275 0.8075 2.184 7
19.012501 0.81349999 2.187 7
19.1105 0.81650001 2.187 7
19.0875 0.8175 2.1889999 7
19.1085 0.80650002 2.174 7
19.026501 0.80849999 2.181 7
18.9925 0.80449998 2.177 7
18.921499 0.81050003 2.187 7
19.0665 0.79949999 2.168 7
18.953501 0.81349999 2.1900001 7
19.1045 0.8075 2.175 7
19.102501 0.80250001 2.1689999 7
19.078501 0.79949999 2.1670001 7
19.113501 0.80849999 2.177 7
19.025499 0.81050003 2.1830001 7
19.115499 0.81650001 2.1860001 7
19.054501 0.80849999 2.1789999 7
18.9965 0.80150002 2.1730001 7
19.0035 0.79949999 2.1700001 7
19.005501 0.81150001 2.1849999 7
19.060499 0.80849999 2.1789999 7
19.0755 0.81150001 2.1819999 7
18.9765 0.8035 2.1760001 7
19.0595 0.80849999 2.1789999 7
19.0525 0.80250001 2.1719999 7
19.113501 0.81650001 2.187 7
18.9445 0.81150001 2.1889999 7
19.0805 0.81150001 2.1819999 7
19.112499 0.80250001 2.1689999 7
19.063499 0.81550002 2.187 7
19.0375 0.80650002 2.177 7
18.997499 0.80150002 2.1730001 7
19.026501 0.81449997 2.1889999 7
18.8895 0.80849999 2.187 7
18.890499 0.8075 2.1860001 7
19.0145 0.8125 2.1860001 7
18.9835 0.80650002 2.1800001 7
18.966499 0.80250001 2.1760001 7
19.067499 0.8175 2.1889999 7
18.994499 0.80949998 2.1830001 7
19.077499 0.81650001 2.188 7
19.039499 0.80650002 2.177 7
19.0135 0.8035 2.175 7
19.1035 0.81349999 2.1830001 7
19.1145 0.80650002 2.174 7
19.0275 0.79949999 2.1700001 7
19.1075 0.81349999 2.1830001 7
19.026501 0.81349999 2.187 7
19.0525 0.81449997 2.187 7
19.047501 0.80650002 2.177 7
19.0425 0.81150001 2.1830001 7
19.1285 0.80549997 2.1719999 7
18.966499 0.8075 2.1819999 7
18.980499 0.81150001 2.187 7
18.952499 0.81050003 2.1860001 7
19.012501 0.8125 2.1860001 7
18.9575 0.80049998 2.1730001 7
18.953501 0.7985 2.1700001 7
18.8915 0.80250001 2.1789999 7
18.922501 0.79750001 2.1689999 7
18.904499 0.79750001 2.1700001 7
18.8585 0.80449998 2.1830001 7
18.925501 0.79949999 2.1730001 7
18.8825 0.80250001 2.1789999 7
18.8985 0.80449998 2.181 7
18.879499 0.80449998 2.1819999 7
18.872499 0.80449998 2.1819999 7
18.865499 0.80250001 2.1789999 7
18.901501 0.79750001 2.1700001 7
18.9165 0.79549998 2.1670001 7
18.9925 0.79949999 2.171 7
18.8545 0.79449999 2.1670001 7
18.953501 0.79750001 2.1689999 7
18.8745 0.79549998 2.168 7
18.856501 0.8035 2.181 7
18.8715 0.80449998 2.1830001 7
18.921499 0.80049998 2.175 7
18.8915 0.79750001 2.1700001 7
18.8745 0.80250001 2.1789999 7
18.9245 0.80150002 2.177 7
19.220501 0.8075 2.1819999 7
19.2015 0.81050003 2.1860001 7
19.241501 0.8075 2.1849999 7
19.1665 0.80250001 2.171 7
19.189501 0.81050003 2.184 7
19.203501 0.81150001 2.1860001 7
19.2425 0.80849999 2.1860001 7
19.2125 0.80150002 2.174 7
19.144501 0.81050003 2.1800001 7
19.240499 0.8075 2.1849999 7
19.303499 0.80250001 2.1830001 7
19.268499 0.80250001 2.1800001 7
19.1915 0.80250001 2.1719999 7
19.199499 0.80849999 2.1819999 7
19.151501 0.80449998 2.1719999 7
19.196501 0.80150002 2.1719999 7
19.3195 0.80049998 2.1819999 7
19.210501 0.8075 2.181 7
19.1415 0.80449998 2.171 7
19.143499 0.81150001 2.1819999 7
19.1555 0.81349999 2.1860001 7
19.252501 0.7985 2.1730001 7
19.1605 0.81349999 2.1860001 7
19.206499 0.81050003 2.1860001 7
19.216499 0.80549997 2.1800001 7
19.1455 0.81349999 2.1849999 7
19.227501 0.8075 2.1830001 7
19.1485 0.81349999 2.1849999 7
19.1735 0.81050003 2.1819999 7
19.1695 0.80049998 2.1689999 7
19.2925 0.80150002 2.1800001 7
19.129499 0.80949998 2.178 7
19.2075 0.79750001 2.1670001 7
19.1535 0.81449997 2.187 7
19.1695 0.80150002 2.1689999 7
19.276501 0.80049998 2.177 7
19.296499 0.79750001 2.1760001 7
19.2995 0.80250001 2.1830001 7
19.2925 0.79750001 2.174 7
19.303499 0.80250001 2.1830001 7
19.3155 0.79750001 2.1670001 7
19.314501 0.79750001 2.171 7
19.306499 0.79750001 2.1670001 7
19.2805 0.79650003 2.171 7
19.3235 0.7985 2.174 7
19.338499 0.7985 2.1730001 7
19.318501 0.79750001 2.1670001 7
19.310499 0.79750001 2.1719999 7
19.348499 0.7985 2.1719999 7
19.511499 0.80150002 2.1689999 7
19.3745 0.79949999 2.1760001 7
19.578501 0.80250001 2.171 7
19.4105 0.79949999 2.1760001 7
19.543501 0.80150002 2.175 7
19.5285 0.80150002 2.175 7
19.366501 0.7985 2.1700001 7
19.4655 0.80049998 2.171 7
19.5735 0.80250001 2.174 7
19.553499 0.80250001 2.175 7
19.564501 0.80150002 2.1689999 7
19.393499 0.79949999 2.175 7
19.5375 0.80150002 2.171 7
19.4445 0.79949999 2.1689999 7
19.4125 0.80049998 2.1789999 7
19.4795 0.80049998 2.1689999 7
19.5485 0.80150002 2.1689999 7
19.370501 0.7985 2.168 7
19.4195 0.79949999 2.1670001 7
19.4245 0.79949999 2.1670001 7
19.5315 0.80150002 2.1689999 7
19.359501 0.79949999 2.1789999 7
19.509501 0.80150002 2.171 7
19.418501 0.79949999 2.1730001 7
16.193501 0.87449998 2.1789999 7
16.2115 0.86650002 2.187 7
16.2125 0.87550002 2.175 7
16.2255 0.86849999 2.1819999 7
16.2335 0.86949998 2.1800001 7
16.1985 0.87449998 2.1789999 7
16.1985 0.87150002 2.1819999 7
16.2185 0.8725 2.178 7
16.220501 0.87449998 2.175 7
16.1915 0.87150002 2.1830001 7
15.8275 0.99849999 2.1819999 7
15.8335 0.99449998 2.1849999 7
15.8765 0.98549998 2.1819999 7
15.8185 0.99650002 2.1860001 7
15.8425 0.99650002 2.181 7
15.8835 0.97049999 2.1919999 7
15.8685 0.98250002 2.1860001 7
15.8315 0.9975 2.1819999 7
15.8545 0.98949999 2.184 7
15.8705 0.99150002 2.1789999 7
15.8735 0.9885 2.181 7
15.8685 0.99049997 2.1800001 7
15.9135 0.97350001 2.177 7
15.8895 0.97149998 2.1900001 7
15.8855 0.98049998 2.184 7
15.8825 0.98150003 2.184 7
15.9005 0.97850001 2.178 7
15.9005 0.97049999 2.1860001 7
15.8835 0.98549998 2.1789999 7
15.9375 0.96149999 2.1789999 7
15.9135 0.96249998 2.1889999 7
15.9805 0.95050001 2.1760001 7
15.9075 0.96249998 2.1930001 7
16.0075 0.93949997 2.191 7
15.9445 0.95349997 2.194 7
16.0145 0.93949997 2.184 7
15.9815 0.94550002 2.1930001 7
15.9765 0.94550002 2.194 7
15.9115 0.96249998 2.1919999 7
15.9795 0.94749999 2.1849999 7
15.9315 0.95749998 2.191 7
15.9935 0.9425 2.191 7
15.9965 0.94450003 2.1830001 7
15.9865 0.94550002 2.1889999 7
16.0285 0.93650001 2.1849999 7
16.0245 0.93949997 2.1760001 7
15.9225 0.95950001 2.191 7
16.009501 0.94349998 2.1760001 7
16.0035 0.94349998 2.1800001 7
15.9665 0.94950002 2.1900001 7
16.0175 0.9375 2.188 7
15.9765 0.94849998 2.1849999 7
16.070499 0.92449999 2.184 7
16.057501 0.93150002 2.177 7
16.029499 0.93550003 2.187 7
16.0425 0.93049997 2.1889999 7
16.056499 0.92949998 2.1830001 7
16.098499 0.92049998 2.174 7
16.1145 0.91649997 2.175 7
16.056499 0.92949998 2.1819999 7
16.043501 0.93449998 2.178 7
16.0835 0.92250001 2.1800001 7
16.081499 0.91850001 2.1849999 7
16.1385 0.90249997 2.177 7
16.144501 0.89349997 2.1789999 7
16.0805 0.92150003 2.184 7
16.0695 0.91750002 2.1889999 7
16.119499 0.90450001 2.181 7
16.0965 0.90649998 2.187 7
16.1495 0.89249998 2.1789999 7
16.1145 0.90649998 2.1819999 7
16.0865 0.9095 2.188 7
16.127501 0.90549999 2.1789999 7
16.1385 0.89649999 2.1800001 7
16.0355 0.93049997 2.1919999 7
16.1245 0.90850002 2.178 7
16.071501 0.91649997 2.1889999 7
16.1425 0.90149999 2.1760001 7
16.134501 0.90649998 2.1760001 7
14.6665 1.0484999 2.184 7
14.5905 1.0405 2.181 7
14.6495 1.0465 2.184 7
14.5845 1.0395 2.1819999 7
14.7175 1.0545 2.184 7
15.3695 0.78049999 2.168 7
15.3735 0.78149998 2.1689999 7
19.5625 1.2704999 2.198 7
19.5515 1.2455 2.201 7
19.5485 1.2635 2.204 7
19.5285 1.2565 2.211 7
19.532499 1.2625 2.21 7
19.5725 1.2345001 2.1919999 7
19.5755 1.2735 2.194 7
19.5625 1.2665 2.198 7
19.550501 1.2575001 2.2019999 7
19.5585 1.2654999 2.2 7
19.5625 1.2695 2.1989999 7
19.5695 1.2375 2.1930001 7
19.5695 1.2595 2.1949999 7
19.553499 1.2635 2.2019999 7
19.539499 1.2505 2.2060001 7
15.9515 1.0265 2.1819999 7
15.9495 1.0265 2.1819999 7
15.9505 1.0275 2.181 7
15.9465 1.0265 2.1819999 7
15.9285 1.0265 2.1800001 7
16.2845 0.8495 2.1949999 7
16.2955 0.8545 2.188 7
16.2705 0.85250002 2.194 7
16.2665 0.85650003 2.191 7
16.3995 0.85350001 2.1930001 7
16.313499 0.84750003 2.1960001 7
16.3675 0.85350001 2.1919999 7
16.4025 0.85650003 2.1900001 7
16.4095 0.85650003 2.191 7
16.345501 0.85250002 2.1919999 7
16.3785 0.85549998 2.1889999 7
16.4095 0.8545 2.1930001 7
16.3645 0.8545 2.1889999 7
16.4105 0.8545 2.1930001 7
16.310499 0.85149997 2.1900001 7
16.3235 0.8545 2.187 7
16.318501 0.84850001 2.1949999 7
16.373501 0.85250002 2.194 7
16.3545 0.85650003 2.187 7
16.4125 0.86150002 2.1800001 7
16.4445 0.86250001 2.1800001 7
16.4135 0.85949999 2.184 7
16.393499 0.85949999 2.1819999 7
16.470501 0.86049998 2.187 7
16.445499 0.85949999 2.188 7
16.4895 0.86549997 2.177 7
16.4715 0.85949999 2.1889999 7
16.4865 0.86049998 2.1889999 7
16.4855 0.86049998 2.1889999 7
16.4125 0.86250001 2.1789999 7
16.4825 0.86750001 2.174 7
16.401501 0.85750002 2.187 7
16.4825 0.86449999 2.1800001 7
16.445499 0.85949999 2.188 7
16.373501 0.8585 2.1830001 7
16.453501 0.8635 2.1800001 7
16.366501 0.85750002 2.1860001 7
16.4575 0.85949999 2.187 7
16.452499 0.86250001 2.1800001 7
16.4095 0.8585 2.1860001 7
16.4925 0.8635 2.1819999 7
16.4855 0.8585 2.1930001 7
16.5035 0.86650002 2.1760001 7
16.4505 0.85949999 2.188 7
14.4565 0.84649998 2.181 7
14.4575 0.84549999 2.178 7
14.4635 0.84750003 2.174 7
14.4785 0.8585 2.1830001 7
14.4605 0.84549999 2.174 7
14.4625 0.8495 2.181 7
14.4715 0.85650003 2.187 7
14.4885 0.86250001 2.177 7
14.5055 0.88950002 2.1760001 7
14.4965 0.87449998 2.175 7
14.5085 0.90450001 2.1830001 7
14.5365 0.96350002 2.1800001 7
14.5065 0.89749998 2.1819999 7
14.5225 0.92949998 2.178 7
14.5555 1.0055 2.1789999 7
14.5095 0.90750003 2.1830001 7
14.5005 0.88950002 2.1860001 7
14.5185 0.91850001 2.177 7
14.5245 0.93650001 2.1800001 7
14.5655 1.0285 2.1800001 7
14.5275 0.9425 2.1789999 7
14.5545 1.0035 2.1789999 7
14.5635 1.0295 2.1819999 7
14.5225 0.92449999 2.1760001 7
14.5235 0.92949998 2.177 7
14.5245 0.9425 2.184 7
16.372499 0.88050002 2.1919999 7
16.4245 0.87150002 2.1930001 7
16.331499 0.88550001 2.191 7
16.3675 0.88450003 2.1919999 7
16.3085 0.89050001 2.191 7
16.335501 0.88450003 2.191 7
16.314501 0.89349997 2.1919999 7
16.4405 0.87050003 2.1930001 7
16.331499 0.88749999 2.191 7
16.400499 0.8775 2.1930001 7
16.314501 0.85049999 2.1960001 7
16.4575 0.86049998 2.194 7
16.313499 0.86750001 2.1930001 7
16.4055 0.85750002 2.1949999 7
16.318501 0.88050002 2.1919999 7
16.3335 0.86650002 2.194 7
16.4125 0.86750001 2.1930001 7
16.4245 0.86849999 2.1930001 7
16.327499 0.88550001 2.191 7
16.3815 0.86849999 2.1930001 7
16.314501 0.88249999 2.191 7
16.318501 0.8865 2.191 7
16.3515 0.87550002 2.1919999 7
16.390499 0.87550002 2.1919999 7
16.376499 0.86949998 2.1930001 7
16.3055 0.85049999 2.1960001 7
16.320499 0.87949997 2.1919999 7
16.3085 0.88849998 2.1900001 7
16.304501 0.87449998 2.1919999 7
16.4165 0.86549997 2.1930001 7
16.377501 0.86849999 2.1930001 7
16.372499 0.86549997 2.194 7
16.318501 0.87449998 2.1919999 7
16.4275 0.86549997 2.194 7
16.313499 0.88550001 2.191 7
16.324499 0.86849999 2.1930001 7
16.3405 0.88349998 2.191 7
16.4205 0.86849999 2.1930001 7
16.3125 0.87150002 2.1930001 7
16.349501 0.86049998 2.194 7
16.3295 0.85250002 2.1960001 7
16.352501 0.85750002 2.1949999 7
16.3615 0.85149997 2.1960001 7
16.318501 0.85149997 2.1960001 7
16.3685 0.86449999 2.194 7
16.3895 0.85750002 2.1949999 7
16.370501 0.86650002 2.1930001 7
16.335501 0.86250001 2.194 7
16.345501 0.88249999 2.191 7
16.4025 0.86849999 2.1930001 7
16.438499 0.85750002 2.1949999 7
16.407499 0.86150002 2.194 7
16.3365 0.85549998 2.1949999 7
16.369499 0.86049998 2.194 7
16.3305 0.87849998 2.1919999 7
16.397499 0.86250001 2.1789999 7
16.3995 0.8635 2.1800001 7
14.9265 0.89450002 2.1730001 7
14.9235 0.90350002 2.174 7
14.9255 0.89850003 2.174 7
14.9225 0.91049999 2.1789999 7
14.9505 0.87150002 2.1789999 7
14.9475 0.87449998 2.181 7
14.9505 0.86650002 2.171 7
14.9495 0.86750001 2.1719999 7
14.9485 0.86750001 2.1719999 7
14.9685 0.95649999 2.1860001 7
14.9705 0.95950001 2.1819999 7
14.9605 0.99449998 2.178 7
14.9625 0.9885 2.178 7
14.9715 0.94749999 2.1860001 7
14.9565 1.0015 2.181 7
14.9735 0.94550002 2.1830001 7
16.133499 0.95749998 2.184 7
16.1455 0.94950002 2.1830001 7
16.133499 0.95550001 2.184 7
16.179501 0.93949997 2.181 7
16.140499 0.95050001 2.184 7
16.1385 0.95550001 2.184 7
16.1595 0.94550002 2.1819999 7
16.137501 0.95349997 2.184 7
16.164499 0.93650001 2.1819999 7
16.126499 0.96450001 2.1849999 7
16.3585 0.86549997 2.178 7
16.3545 0.86449999 2.178 7
16.3895 0.86449999 2.1789999 7
16.334499 0.85949999 2.1819999 7
16.342501 0.87150002 2.1719999 7
16.3235 0.8585 2.1819999 7
16.3295 0.87150002 2.1719999 7
16.3505 0.86650002 2.177 7
16.3965 0.86449999 2.1789999 7
16.386499 0.86250001 2.1800001 7
16.379499 0.86449999 2.178 7
16.320499 0.86650002 2.1760001 7
16.3715 0.86750001 2.1760001 7
16.386499 0.87150002 2.1730001 7
16.349501 0.87150002 2.1719999 7
16.3515 0.86750001 2.1760001 7
14.4515 0.84549999 2.174 7
14.4515 0.84549999 2.1849999 7
14.4555 0.84549999 2.178 7
14.4515 0.84549999 2.1830001 7
14.9575 0.94050002 2.184 7
14.9545 0.9465 2.178 7
14.9575 0.94749999 2.178 7
14.9355 0.94450003 2.1789999 7
14.9645 0.94450003 2.181 7
14.9765 0.94849998 2.1760001 7
15.7265 1.0035 2.184 7
15.7365 1.0125 2.1789999 7
15.7675 1.0045 2.1830001 7
15.7245 1.0075001 2.1819999 7
15.7485 1.0045 2.184 7
15.7315 1.0065 2.1819999 7
15.7415 1.0075001 2.1819999 7
15.7585 1.0105 2.1800001 7
15.7345 1.0005 2.1860001 7
15.7835 1.0055 2.1830001 7
15.7335 1.0105 2.1800001 7
15.7365 1.0095 2.181 7
15.7995 1.0095 2.1830001 7
15.7965 1.0265 2.1819999 7
15.8085 1.0215 2.188 7
15.8085 1.0305001 2.1849999 7
15.8125 1.0305001 2.184 7
16.3055 0.87650001 2.1860001 7
16.311501 0.87349999 2.174 7
16.3085 0.86150002 2.1830001 7
16.3085 0.89249998 2.174 7
19.5945 1.1665 2.175 7
19.591499 1.1705 2.178 7
19.6015 1.1675 2.165 7
19.6075 1.1495 2.158 7
19.6005 1.1445 2.168 7
19.605499 1.1065 2.164 7
19.609501 1.0815001 2.1589999 7
19.598499 1.1734999 2.1689999 7
19.612499 1.0505 2.158 7
19.5965 1.1745 2.1719999 7
19.605499 1.1585 2.1600001 7
19.606501 1.0895 2.1630001 7
19.595501 1.1955 2.171 7
19.591499 1.1695 2.178 7
19.612499 1.0725 2.1570001 7
19.602501 1.1865 2.1630001 7
19.605499 1.1275001 2.1619999 7
19.598499 1.1845 2.168 7
19.602501 1.1015 2.168 7
19.599501 1.1565 2.168 7
19.591499 1.1964999 2.177 7
19.6085 1.1055 2.1589999 7
19.584499 1.2235 2.184 7
19.5945 1.1485 2.175 7
19.6045 1.1625 2.1619999 7
19.6075 1.0805 2.1619999 7
19.6035 1.1765 2.1619999 7
19.584499 1.2135 2.184 7
19.6115 1.0615 2.158 7
19.602501 1.1655 2.164 7
19.591499 1.1765 2.178 7
19.6105 1.1095001 2.1570001 7
19.6085 1.1465 2.1570001 7
19.5905 1.1985 2.178 7
19.591499 1.2075 2.1760001 7
19.612499 1.2775 2.164 7
19.6145 1.2244999 2.1600001 7
19.6145 1.2424999 2.1630001 7
19.6145 1.2325 2.1589999 7
19.612499 1.2825 2.175 7
19.615499 1.2175 2.1589999 7
19.613501 1.2625 2.164 7
19.6145 1.2435 2.1589999 7
19.612499 1.2685 2.174 7
19.6115 1.2975 2.2119999 7
19.609501 1.2855 2.369 7
19.6105 1.2975 2.3570001 7
19.609501 1.2805001 2.365 7
19.6105 1.3005 2.3110001 7
19.609501 1.2915 2.392 7
19.6115 1.3005 2.2149999 7
19.6105 1.2995 2.263 7
19.6105 1.2885 2.3139999 7
19.6105 1.2995 2.326 7
19.609501 1.2845 2.4030001 7
19.6105 1.2885 2.289 7
19.6105 1.2865 2.323 7
19.6115 1.2995 2.2079999 7
19.6105 1.2855 2.323 7
19.6105 1.2905 2.2349999 7
19.6105 1.2925 2.253 7
19.609501 1.2845 2.3659999 7
19.6105 1.2965 2.296 7
19.6105 1.2855 2.3280001 7
19.6105 1.2895 2.3280001 7
19.6105 1.2965 2.3570001 7
19.6105 1.2905 2.325 7
19.6105 1.2885 2.2720001 7
19.6115 1.2984999 2.1900001 7
19.6115 1.2955 2.2219999 7
19.6105 1.2934999 2.293 7
19.6105 1.2995 2.342 7
19.6105 1.2865 2.296 7
19.6105 1.2905 2.313 7
19.6105 1.2984999 2.24 7
19.6105 1.2845 2.3239999 7
19.609501 1.2934999 2.365 7
19.609501 1.2965 2.3770001 7
19.6105 1.2995 2.244 7
19.6105 1.2955 2.339 7
19.609501 1.2845 2.3570001 7
19.609501 1.2984999 2.3770001 7
19.6105 1.2965 2.2379999 7
19.6105 1.2925 2.322 7
19.6105 1.2885 2.2850001 7
19.609501 1.2865 2.5009999 7
19.609501 1.2905 2.4419999 7
19.609501 1.2905 2.4990001 7
19.609501 1.2765 2.52 7
19.6105 1.2945 2.556 7
19.6105 1.2965 2.4749999 7
19.609501 1.2905 2.4330001 7
19.609501 1.2984999 2.4319999 7
19.609501 1.2865 2.4949999 7
19.6105 1.2945 2.5610001 7
19.6105 1.2965 2.5120001 7
19.609501 1.2785 2.4860001 7
19.609501 1.2885 2.427 7
19.6105 1.2965 2.5 7
19.6105 1.2855 2.5469999 7
19.609501 1.2845 2.4909999 7
19.6105 1.2965 2.5350001 7
19.609501 1.2855 2.4949999 7
19.609501 1.2955 2.46 7
19.609501 1.2815 2.464 7
19.6105 1.2945 2.5550001 7
19.609501 1.2835 2.4809999 7
19.609501 1.2905 2.4790001 7
19.609501 1.2835 2.4849999 7
19.609501 1.2934999 2.4260001 7
19.609501 1.2905 2.424 7
19.6105 1.2925 2.602 7
19.609501 1.2915 2.628 7
19.6105 1.2905 2.5699999 7
19.609501 1.2895 2.6359999 7
19.609501 1.2925 2.6689999 7
19.6105 1.2925 2.6110001 7
19.609501 1.2865 2.6129999 7
19.609501 1.2875 2.5940001 7
19.609501 1.2805001 2.5780001 7
19.609501 1.2875 2.608 7
19.609501 1.2815 2.5810001 7
19.609501 1.2885 2.655 7
19.6105 1.2915 2.5829999 7
19.6105 1.2955 2.5940001 7
19.6105 1.2945 2.5940001 7
19.609501 1.2915 2.6289999 7
19.609501 1.2885 2.641 7
19.609501 1.2915 2.665 7
19.6105 1.2925 2.5650001 7
19.6115 1.2975 2.1819999 7
19.6115 1.2984999 2.1819999 7
19.6115 1.3025 2.175 7
19.609501 1.2885 2.4170001 7
19.609501 1.2825 2.418 7
19.609501 0.80949998 2.1619999 7
19.6185 0.92250001 2.158 7
19.6115 0.82349998 2.158 7
19.612499 0.8545 2.1689999 7
19.616501 0.90750003 2.1600001 7
19.612499 0.84549999 2.1600001 7
19.615499 0.88249999 2.152 7
19.612499 0.85049999 2.1600001 7
19.619499 0.93449998 2.1530001 7
19.6105 0.82349998 2.161 7
19.6105 0.82450002 2.165 7
19.612499 0.83950001 2.1600001 7
19.615499 0.88849998 2.1630001 7
15.1885 0.8075 2.152 7
15.1345 0.81449997 2.1619999 7
15.1255 0.81449997 2.152 7
15.0065 0.82849997 2.1570001 7
15.1725 0.80949998 2.155 7
15.0705 0.82249999 2.168 7
15.0785 0.82050002 2.1619999 7
15.1115 0.81650001 2.158 7
15.0445 0.82450002 2.1619999 7
15.1405 0.81349999 2.158 7
15.1365 0.81449997 2.1619999 7
15.0785 0.81950003 2.1530001 7
15.0195 0.82749999 2.164 7
15.0885 0.81950003 2.164 7
15.0585 0.82249999 2.1589999 7
15.1575 0.81150001 2.1559999 7
15.0905 0.81849998 2.1530001 7
15.1325 0.81349999 2.152 7
15.1185 0.81550002 2.151 7
15.1125 0.8175 2.165 7
15.0585 0.82349998 2.1630001 7
15.0255 0.8265 2.1600001 7
15.1565 0.81150001 2.1589999 7
15.1675 0.80949998 2.1530001 7
15.0055 0.82849997 2.154 7
15.0255 0.82749999 2.168 7
15.1795 0.80849999 2.152 7
15.1465 0.8125 2.1530001 7
15.0165 0.82749999 2.1530001 7
15.1285 0.81449997 2.1559999 7
15.2795 0.8075 2.1559999 7
15.2685 0.8075 2.1559999 7
15.2725 0.8075 2.155 7
15.2975 0.81150001 2.164 7
15.2125 0.80650002 2.151 7
15.1775 0.81449997 2.1670001 7
15.2135 0.80949998 2.158 7
15.2205 0.80650002 2.151 7
15.2075 0.81150001 2.161 7
15.2945 0.81050003 2.1619999 7
15.1485 0.81349999 2.164 7
15.2125 0.8125 2.165 7
15.2535 0.81050003 2.1600001 7
15.1405 0.81449997 2.1670001 7
15.2125 0.80849999 2.1559999 7
15.2695 0.81150001 2.164 7
15.2445 0.80650002 2.152 7
15.1835 0.81150001 2.1619999 7
15.1805 0.81349999 2.165 7
15.2415 0.81050003 2.1600001 7
15.2205 0.8075 2.155 7
15.2195 0.81349999 2.1670001 7
15.2525 0.8075 2.155 7
15.3445 0.78549999 2.161 7
15.3075 0.80049998 2.1570001 7
15.3225 0.79149997 2.1559999 7
15.3245 0.79949999 2.164 7
15.3065 0.80650002 2.1619999 7
15.3275 0.7985 2.165 7
15.3165 0.79750001 2.1589999 7
15.3215 0.80150002 2.165 7
17.497499 0.81349999 2.161 7
17.505501 0.80449998 2.164 7
17.497499 0.81349999 2.154 7
17.4965 0.81449997 2.161 7
17.4785 0.8355 2.1659999 7
17.480499 0.83249998 2.154 7
17.508499 0.80150002 2.154 7
17.509501 0.80049998 2.151 7
17.5005 0.81050003 2.155 7
17.480499 0.83249998 2.152 7
17.494499 0.81650001 2.1619999 7
17.502501 0.8075 2.152 7
14.4265 1.0735 2.1800001 7
14.4255 1.1705 2.177 7
14.4395 1.1845 2.1800001 7
14.4415 1.1045001 2.1830001 7
14.4165 1.1365 2.1760001 7
14.4175 1.1684999 2.1760001 7
14.4605 1.2205 2.184 7
14.4435 1.1975 2.181 7
14.4505 1.1995 2.1830001 7
14.4385 1.0915 2.1819999 7
14.4315 1.0575 2.181 7
14.4465 1.1495 2.1830001 7
14.4565 1.1734999 2.184 7
14.4315 1.1235 2.1800001 7
14.4455 1.1545 2.1819999 7
14.4395 1.1635 2.181 7
14.4465 1.1515 2.1830001 7
14.4085 1.1025 2.175 7
14.4425 1.1345 2.1819999 7
14.4545 1.1905 2.184 7
14.4415 1.1985 2.1800001 7
14.4505 1.1525 2.184 7
14.4155 1.1325001 2.1760001 7
14.4155 1.0885 2.177 7
14.4075 1.1015 2.175 7
14.4415 1.1775 2.181 7
14.4415 1.1585 2.181 7
14.4285 1.1135 2.1789999 7
14.3875 1.1285 2.1700001 7
14.4195 1.1245 2.177 7
14.3925 1.0955 2.171 7
14.4155 1.0795 2.177 7
14.4235 1.0865 2.1789999 7
14.4265 1.0575 2.1800001 7
14.4455 1.1375 2.1830001 7
14.4185 1.1595 2.1760001 7
14.4345 1.1335 2.1800001 7
14.4165 1.0935 2.177 7
14.4215 1.0605 2.1789999 7
14.4495 1.1595 2.1830001 7
14.4195 1.0225 2.1789999 7
14.3945 1.1045001 2.1719999 7
14.4275 1.1435 2.178 7
14.4115 1.0215 2.177 7
14.3915 1.1135 2.171 7
14.4255 1.0585001 2.1800001 7
14.4145 1.1465 2.175 7
14.4595 1.1985 2.1849999 7
14.4055 1.0375 2.1760001 7
14.4355 1.1955 2.1789999 7
14.4045 1.0745 2.175 7
14.4065 1.0765001 2.175 7
14.4425 1.0994999 2.1830001 7
14.4335 1.1095001 2.181 7
14.4035 1.1185 2.1730001 7
14.4105 1.1415 2.175 7
14.4425 1.1925 2.181 7
14.4465 1.1565 2.1819999 7
14.4445 1.1665 2.1819999 7
14.4375 1.0805 2.1819999 7
14.4195 1.0815001 2.178 7
14.4165 1.1165 2.1760001 7
14.4165 1.0154999 2.1789999 7
14.4455 1.1595 2.1819999 7
14.3905 1.1375 2.1700001 7
14.4465 1.1935 2.1819999 7
14.4575 1.1865 2.184 7
14.4545 1.1655 2.184 7
14.4315 1.1635 2.1789999 7
14.4185 1.1395 2.1760001 7
14.4055 1.0865 2.175 7
14.4055 1.1445 2.1730001 7
14.4035 1.0655 2.175 7
14.4545 1.2025 2.1830001 7
14.4375 1.1545 2.181 7
14.4475 1.1615 2.1830001 7
14.4565 1.2185 2.184 7
14.4085 1.0944999 2.175 7
14.4535 1.1415 2.184 7
14.4045 1.0555 2.175 7
14.4505 1.1375 2.184 7
14.4295 1.1425 2.1789999 7
14.4095 1.0375 2.177 7
14.4215 1.0425 2.1789999 7
14.4145 1.0795 2.177 7
14.4305 1.1595 2.1789999 7
14.4495 1.1765 2.1830001 7
14.4195 1.0315 2.1789999 7
14.4465 1.1325001 2.1830001 7
14.4325 1.1565 2.1789999 7
14.4135 1.1174999 2.1760001 7
14.3955 1.1195 2.1719999 7
14.4165 1.2295001 2.1860001 7
14.3845 1.1785001 2.177 7
14.4095 1.2125 2.1830001 7
14.3875 1.2194999 2.1860001 7
14.4045 1.1765 2.1760001 7
14.4405 1.2345001 2.1860001 7
14.4175 1.1845 2.177 7
14.4415 1.2275 2.1849999 7
14.4165 1.2255 2.1860001 7
14.3985 1.1855 2.178 7
14.4075 1.1665 2.174 7
14.4415 1.2225 2.184 7
14.4125 1.2105 2.1830001 7
14.3805 1.1445 2.1700001 7
14.3845 1.1454999 2.1700001 7
14.4245 1.2365 2.188 7
14.4525 1.2285 2.1849999 7
14.4275 1.2345001 2.187 7
14.3965 1.1875 2.1789999 7
14.4355 1.2125 2.1819999 7
14.4285 1.2275 2.1849999 7
14.4235 1.2145 2.1830001 7
14.3825 1.1635 2.174 7
14.3845 1.1495 2.171 7
14.4275 1.1964999 2.1789999 7
14.3925 1.2055 2.1830001 7
14.4065 1.2135 2.184 7
14.3855 1.2435 2.191 7
14.4345 1.1975 2.1789999 7
14.3965 1.2295001 2.187 7
14.4295 1.2015001 2.1800001 7
14.4015 1.2075 2.1830001 7
14.3945 1.2135 2.184 7
14.4005 1.2455 2.191 7
14.4575 1.2265 2.184 7
14.4055 1.2145 2.184 7
14.4175 1.1895 2.178 7
14.4075 1.2005 2.181 7
14.4095 1.1695 2.174 7
14.3845 1.1535 2.1719999 7
14.4525 1.2295001 2.1849999 7
14.3975 1.2085 2.1830001 7
14.3935 1.1715 2.175 7
14.3965 1.2295001 2.187 7
14.3985 1.1955 2.1800001 7
14.3885 1.2244999 2.187 7
14.3845 1.2035 2.1830001 7
14.4015 1.2424999 2.1900001 7
14.4965 1.1365 2.1849999 7
14.4995 1.1245 2.1849999 7
14.4755 1.1425 2.1849999 7
14.5075 1.1325001 2.184 7
14.5175 1.1125 2.184 7
14.5155 1.1035 2.184 7
14.4865 1.1545 2.1849999 7
14.4925 1.1245 2.1849999 7
14.4935 1.1275001 2.1849999 7
14.4805 1.1705 2.1849999 7
14.4715 1.1885 2.1849999 7
14.5205 1.1085 2.184 7
14.5125 1.1375 2.184 7
14.4885 1.1435 2.1849999 7
14.4965 1.1345 2.1849999 7
14.4775 1.1404999 2.1849999 7
14.4825 1.1485 2.1849999 7
14.4655 1.2095 2.1849999 7
14.4625 1.1565 2.1849999 7
14.4885 1.1665 2.184 7
14.4715 1.1684999 2.1849999 7
14.4765 1.1385 2.1849999 7
14.4635 1.2255 2.1849999 7
14.4745 1.1545 2.1849999 7
14.4705 1.1665 2.1849999 7
14.4955 1.1615 2.184 7
14.4955 1.1445 2.1849999 7
14.5235 1.1065 2.184 7
14.5235 1.1065 2.184 7
14.4625 1.1925 2.1849999 7
14.4735 1.2055 2.184 7
14.4675 1.2185 2.184 7
14.4745 1.1715 2.1849999 7
14.4715 1.1865 2.1849999 7
14.5125 1.1205 2.184 7
14.4695 1.2005 2.1849999 7
14.5755 1.1435 2.184 7
14.6085 1.1475 2.1849999 7
14.5295 1.1275001 2.184 7
14.5865 1.1555001 2.1849999 7
14.5535 1.1145 2.184 7
14.5345 1.1855 2.1849999 7
14.5715 1.1705 2.1849999 7
14.5385 1.1224999 2.184 7
14.6185 1.1445 2.1849999 7
14.5385 1.1845 2.1849999 7
14.5105 1.1635 2.184 7
14.5915 1.1485 2.1849999 7
14.6025 1.1305 2.184 7
14.5275 1.1535 2.184 7
14.6315 1.1335 2.1849999 7
14.5455 1.1605 2.184 7
14.5695 1.1365 2.184 7
14.5115 1.1845 2.184 7
14.5515 1.1345 2.184 7
14.5635 1.1165 2.184 7
14.5575 1.1655 2.1849999 7
14.5665 1.1155 2.184 7
14.5285 1.1105 2.184 7
14.5455 1.1815 2.1849999 7
14.5685 1.1174999 2.184 7
14.6065 1.1255 2.184 7
14.5875 1.1385 2.184 7
14.4955 1.2105 2.1849999 7
14.5205 1.1285 2.184 7
14.6025 1.1445 2.1849999 7
14.5535 1.1285 2.184 7
14.5965 1.1415 2.1849999 7
14.5305 1.1825 2.184 7
14.5335 1.1265 2.184 7
14.6635 1.1224999 2.1849999 7
14.5915 1.1315 2.184 7
14.5345 1.1684999 2.184 7
14.5735 1.1305 2.184 7
14.5615 1.1734999 2.1849999 7
14.5095 1.1885 2.184 7
14.5525 1.1085 2.184 7
14.4925 1.1805 2.184 7
14.5625 1.1535 2.184 7
14.5975 1.1315 2.184 7
14.5895 1.1165 2.184 7
14.5625 1.1535 2.184 7
14.5505 1.1684999 2.184 7
14.5305 1.1454999 2.184 7
14.5265 1.1945 2.1849999 7
14.5005 1.1725 2.184 7
14.5645 1.1325001 2.184 7
14.5895 1.1404999 2.184 7
14.5635 1.1365 2.184 7
14.5985 1.1325001 2.184 7
14.5295 1.1485 2.184 7
14.5275 1.1684999 2.184 7
14.5365 1.1475 2.184 7
14.5585 1.1635 2.184 7
14.4945 1.2055 2.184 7
14.6315 1.1065 2.184 7
14.6285 1.1355 2.1849999 7
14.5555 1.1645 2.184 7
14.5175 1.1825 2.184 7
14.6265 1.1375 2.1849999 7
14.6075 1.1105 2.184 7
14.5445 1.1815 2.1849999 7
14.5925 1.1515 2.1849999 7
14.6055 1.1425 2.1849999 7
14.5645 1.1645 2.1849999 7
14.5065 1.1985 2.1849999 7
14.5355 1.1145 2.184 7
14.5315 1.1855 2.1849999 7
14.5235 1.1935 2.1849999 7
14.5315 1.1734999 2.184 7
14.4895 1.1925 2.184 7
14.5915 1.1275001 2.184 7
14.4815 1.2135 2.184 7
14.6085 1.1454999 2.1849999 7
14.5245 1.1195 2.184 7
14.5845 1.1425 2.184 7
14.5905 1.1235 2.184 7
14.5315 1.1885 2.1849999 7
14.6035 1.1415 2.1849999 7
14.6225 1.1255 2.1849999 7
14.5675 1.1115 2.184 7
14.5865 1.1224999 2.184 7
14.6425 1.2424999 2.187 7
14.6635 1.2415 2.187 7
14.4585 1.2465 2.1900001 7
14.5235 1.2365 2.1860001 7
14.5015 1.2345001 2.1860001 7
14.4625 1.2335 2.1860001 7
14.4775 1.2365 2.187 7
14.4615 1.2385 2.187 7
