# .PCD v0.7 - Point Cloud Data file format
VERSION 0.7
FIELDS x y z label
SIZE 4 4 4 4
TYPE F F F U
COUNT 1 1 1 1
WIDTH 1625
HEIGHT 1
VIEWPOINT 0 0 0 1 0 0 0
POINTS 1625
DATA ascii
17.289499 4.3004999 0.42500001 2
17.2985 4.3105001 0.44 2
17.2815 4.3035002 0.42300001 2
17.265499 4.3375001 0.44400001 2
17.310499 4.3334999 0.46599999 2
17.3085 4.3284998 0.461 2
17.282499 4.3344998 0.45199999 2
17.2565 4.3505001 0.44999999 2
17.2605 4.3575001 0.45899999 2
17.265499 4.3395 0.44600001 2
17.2645 4.3344998 0.44100001 2
17.297501 4.3325 0.45899999 2
17.3095 4.3325 0.465 2
17.321501 4.3125 0.45500001 2
17.307501 4.3395 0.47 2
17.356501 4.3055 0.46799999 2
17.3165 4.3235002 0.461 2
17.293501 4.3435001 0.46599999 2
17.3055 4.3214998 0.45300001 2
17.317499 4.2845001 0.428 2
17.261499 4.3695002 0.47 2
17.269501 4.3455 0.454 2
17.2885 4.3305001 0.45199999 2
17.276501 4.3204999 0.43599999 2
17.247499 4.3655 0.458 2
17.334499 4.2995 0.44999999 2
17.2735 4.3575001 0.46700001 2
17.2995 4.2905002 0.42199999 2
17.296499 4.2975001 0.42699999 2
17.282499 4.3544998 0.46900001 2
17.2925 4.3395 0.461 2
17.3125 4.2895002 0.42899999 2
17.276501 4.3445001 0.45699999 2
17.2775 4.3074999 0.42500001 2
17.331499 4.3055 0.454 2
17.286501 4.2934999 0.417 2
17.2785 4.3074999 0.42500001 2
17.311501 4.3255 0.46000001 2
17.268499 4.3555002 0.461 2
17.282499 4.2915001 0.414 2
17.2985 4.2905002 0.42199999 2
17.2745 4.3264999 0.44 2
17.311501 4.2874999 0.426 2
17.3095 4.3305001 0.463 2
17.321501 4.3154998 0.45699999 2
17.303499 4.3045001 0.43700001 2
17.3465 4.2944999 0.45300001 2
17.258499 4.3625002 0.463 2
17.2495 4.3305001 0.405 2
17.244499 4.3585 0.39500001 2
17.237499 4.3645 0.39700001 2
17.2435 4.3555002 0.39700001 2
17.2295 4.3555002 0.40700001 2
17.244499 4.3565001 0.396 2
17.2295 4.3565001 0.40599999 2
17.213499 4.3685002 0.412 2
17.244499 4.3495002 0.39899999 2
17.2115 4.3685002 0.41299999 2
17.2505 4.3645 0.38699999 2
17.2495 4.3614998 0.389 2
17.234501 4.3625002 0.40000001 2
17.234501 4.3544998 0.40400001 2
17.238501 4.3614998 0.398 2
17.227501 4.3515 0.41100001 2
17.238501 4.3395 0.40900001 2
17.209499 4.3695002 0.41499999 2
17.2355 4.4215002 0.398 2
17.2425 4.3915 0.39199999 2
17.268499 4.3724999 0.375 2
17.2395 4.4615002 0.396 2
17.2635 4.3955002 0.37900001 2
17.265499 4.4245 0.37799999 2
17.2425 4.4784999 0.39399999 2
17.261499 4.5565 0.38299999 2
17.224501 4.3934999 0.405 2
17.227501 4.4394999 0.403 2
17.251499 4.5275002 0.38999999 2
17.244499 4.3705001 0.391 2
17.2565 4.4295001 0.384 2
17.258499 4.4695001 0.384 2
17.255501 4.5415001 0.38699999 2
17.2665 4.4085002 0.377 2
17.230499 4.4324999 0.40099999 2
17.262501 4.4675002 0.38100001 2
17.252501 4.4685001 0.38800001 2
17.265499 4.4625001 0.37900001 2
17.2465 4.5105 0.39300001 2
17.252501 4.3994999 0.38600001 2
17.252501 4.5124998 0.38800001 2
17.2675 4.3934999 0.37599999 2
17.2675 4.4145002 0.377 2
17.2115 4.3855 0.41299999 2
17.261499 4.4664998 0.382 2
17.237499 4.4534998 0.39700001 2
17.2535 4.5015001 0.38800001 2
17.2645 4.5114999 0.38100001 2
17.2565 4.4435 0.384 2
17.251499 4.3785 0.38600001 2
17.258499 4.4864998 0.384 2
17.259501 4.4705 0.38299999 2
17.2565 4.5425 0.38600001 2
17.230499 4.4505 0.40200001 2
17.262501 4.4004998 0.38 2
17.230499 4.3975 0.40099999 2
17.2425 4.4215002 0.39300001 2
17.237499 4.3944998 0.396 2
17.2535 4.4025002 0.38600001 2
17.244499 4.4204998 0.39199999 2
17.2465 4.4775 0.39199999 2
17.2295 4.4404998 0.40200001 2
17.231501 4.4225001 0.40000001 2
17.2435 4.4384999 0.39300001 2
17.251499 4.4745002 0.38800001 2
17.259501 4.4635 0.38299999 2
17.261499 4.4054999 0.38 2
17.2425 4.4974999 0.39500001 2
17.265499 4.4534998 0.37900001 2
17.241501 4.3985 0.39300001 2
17.2565 4.5025001 0.38499999 2
17.2395 4.4714999 0.396 2
17.220501 4.4064999 0.40799999 2
17.238501 4.4695001 0.396 2
17.262501 4.4654999 0.38100001 2
17.2645 4.5415001 0.38100001 2
17.2645 4.3734999 0.37799999 2
17.237499 4.4015002 0.396 2
17.262501 4.4225001 0.38 2
17.230499 4.4105 0.40099999 2
17.251499 4.4914999 0.38800001 2
17.261499 4.5555 0.38299999 2
17.244499 4.5005002 0.39399999 2
17.2535 4.5064998 0.38699999 2
17.2675 4.4184999 0.377 2
17.2465 4.4105 0.38999999 2
17.2185 4.4165001 0.40900001 2
17.210501 4.3915 0.41299999 2
17.2535 4.5025001 0.38699999 2
17.254499 4.5384998 0.38800001 2
17.2605 4.4155002 0.38100001 2
17.254499 4.3955002 0.38499999 2
17.248501 4.3775001 0.38800001 2
17.258499 4.4604998 0.384 2
17.2535 4.4375 0.38600001 2
17.2575 4.4654999 0.384 2
17.261499 4.3765001 0.38 2
17.227501 4.4285002 0.403 2
17.2295 4.3755002 0.40099999 2
17.261499 4.5434999 0.38299999 2
17.259501 4.4555001 0.38299999 2
17.248501 4.4254999 0.389 2
17.255501 4.4524999 0.38600001 2
17.251499 4.3915 0.38699999 2
17.2575 4.6325002 0.46700001 2
17.258499 4.6564999 0.465 2
17.2535 4.5964999 0.46700001 2
17.248501 4.6525002 0.456 2
17.248501 4.5875001 0.463 2
17.247499 4.6085 0.46000001 2
17.248501 4.5685 0.465 2
17.227501 4.5875001 0.442 2
17.261499 4.6925001 0.46399999 2
17.2215 4.5314999 0.442 2
17.2255 4.5844998 0.44 2
17.231501 4.5194998 0.45300001 2
17.230499 4.5574999 0.44800001 2
17.231501 4.4955001 0.456 2
17.2395 4.4805002 0.46599999 2
17.2495 4.6215 0.46000001 2
17.2505 4.5885 0.465 2
17.240499 4.6055002 0.45199999 2
17.2335 4.4945002 0.458 2
17.254499 4.6665001 0.46000001 2
17.2355 4.3944998 0.47099999 2
17.2365 4.4485002 0.46599999 2
17.240499 4.5685 0.45699999 2
17.2565 4.6655002 0.46200001 2
17.261499 4.6865001 0.46399999 2
17.245501 4.5615001 0.463 2
17.231501 4.5145001 0.454 2
17.2225 4.5514998 0.44 2
17.248501 4.6395001 0.45699999 2
17.240499 4.6335001 0.44999999 2
17.227501 4.5384998 0.447 2
17.223499 4.5324998 0.44400001 2
17.244499 4.5145001 0.46700001 2
17.2325 4.5815001 0.44800001 2
17.2295 4.5434999 0.44800001 2
17.2195 4.5565 0.43700001 2
17.2335 4.5644999 0.44999999 2
17.238501 4.6285 0.44800001 2
17.237499 4.4155002 0.47099999 2
17.258499 4.6754999 0.463 2
17.2295 4.5345001 0.44999999 2
17.234501 4.4745002 0.461 2
17.2285 4.5105 0.45100001 2
17.2365 4.5574999 0.454 2
17.2365 4.4334998 0.46700001 2
17.247499 4.5545001 0.465 2
17.241501 4.5275002 0.463 2
17.252501 4.6444998 0.461 2
17.248501 4.6275001 0.45899999 2
17.2605 4.6764998 0.465 2
17.241501 4.5844998 0.456 2
17.230499 4.4854999 0.456 2
17.2495 4.5415001 0.46900001 2
17.2295 4.5425 0.449 2
17.2215 4.5335002 0.442 2
17.2255 4.5644999 0.442 2
17.2605 4.6764998 0.465 2
17.252501 4.6174998 0.46399999 2
17.251499 4.5695 0.46799999 2
17.241501 4.5434999 0.461 2
17.2255 4.5044999 0.449 2
17.2335 4.5764999 0.449 2
17.2335 4.4914999 0.45899999 2
17.244499 4.4875002 0.47 2
17.2425 4.5425 0.46200001 2
17.2395 4.5875001 0.454 2
17.2335 4.4984999 0.458 2
17.231501 4.5815001 0.447 2
17.2265 4.5945001 0.44 2
17.2325 4.5764999 0.44800001 2
17.2325 4.4705 0.46000001 2
17.258499 4.6374998 0.46799999 2
17.2365 4.6005001 0.449 2
17.2425 4.5504999 0.461 2
17.2285 4.5675001 0.44400001 2
17.258499 4.6255002 0.46799999 2
17.2295 4.5124998 0.45199999 2
17.238501 4.4165001 0.47099999 2
17.240499 4.6044998 0.45300001 2
17.2365 4.5265002 0.458 2
17.255501 4.6195002 0.46599999 2
17.231501 4.4625001 0.46000001 2
17.234501 4.7284999 0.419 2
17.254499 4.6455002 0.39199999 2
17.240499 4.7065001 0.41100001 2
17.240499 4.7154999 0.41 2
17.2425 4.7195001 0.40400001 2
17.258499 4.6174998 0.389 2
17.262501 4.6415 0.37799999 2
17.2635 4.6094999 0.38100001 2
17.254499 4.6904998 0.38600001 2
17.2565 4.6795001 0.382 2
17.2535 4.6884999 0.38699999 2
17.262501 4.6785002 0.37 2
17.259501 4.6185002 0.38800001 2
17.244499 4.6795001 0.40700001 2
17.248501 4.6815 0.40000001 2
17.259501 4.6444998 0.38299999 2
17.241501 4.6945 0.41 2
17.261499 4.6665001 0.37400001 2
17.261499 4.6694999 0.37400001 2
17.251499 4.6925001 0.38999999 2
17.2395 4.7214999 0.41100001 2
17.2645 4.6704998 0.36899999 2
17.262501 4.6834998 0.37 2
17.2435 4.6964998 0.40700001 2
17.2635 4.6215 0.37799999 2
17.245501 4.7154999 0.40000001 2
17.241501 4.7075 0.40799999 2
17.261499 4.6364999 0.38 2
17.2605 4.6195002 0.384 2
17.258499 4.6265001 0.38800001 2
17.240499 4.7234998 0.40799999 2
17.2565 4.6385002 0.389 2
17.2365 4.7224998 0.417 2
17.255501 4.6964998 0.382 2
17.2645 4.6424999 0.37200001 2
17.265499 4.6385002 0.37200001 2
17.252501 4.7045002 0.38699999 2
17.258499 4.6244998 0.38800001 2
17.255501 4.6665001 0.38600001 2
17.2355 4.7284999 0.41800001 2
17.255501 4.6975002 0.382 2
17.248501 4.6805 0.45199999 2
17.2225 4.6085 0.43399999 2
17.241501 4.6434999 0.449 2
17.231501 4.6434999 0.43799999 2
17.258499 4.7055001 0.45899999 2
17.237499 4.7205 0.43399999 2
17.231501 4.6824999 0.43200001 2
17.2265 4.6304998 0.435 2
17.2285 4.6855001 0.42899999 2
17.2285 4.6395001 0.435 2
17.245501 4.6865001 0.44800001 2
17.231501 4.6975002 0.43099999 2
17.252501 4.7005 0.45300001 2
17.240499 4.6434999 0.449 2
17.224501 4.5984998 0.43799999 2
17.240499 4.6525002 0.447 2
17.2355 4.7265 0.43099999 2
17.2325 4.7094998 0.43000001 2
17.230499 4.6224999 0.44 2
17.230499 4.6475 0.43700001 2
17.2575 4.7055001 0.458 2
17.238501 4.6884999 0.43900001 2
17.2645 4.7135 0.46399999 2
17.241501 4.6985002 0.44100001 2
17.251499 4.6845002 0.45500001 2
17.251499 4.7255001 0.449 2
17.254499 4.6834998 0.458 2
17.2465 4.6715002 0.45100001 2
17.227501 4.6774998 0.428 2
17.2285 4.6335001 0.43700001 2
17.2285 4.6805 0.43000001 2
17.2335 4.6615 0.43900001 2
17.2265 4.6694999 0.42899999 2
17.2435 4.6845002 0.44600001 2
17.227501 4.6694999 0.43000001 2
17.244499 4.6925001 0.44600001 2
17.2565 4.7195001 0.45500001 2
17.2215 4.5984998 0.433 2
17.2335 4.7175002 0.42899999 2
17.2495 4.6725001 0.454 2
17.237499 4.6795001 0.44 2
17.231501 4.6265001 0.44100001 2
17.237499 4.6945 0.43700001 2
17.240499 4.6675 0.44400001 2
17.231501 4.7325001 0.426 2
17.2365 4.6355 0.44400001 2
17.238501 4.6465001 0.44499999 2
17.238501 4.6964998 0.43900001 2
17.2195 4.5935001 0.433 2
17.3365 4.2705002 0.44600001 2
17.317499 4.2795 0.42699999 2
17.2955 4.2735 0.40700001 2
17.3475 4.2865 0.45500001 2
17.2955 4.2735 0.40700001 2
17.318501 4.2795 0.428 2
17.3165 4.2785001 0.426 2
17.3325 4.2694998 0.44299999 2
17.3235 4.2775002 0.433 2
17.3325 4.2684999 0.442 2
17.3335 4.2754998 0.44299999 2
17.300501 4.2744999 0.41100001 2
17.334499 4.2715001 0.44400001 2
17.3265 4.2775002 0.43599999 2
17.2815 4.5675001 0.36199999 2
17.279499 4.5574999 0.37400001 2
17.2775 4.5685 0.36899999 2
17.272499 4.5695 0.377 2
17.2705 4.5755 0.37599999 2
17.2875 4.5355 0.377 2
17.2715 4.5654998 0.38100001 2
17.2875 4.5405002 0.37400001 2
17.2845 4.5584998 0.36500001 2
17.279499 4.5565 0.375 2
17.2925 4.5545001 0.35299999 2
17.2925 4.5444999 0.36199999 2
17.283501 4.5395002 0.382 2
17.279499 4.5605001 0.37099999 2
17.2945 4.5475001 0.35499999 2
17.2945 4.5555 0.35100001 2
17.2915 4.6085 0.35800001 2
17.2885 4.6085 0.361 2
17.2705 4.5865002 0.377 2
17.3085 4.6525002 0.34799999 2
17.296499 4.5984998 0.34999999 2
17.2845 4.5735002 0.35800001 2
17.2855 4.5725002 0.35600001 2
17.2955 4.6085 0.35299999 2
17.313499 4.6335001 0.338 2
17.3025 4.6005001 0.34400001 2
17.2875 4.6155 0.36500001 2
17.2945 4.6224999 0.35800001 2
17.2705 4.5805001 0.37599999 2
17.3015 4.6065001 0.34599999 2
17.314501 4.6504998 0.34099999 2
17.2945 4.5755 0.34599999 2
17.3055 4.6215 0.345 2
17.313499 4.6434999 0.34 2
17.2875 4.6025 0.361 2
17.303499 4.6005001 0.34200001 2
17.279499 4.5925002 0.368 2
17.3025 4.6364999 0.35299999 2
17.2985 4.6044998 0.34999999 2
17.2945 4.5764999 0.347 2
17.2745 4.5784998 0.37 2
17.300501 4.5834999 0.34200001 2
17.2945 4.6075001 0.35499999 2
17.293501 4.6215 0.359 2
17.2845 4.5885 0.36199999 2
17.310499 4.6255002 0.34 2
17.279499 4.6005001 0.37 2
17.2915 4.6174998 0.36000001 2
17.286501 4.6164999 0.36500001 2
17.2805 4.6834998 0.35699999 2
17.2665 4.6015 0.377 2
17.2775 4.6335001 0.366 2
17.2855 4.6615 0.359 2
17.2925 4.6504998 0.35600001 2
17.2775 4.6774998 0.36000001 2
17.276501 4.6675 0.361 2
17.2945 4.6285 0.359 2
17.2745 4.6805 0.361 2
17.283501 4.6325002 0.36399999 2
17.2745 4.6355 0.368 2
17.269501 4.6515002 0.368 2
17.297501 4.6465001 0.35499999 2
17.2785 4.6824999 0.35800001 2
17.2805 4.6034999 0.37 2
17.3025 4.6585002 0.34999999 2
17.268499 4.6834998 0.36300001 2
17.2925 4.6325002 0.359 2
17.2955 4.6795001 0.35100001 2
17.2735 4.6764998 0.36199999 2
17.2675 4.6545 0.368 2
17.296499 4.6415 0.35600001 2
17.2715 4.6574998 0.366 2
17.283501 4.6735001 0.35699999 2
17.275499 4.6185002 0.37 2
17.265499 4.6725001 0.366 2
17.265499 4.6605 0.368 2
17.275499 4.6564999 0.36399999 2
17.282499 4.6645002 0.36000001 2
17.3095 4.6595001 0.347 2
17.2715 4.6725001 0.36300001 2
17.290501 4.6665001 0.35499999 2
17.303499 4.6735001 0.34799999 2
17.279499 4.6065001 0.37 2
17.2775 4.6285 0.36700001 2
17.3025 4.6434999 0.35299999 2
17.286501 4.6655002 0.35699999 2
17.3435 4.3744998 0.46399999 2
17.3375 4.3445001 0.46799999 2
17.429501 4.4685001 0.44400001 2
17.362499 4.3685002 0.46200001 2
17.356501 4.4235001 0.456 2
17.334499 4.3835001 0.463 2
17.3325 4.4365001 0.45699999 2
17.3475 4.3214998 0.47 2
17.467501 4.5425 0.43200001 2
17.404499 4.4274998 0.45100001 2
17.3825 4.4425001 0.45199999 2
17.324499 4.3344998 0.47 2
17.377501 4.3484998 0.463 2
17.4105 4.5015001 0.442 2
17.4165 4.4885001 0.44299999 2
17.407499 4.5114999 0.44100001 2
17.429501 4.5035 0.44 2
17.3265 4.3715 0.465 2
17.372499 4.4714999 0.449 2
17.370501 4.4765 0.449 2
17.3535 4.4345002 0.45500001 2
17.282499 4.4045 0.46599999 2
17.3755 4.3375001 0.465 2
17.2915 4.3814998 0.46799999 2
17.453501 4.5444999 0.433 2
17.335501 4.3635001 0.46599999 2
17.438499 4.5335002 0.435 2
17.4035 4.4054999 0.454 2
17.3335 4.4375 0.45699999 2
17.3605 4.4245 0.456 2
17.3405 4.3395 0.46799999 2
17.328501 4.3295002 0.47 2
17.372499 4.4155002 0.456 2
17.327499 4.3905001 0.463 2
17.2985 4.3825002 0.46700001 2
17.4095 4.4285002 0.45100001 2
17.3815 4.3775001 0.46000001 2
17.4165 4.4365001 0.449 2
17.290501 4.4054999 0.465 2
17.407499 4.4464998 0.449 2
17.338499 4.3474998 0.46700001 2
17.3295 4.3835001 0.46399999 2
17.310499 4.4245 0.461 2
17.3375 4.3305001 0.46900001 2
17.3365 4.3284998 0.47 2
17.324499 4.3674998 0.46599999 2
17.3785 4.4724998 0.44800001 2
17.3585 4.3484998 0.465 2
17.418501 4.4305 0.44999999 2
17.2915 4.3525 0.47099999 2
17.335501 4.3295002 0.47 2
17.365499 4.3585 0.463 2
17.307501 4.3705001 0.46700001 2
17.3575 4.3455 0.46599999 2
17.369499 4.4775 0.449 2
17.3375 4.4534998 0.45500001 2
17.394501 4.4375 0.45100001 2
17.373501 4.4654999 0.44999999 2
17.4655 4.5524998 0.43099999 2
17.3535 4.3915 0.461 2
17.373501 4.3315001 0.46599999 2
17.307501 4.3525 0.47 2
17.446501 4.5335002 0.435 2
17.3435 4.4074998 0.46000001 2
17.4095 4.4705 0.44600001 2
17.3435 4.3705001 0.46399999 2
17.283501 4.3855 0.46799999 2
17.4055 4.4815001 0.44499999 2
17.369499 4.3235002 0.46700001 2
17.3675 4.4794998 0.449 2
17.422501 4.4905 0.442 2
17.327499 4.3955002 0.463 2
17.2775 4.4035001 0.46599999 2
17.3305 4.4505 0.456 2
17.4035 4.4485002 0.449 2
17.432501 4.5135002 0.43799999 2
17.3825 4.3685002 0.46000001 2
17.467501 4.5465002 0.43099999 2
17.3225 4.4054999 0.46200001 2
17.380501 4.4645 0.449 2
17.386499 4.4264998 0.45300001 2
17.3585 4.4464998 0.45300001 2
17.4095 4.4425001 0.449 2
17.4345 4.5165 0.43799999 2
17.407499 4.4945002 0.44299999 2
17.386499 4.3775001 0.45899999 2
17.383499 4.4004998 0.45699999 2
17.321501 4.4415002 0.458 2
17.3965 4.3874998 0.45699999 2
17.4345 4.4654999 0.44400001 2
17.318501 4.4215002 0.46000001 2
17.269501 4.4035001 0.46700001 2
17.2675 4.4015002 0.46799999 2
17.297501 4.3724999 0.46799999 2
17.3295 4.4204998 0.45899999 2
17.2845 4.4184999 0.46399999 2
17.4205 4.4505 0.447 2
17.320499 4.3835001 0.465 2
17.3235 4.3855 0.46399999 2
17.3435 4.4575 0.454 2
17.370501 4.3474998 0.46399999 2
17.3965 4.4514999 0.449 2
17.3165 4.4204998 0.461 2
17.3435 4.4365001 0.456 2
17.2985 4.4035001 0.46399999 2
17.431499 4.5225 0.43700001 2
17.372499 4.4375 0.45300001 2
17.303499 4.3804998 0.46700001 2
17.3445 4.4025002 0.46000001 2
17.3015 4.4355001 0.46000001 2
17.4275 4.5085001 0.44 2
17.442499 4.4905 0.44 2
17.3965 4.4345002 0.45100001 2
17.3715 4.4235001 0.45500001 2
17.252501 4.3924999 0.47 2
17.3125 4.4215002 0.461 2
17.383499 4.3655 0.461 2
17.3225 4.4184999 0.46000001 2
17.3095 4.3944998 0.46399999 2
17.2575 4.3874998 0.47 2
17.3585 4.3934999 0.46000001 2
17.376499 4.4115 0.456 2
17.4195 4.4654999 0.44499999 2
17.404499 4.4394999 0.44999999 2
17.3885 4.4724998 0.447 2
17.3295 4.4435 0.45699999 2
17.3605 4.4485002 0.45300001 2
17.3445 4.3334999 0.46799999 2
17.3605 4.4435 0.454 2
17.3395 4.4264998 0.458 2
17.272499 4.3985 0.46700001 2
17.289499 4.4105 0.46399999 2
17.3995 4.5005002 0.44299999 2
17.3715 4.3445001 0.465 2
17.3605 4.4575 0.45199999 2
17.4515 4.5425 0.433 2
17.3405 4.4295001 0.45699999 2
17.3815 4.3474998 0.463 2
17.401501 4.5054998 0.442 2
17.352501 4.3965001 0.46000001 2
17.3235 4.4315 0.45899999 2
17.3995 4.4165001 0.45300001 2
17.3955 4.4165001 0.45300001 2
17.4335 4.5035 0.44 2
17.4095 4.4565001 0.447 2
17.377501 4.4054999 0.45699999 2
17.3405 4.3635001 0.465 2
17.4095 4.4825001 0.44400001 2
17.282499 4.4204998 0.46399999 2
17.4275 4.4835 0.442 2
17.3505 4.3695002 0.46399999 2
17.321501 4.4365001 0.458 2
17.428499 4.4565001 0.44600001 2
17.2945 4.4245 0.46200001 2
17.356501 4.4475002 0.454 2
17.387501 4.4145002 0.454 2
17.324499 4.3604999 0.46700001 2
17.4695 4.5504999 0.43000001 2
17.275499 4.4124999 0.465 2
17.380501 4.4625001 0.449 2
17.2785 4.4134998 0.465 2
17.415501 4.4974999 0.442 2
17.289499 4.4074998 0.465 2
17.349501 4.3794999 0.46200001 2
17.2645 4.3695002 0.472 2
17.3295 4.4454999 0.456 2
17.3375 4.4274998 0.458 2
17.356501 4.4695001 0.45100001 2
17.3505 4.4545002 0.45300001 2
17.328501 4.3614998 0.46599999 2
17.366501 4.3325 0.46599999 2
17.2575 4.3895001 0.47 2
17.365499 4.3674998 0.46200001 2
17.359501 4.3435001 0.46599999 2
17.2855 4.3625002 0.47 2
17.3095 4.3575001 0.46900001 2
17.2635 4.4035001 0.46799999 2
17.428499 4.5145001 0.43900001 2
17.429501 4.5044999 0.44 2
17.2875 4.4254999 0.463 2
17.400499 4.4675002 0.447 2
17.3885 4.4365001 0.45199999 2
17.356501 4.3235002 0.46799999 2
17.3435 4.3825002 0.463 2
17.261499 4.4015002 0.46799999 2
17.3685 4.4685001 0.44999999 2
17.3995 4.4745002 0.44600001 2
17.3405 4.4145002 0.45899999 2
17.252501 4.3874998 0.47 2
17.407499 4.4305 0.45100001 2
17.3575 4.4635 0.45199999 2
17.3855 4.3715 0.46000001 2
17.3575 4.3074999 0.47 2
17.442499 4.5114999 0.43799999 2
17.4505 4.5064998 0.43799999 2
17.411501 4.4115 0.45300001 2
17.335501 4.3225002 0.47 2
17.436501 4.4994998 0.44 2
17.3915 4.4175 0.454 2
17.3605 4.4475002 0.45300001 2
17.3675 4.4134998 0.45699999 2
17.390499 4.3885002 0.45699999 2
17.2925 4.4295001 0.46200001 2
17.3815 4.4394999 0.45199999 2
17.376499 4.3565001 0.463 2
17.3955 4.4854999 0.44499999 2
17.4415 4.5235 0.43599999 2
17.349501 4.4685001 0.45199999 2
17.290501 4.3635001 0.47 2
17.3375 4.4425001 0.456 2
17.431499 4.4805002 0.44299999 2
17.304501 4.3755002 0.46700001 2
17.4165 4.4825001 0.44400001 2
17.365499 4.3255 0.46700001 2
17.300501 4.3464999 0.47099999 2
17.324499 4.4365001 0.458 2
17.4655 4.5475001 0.43099999 2
17.2735 4.4124999 0.46599999 2
17.3505 4.3165002 0.47 2
17.4475 4.5105 0.43700001 2
17.2885 4.6125002 0.463 2
17.2775 4.6465001 0.46599999 2
17.2465 4.4425001 0.47 2
17.3295 4.6234999 0.456 2
17.289499 4.5595002 0.463 2
17.341499 4.6574998 0.454 2
17.2805 4.6595001 0.465 2
17.2715 4.4584999 0.46599999 2
17.3095 4.5384998 0.45899999 2
17.2565 4.5165 0.46900001 2
17.2675 4.6355 0.46700001 2
17.313499 4.5584998 0.458 2
17.4445 4.5625 0.43399999 2
17.352501 4.6155 0.45100001 2
17.3055 4.6494999 0.46000001 2
17.2645 4.5545001 0.46700001 2
17.2565 4.5454998 0.46900001 2
17.2735 4.4194999 0.465 2
17.3365 4.5314999 0.454 2
17.3255 4.6434999 0.45699999 2
17.2945 4.6655002 0.46200001 2
17.3325 4.5105 0.45500001 2
17.400499 4.5295 0.442 2
17.2605 4.5745001 0.46799999 2
17.275499 4.4615002 0.465 2
17.3015 4.4875002 0.46000001 2
17.2635 4.4905 0.46700001 2
17.3255 4.5054998 0.456 2
17.310499 4.6515002 0.45899999 2
17.2815 4.5145001 0.46399999 2
17.438499 4.5395002 0.435 2
17.289499 4.6255002 0.463 2
17.265499 4.5085001 0.46700001 2
17.3675 4.5545001 0.44800001 2
17.3515 4.4955001 0.45100001 2
17.359501 4.5395002 0.44999999 2
17.341499 4.5545001 0.45300001 2
17.2885 4.4935002 0.463 2
17.4275 4.5955 0.43799999 2
17.2805 4.5355 0.46399999 2
17.376499 4.5174999 0.447 2
17.4035 4.5244999 0.442 2
17.2645 4.6805 0.46799999 2
17.300501 4.5165 0.461 2
17.283501 4.6595001 0.46399999 2
17.414499 4.6044998 0.44 2
17.2985 4.6574998 0.46200001 2
17.411501 4.6085 0.44100001 2
17.4445 4.5434999 0.43399999 2
17.407499 4.5335002 0.44100001 2
17.2985 4.4514999 0.461 2
17.4265 4.5935001 0.43799999 2
17.297501 4.5044999 0.461 2
17.2715 4.6894999 0.46700001 2
17.2605 4.4085002 0.46700001 2
17.393499 4.5644999 0.44400001 2
17.320499 4.6595001 0.458 2
17.3475 4.5345001 0.45199999 2
17.376499 4.6224999 0.447 2
17.2735 4.6675 0.46599999 2
17.2575 4.4394999 0.46799999 2
17.2995 4.5454998 0.461 2
17.262501 4.5764999 0.46799999 2
17.3015 4.6234999 0.461 2
17.411501 4.5415001 0.44 2
17.372499 4.5595002 0.44800001 2
17.3815 4.5275002 0.44600001 2
17.3605 4.6364999 0.44999999 2
17.4095 4.5415001 0.44100001 2
17.3785 4.5644999 0.44600001 2
17.306499 4.4654999 0.45899999 2
17.275499 4.5285001 0.465 2
17.2425 4.4064999 0.47099999 2
17.3055 4.6785002 0.46000001 2
17.366501 4.5124998 0.44800001 2
17.268499 4.5504999 0.46700001 2
17.443501 4.5805001 0.43399999 2
17.306499 4.4885001 0.45899999 2
17.390499 4.5805001 0.44400001 2
17.320499 4.5475001 0.45699999 2
17.2505 4.4315 0.46900001 2
17.414499 4.5644999 0.44 2
17.3305 4.6465001 0.456 2
17.3095 4.4664998 0.45899999 2
17.3745 4.5374999 0.447 2
17.2815 4.6085 0.465 2
17.3515 4.6294999 0.45199999 2
17.261499 4.4825001 0.46799999 2
17.310499 4.6325002 0.45899999 2
17.3265 4.5054998 0.456 2
17.3095 4.4974999 0.45899999 2
17.3675 4.5955 0.449 2
17.3505 4.5555 0.45199999 2
17.300501 4.5225 0.461 2
17.3515 4.4734998 0.45100001 2
17.2565 4.5865002 0.46900001 2
17.2535 4.5155001 0.46900001 2
17.3435 4.5634999 0.45300001 2
17.2575 4.6055002 0.46900001 2
17.2815 4.4775 0.46399999 2
17.359501 4.5105 0.44999999 2
17.328501 4.5925002 0.456 2
17.251499 4.5355 0.47 2
17.352501 4.5654998 0.45100001 2
17.4195 4.5405002 0.43900001 2
17.297501 4.4854999 0.461 2
17.372499 4.5865002 0.44800001 2
17.293501 4.4755001 0.46200001 2
17.3095 4.6335001 0.45899999 2
17.459499 4.5514998 0.43200001 2
17.3025 4.4765 0.46000001 2
17.3475 4.5184999 0.45199999 2
17.293501 4.4495001 0.46200001 2
17.341499 4.5735002 0.45300001 2
17.313499 4.6735001 0.45899999 2
17.3575 4.6335001 0.45100001 2
17.3375 4.6114998 0.454 2
17.306499 4.5815001 0.46000001 2
17.2735 4.4175 0.465 2
17.4645 4.5654998 0.43099999 2
17.269501 4.4685001 0.46599999 2
17.2645 4.5605001 0.46700001 2
17.452499 4.5685 0.433 2
17.3995 4.6155 0.44299999 2
17.348499 4.4984999 0.45199999 2
17.286501 4.4505 0.463 2
17.2565 4.4734998 0.46900001 2
17.348499 4.5885 0.45199999 2
17.272499 4.6634998 0.46599999 2
17.3375 4.5165 0.454 2
17.380501 4.5005002 0.44600001 2
17.414499 4.5465002 0.44 2
17.408501 4.5795002 0.44100001 2
17.3085 4.6624999 0.46000001 2
17.3785 4.5244999 0.44600001 2
17.3085 4.6624999 0.46000001 2
17.2845 4.4394999 0.463 2
17.268499 4.6815 0.46700001 2
17.307501 4.5035 0.45899999 2
17.254499 4.5574999 0.46900001 2
17.290501 4.4384999 0.46200001 2
17.3585 4.5425 0.44999999 2
17.283501 4.5135002 0.46399999 2
17.300501 4.5774999 0.461 2
17.290501 4.6065001 0.463 2
17.282499 4.6424999 0.46399999 2
17.328501 4.5254998 0.45500001 2
17.331499 4.6374998 0.45500001 2
17.3295 4.5605001 0.45500001 2
17.2915 4.4695001 0.46200001 2
17.289499 4.5485001 0.463 2
17.3235 4.5165 0.456 2
17.436501 4.5675001 0.43599999 2
17.2745 4.4695001 0.465 2
17.370501 4.5105 0.44800001 2
17.255501 4.5044999 0.46900001 2
17.3235 4.6475 0.45699999 2
17.2945 4.5285001 0.46200001 2
17.3855 4.6044998 0.44499999 2
17.2815 4.6805 0.465 2
17.362499 4.4854999 0.449 2
17.290501 4.5904999 0.463 2
17.2985 4.4625001 0.461 2
17.3305 4.4895 0.45500001 2
17.3615 4.5025001 0.449 2
17.296499 4.5295 0.461 2
17.2875 4.6894999 0.46399999 2
17.3025 4.6355 0.461 2
17.3785 4.5105 0.44600001 2
17.2705 4.4765 0.46599999 2
17.432501 4.5584998 0.43700001 2
17.293501 4.6065001 0.46200001 2
17.2645 4.5714998 0.46700001 2
17.3055 4.5314999 0.46000001 2
17.279499 4.6735001 0.465 2
17.4485 4.5465002 0.433 2
17.414499 4.5444999 0.44 2
17.373501 4.4885001 0.447 2
17.304501 4.5904999 0.46000001 2
17.279499 4.6845002 0.465 2
17.320499 4.5135002 0.45699999 2
17.3025 4.5974998 0.461 2
17.328501 4.5244999 0.45500001 2
17.3365 4.6485 0.45500001 2
17.290501 4.4645 0.46200001 2
17.279499 4.5225 0.465 2
17.2985 4.5725002 0.461 2
17.272499 4.5244999 0.46599999 2
17.2995 4.6294999 0.461 2
17.3715 4.5565 0.44800001 2
17.338499 4.5005002 0.45300001 2
17.248501 4.4625001 0.47 2
17.349501 4.5434999 0.45199999 2
17.2575 4.5075002 0.46900001 2
17.2875 4.4334998 0.463 2
17.307501 4.6745 0.46000001 2
17.3895 4.5025001 0.44400001 2
17.317499 4.6455002 0.458 2
17.3505 4.5495 0.45199999 2
17.452499 4.5695 0.433 2
17.3085 4.6665001 0.46000001 2
17.4585 4.5735002 0.43200001 2
17.290501 4.4394999 0.46200001 2
17.3475 4.5314999 0.45199999 2
17.3895 4.5225 0.44400001 2
17.3535 4.5174999 0.45100001 2
17.3165 4.4794998 0.45699999 2
17.3155 4.4545002 0.458 2
17.2735 4.6475 0.46599999 2
17.2785 4.4534998 0.46399999 2
17.3895 4.5834999 0.44400001 2
17.2985 4.6104999 0.461 2
17.3715 4.6125002 0.44800001 2
17.259501 4.5015001 0.46799999 2
17.341499 4.6044998 0.45300001 2
17.3055 4.6364999 0.46000001 2
17.2435 4.4604998 0.47099999 2
17.279499 4.7014999 0.465 2
17.338499 4.6585002 0.454 2
17.317499 4.5215001 0.45699999 2
17.397499 4.5355 0.44299999 2
17.4095 4.5984998 0.44100001 2
17.4275 4.5454998 0.43700001 2
17.2805 4.6314998 0.465 2
17.4375 4.5345001 0.435 2
17.3295 4.5964999 0.456 2
17.269501 4.5925002 0.46700001 2
17.2925 4.6085 0.463 2
17.3085 4.4875002 0.45899999 2
17.2855 4.6255002 0.46399999 2
17.320499 4.5345001 0.45699999 2
17.290501 4.6355 0.463 2
17.3255 4.5235 0.456 2
17.363501 4.5764999 0.449 2
17.3395 4.5895 0.454 2
17.259501 4.4315 0.46799999 2
17.445499 4.5784998 0.43399999 2
17.335501 4.5844998 0.45500001 2
17.393499 4.5825 0.44400001 2
17.331499 4.5114999 0.45500001 2
17.262501 4.5955 0.46799999 2
17.3265 4.6715002 0.456 2
17.3715 4.5114999 0.44800001 2
17.317499 4.5095 0.458 2
17.2465 4.4864998 0.47099999 2
17.341499 4.4775 0.45300001 2
17.304501 4.6155 0.46000001 2
17.366501 4.6314998 0.449 2
17.318501 4.5275002 0.45699999 2
17.335501 4.6325002 0.45500001 2
17.363501 4.6125002 0.449 2
17.4065 4.6135001 0.442 2
17.2875 4.6465001 0.46399999 2
17.373501 4.5454998 0.447 2
17.3255 4.5574999 0.456 2
17.383499 4.6275001 0.44600001 2
17.318501 4.6545 0.458 2
17.268499 4.7125001 0.46700001 2
17.272499 4.6085 0.46599999 2
17.254499 4.4025002 0.46900001 2
17.3785 4.5155001 0.44600001 2
17.4055 4.6085 0.442 2
17.2675 4.4885001 0.46700001 2
17.2855 4.4485002 0.463 2
17.3095 4.4945002 0.45899999 2
17.2855 4.6785002 0.46399999 2
17.2855 4.6634998 0.46399999 2
17.331499 4.4875002 0.45500001 2
17.331499 4.5685 0.45500001 2
17.2855 4.6314998 0.46399999 2
17.268499 4.4945002 0.46599999 2
17.3055 4.4835 0.46000001 2
17.3675 4.6335001 0.449 2
17.2605 4.5895 0.46799999 2
17.3855 4.5725002 0.44499999 2
17.4345 4.5535002 0.43599999 2
17.314501 4.4505 0.458 2
17.289499 4.6805 0.463 2
17.2925 4.5535002 0.46200001 2
17.372499 4.5854998 0.44800001 2
17.265499 4.5774999 0.46700001 2
17.383499 4.5415001 0.44499999 2
17.3435 4.5854998 0.45300001 2
17.335501 4.6444998 0.45500001 2
17.2505 4.4815001 0.47 2
17.317499 4.6444998 0.458 2
17.300501 4.6294999 0.461 2
17.2665 4.6845002 0.46799999 2
17.306499 4.6564999 0.46000001 2
17.349501 4.6455002 0.45199999 2
17.2985 4.4984999 0.461 2
17.307501 4.6774998 0.46000001 2
17.3335 4.4765 0.454 2
17.2985 4.6855001 0.46200001 2
17.275499 4.4475002 0.465 2
17.324499 4.5755 0.456 2
17.411501 4.6034999 0.44100001 2
17.2705 4.4875002 0.46599999 2
17.425501 4.5825 0.43799999 2
17.247499 4.4505 0.47 2
17.459499 4.5665002 0.43200001 2
17.4615 4.5725002 0.43099999 2
17.2535 4.4835 0.46900001 2
17.317499 4.6754999 0.458 2
17.258499 4.5075002 0.46799999 2
17.3465 4.5434999 0.45199999 2
17.2875 4.6104999 0.463 2
17.404499 4.5685 0.442 2
17.3365 4.5654998 0.454 2
17.379499 4.5605001 0.44600001 2
17.4335 4.5434999 0.43599999 2
17.373501 4.5764999 0.447 2
17.318501 4.5265002 0.45699999 2
17.2985 4.5695 0.461 2
17.2785 4.5304999 0.465 2
17.4135 4.5914998 0.44 2
17.3295 4.5145001 0.45500001 2
17.2705 4.6834998 0.46700001 2
17.4715 4.5584998 0.42899999 2
17.2945 4.5205002 0.46200001 2
17.2995 4.4955001 0.461 2
17.300501 4.6215 0.461 2
17.293501 4.5605001 0.46200001 2
17.2915 4.6535001 0.463 2
17.3305 4.6364999 0.456 2
17.380501 4.5275002 0.44600001 2
17.3995 4.5095 0.442 2
17.317499 4.6665001 0.458 2
17.321501 4.6075001 0.45699999 2
17.265499 4.6764998 0.46799999 2
17.313499 4.4924998 0.458 2
17.2945 4.5384998 0.46200001 2
17.384501 4.6005001 0.44499999 2
17.2645 4.6645002 0.46799999 2
17.3085 4.4724998 0.45899999 2
17.3395 4.5005002 0.45300001 2
17.290501 4.6234999 0.463 2
17.2845 4.4654999 0.463 2
17.415501 4.5764999 0.44 2
17.3225 4.4724998 0.456 2
17.279499 4.6605 0.465 2
17.4375 4.5605001 0.435 2
17.3235 4.6585002 0.45699999 2
17.341499 4.5285001 0.45300001 2
17.314501 4.4545002 0.458 2
17.304501 4.6185002 0.46000001 2
17.359501 4.6025 0.44999999 2
17.442499 4.5555 0.435 2
17.363501 4.5335002 0.449 2
17.2775 4.6285 0.465 2
17.311501 4.5495 0.45899999 2
17.303499 4.5984998 0.46000001 2
17.282499 4.6355 0.46399999 2
17.376499 4.5135002 0.447 2
17.3745 4.5964999 0.447 2
17.3685 4.5434999 0.44800001 2
17.296499 4.6294999 0.46200001 2
17.3575 4.4835 0.44999999 2
17.259501 4.4555001 0.46799999 2
17.2985 4.4844999 0.461 2
17.3025 4.5465002 0.46000001 2
17.2815 4.4794998 0.46399999 2
17.2465 4.4864998 0.47099999 2
17.2505 4.5105 0.47 2
17.3515 4.4854999 0.45100001 2
17.355499 4.4914999 0.44999999 2
17.341499 4.5535002 0.45300001 2
17.304501 4.5215001 0.46000001 2
17.310499 4.6385002 0.45899999 2
17.324499 4.5524998 0.456 2
17.3615 4.5345001 0.449 2
17.252501 4.5295 0.46900001 2
17.314501 4.6005001 0.33399999 2
17.318501 4.6114998 0.333 2
17.303499 4.5784998 0.33899999 2
17.3055 4.5865002 0.33899999 2
17.3155 4.6185002 0.33500001 2
17.310499 4.6015 0.33700001 2
17.296499 4.5654998 0.34200001 2
17.3225 4.5984998 0.329 2
17.310499 4.5815001 0.33500001 2
17.3125 4.6055002 0.336 2
17.324499 4.6574998 0.333 2
17.318501 4.5895 0.33000001 2
17.3025 4.5895 0.34099999 2
17.300501 4.5695 0.34 2
17.3755 4.2624998 0.447 2
17.3585 4.2795 0.45500001 2
17.3585 4.2915001 0.463 2
17.373501 4.2934999 0.46599999 2
17.373501 4.2835002 0.45899999 2
17.376499 4.2635002 0.447 2
17.3515 4.2715001 0.44999999 2
17.3615 4.2665 0.44800001 2
17.3575 4.2874999 0.461 2
17.356501 4.2874999 0.461 2
17.3605 4.2944999 0.46599999 2
17.383499 4.2694998 0.45100001 2
17.3535 4.2645001 0.44600001 2
17.379499 4.2824998 0.45899999 2
17.3745 4.2744999 0.454 2
17.3895 4.2754998 0.456 2
17.407499 4.2645001 0.44999999 2
17.373501 4.2865 0.461 2
17.393499 4.2624998 0.44800001 2
17.425501 4.6915002 0.458 2
17.4035 4.6475 0.449 2
17.3225 4.6915002 0.461 2
17.4925 4.6164999 0.44 2
17.519501 4.6884999 0.45500001 2
17.466499 4.6954999 0.458 2
17.452499 4.6125002 0.44 2
17.439501 4.6155 0.44100001 2
17.407499 4.6475 0.449 2
17.491501 4.6355 0.44400001 2
17.4755 4.5774999 0.43200001 2
17.4235 4.6275001 0.44400001 2
17.4195 4.6704998 0.454 2
17.4765 4.6884999 0.456 2
17.4265 4.6335001 0.44499999 2
17.4765 4.6785002 0.454 2
17.481501 4.6294999 0.44299999 2
17.460501 4.5945001 0.43599999 2
17.491501 4.6125002 0.43900001 2
17.4205 4.6314998 0.44499999 2
17.4445 4.6715002 0.45300001 2
17.3815 4.6624999 0.45300001 2
17.348499 4.6774998 0.45699999 2
17.5005 4.6964998 0.45699999 2
17.4765 4.6894999 0.456 2
17.495501 4.6894999 0.456 2
17.439501 4.6374998 0.44600001 2
17.306499 4.7104998 0.46599999 2
17.4645 4.6525002 0.449 2
17.3365 4.6694999 0.456 2
17.3895 4.6374998 0.447 2
17.2985 4.7045002 0.465 2
17.4195 4.6525002 0.44999999 2
17.304501 4.7094998 0.465 2
17.352501 4.6785002 0.45699999 2
17.4405 4.5945001 0.43599999 2
17.3445 4.6954999 0.461 2
17.348499 4.6875 0.45899999 2
17.4765 4.5805001 0.43200001 2
17.373501 4.6824999 0.458 2
17.4165 4.6265001 0.44400001 2
17.442499 4.5914998 0.43599999 2
17.387501 4.6525002 0.45100001 2
17.4095 4.6395001 0.447 2
17.494499 4.6715002 0.45199999 2
17.345501 4.6954999 0.461 2
17.4415 4.6044998 0.43900001 2
17.4345 4.6525002 0.449 2
17.446501 4.6865001 0.456 2
17.4755 4.6595001 0.44999999 2
17.432501 4.6545 0.44999999 2
17.4585 4.6135001 0.44 2
17.459499 4.6044998 0.43799999 2
17.495501 4.6285 0.442 2
17.404499 4.6265001 0.44400001 2
17.477501 4.6535001 0.44800001 2
17.429501 4.6465001 0.44800001 2
17.474501 4.6645002 0.45100001 2
17.4345 4.7014999 0.46000001 2
17.515499 4.6764998 0.45300001 2
17.331499 4.6815 0.45899999 2
17.3715 4.6975002 0.461 2
17.4645 4.6785002 0.454 2
17.438499 4.6504998 0.449 2
17.4235 4.6345 0.44600001 2
17.4195 4.6605 0.45199999 2
17.453501 4.6405001 0.44600001 2
17.4555 4.6805 0.45500001 2
17.505501 4.6824999 0.454 2
17.512501 4.6725001 0.45199999 2
17.3405 4.6995001 0.46200001 2
17.383499 4.6485 0.44999999 2
17.495501 4.6875 0.45500001 2
17.4485 4.6865001 0.456 2
17.3715 4.6405001 0.44800001 2
17.4505 4.6525002 0.449 2
17.4995 4.6304998 0.44299999 2
17.5135 4.6795001 0.45300001 2
17.428499 4.6255002 0.44299999 2
17.394501 4.6634998 0.45300001 2
17.470501 4.6114998 0.43900001 2
17.4175 4.6224999 0.44299999 2
17.418501 4.6294999 0.44499999 2
17.379499 4.6504998 0.44999999 2
17.4035 4.6515002 0.44999999 2
17.415501 4.6545 0.44999999 2
17.4105 4.6675 0.45300001 2
17.4575 4.6174998 0.44100001 2
17.5135 4.6815 0.454 2
17.408501 4.6925001 0.45899999 2
17.3535 4.7055001 0.463 2
17.397499 4.7034998 0.46200001 2
17.4345 4.5955 0.43700001 2
17.341499 4.6704998 0.456 2
17.477501 4.5795002 0.43200001 2
17.459499 4.6424999 0.44600001 2
17.365499 4.7034998 0.463 2
17.373501 4.6595001 0.45199999 2
17.4645 4.6275001 0.44299999 2
17.4685 4.6754999 0.454 2
17.349501 4.6764998 0.45699999 2
17.4855 4.6185002 0.44100001 2
17.359501 4.6624999 0.454 2
17.3755 4.6995001 0.461 2
17.490499 4.6364999 0.44400001 2
17.3645 4.6875 0.45899999 2
17.4505 4.6595001 0.44999999 2
17.4445 4.6574998 0.44999999 2
17.466499 4.6304998 0.44400001 2
17.3675 4.6865001 0.45899999 2
17.407499 4.6494999 0.449 2
17.384501 4.6535001 0.45100001 2
17.466499 4.6395001 0.44600001 2
17.377501 4.6805 0.45699999 2
17.5135 4.6824999 0.454 2
17.428499 4.6265001 0.44400001 2
17.4935 4.6624999 0.44999999 2
17.459499 4.6185002 0.44100001 2
17.4515 4.6205001 0.442 2
17.467501 4.6725001 0.45300001 2
17.443501 4.6915002 0.458 2
17.4235 4.6684999 0.45300001 2
17.4585 4.5945001 0.43599999 2
17.4965 4.6255002 0.442 2
17.4765 4.6545 0.449 2
17.4715 4.6224999 0.442 2
17.466499 4.6875 0.456 2
17.3325 4.7094998 0.465 2
17.4645 4.6945 0.458 2
17.4105 4.6665001 0.45300001 2
17.474501 4.6075001 0.43799999 2
17.4105 4.6735001 0.45500001 2
17.4785 4.5955 0.43599999 2
17.338499 4.6834998 0.45899999 2
17.4025 4.6364999 0.447 2
17.481501 4.6545 0.449 2
17.4125 4.6475 0.449 2
17.4095 4.6374998 0.447 2
17.425501 4.6094999 0.44 2
17.3675 4.6605 0.45300001 2
17.418501 4.6954999 0.45899999 2
17.4765 4.5875001 0.43399999 2
17.411501 4.6845002 0.45699999 2
17.4555 4.6314998 0.44400001 2
17.484501 4.6545 0.44800001 2
17.494499 4.6504998 0.447 2
17.481501 4.6704998 0.45199999 2
17.4475 4.6025 0.43799999 2
17.456499 4.5904999 0.435 2
17.320499 4.6785002 0.458 2
17.459499 4.6395001 0.44600001 2
17.4655 4.6595001 0.44999999 2
17.349501 4.6875 0.45899999 2
17.3305 4.7014999 0.463 2
17.2945 4.7115002 0.46599999 2
17.311501 4.6945 0.46200001 2
17.282499 4.7125001 0.46700001 2
17.4205 4.6314998 0.44499999 2
17.421499 4.6395001 0.447 2
17.443501 4.6355 0.44499999 2
17.3435 4.6925001 0.461 2
17.4615 4.6034999 0.43799999 2
17.390499 4.6515002 0.44999999 2
17.372499 4.6945 0.46000001 2
17.363501 4.6535001 0.45100001 2
17.4415 4.6155 0.44100001 2
17.473499 4.6904998 0.45699999 2
17.3955 4.6504998 0.44999999 2
17.3575 4.6684999 0.45500001 2
17.436501 4.6255002 0.44299999 2
17.463499 4.6205001 0.44100001 2
17.4925 4.6735001 0.45199999 2
17.4195 4.6275001 0.44400001 2
17.4165 4.6634998 0.45199999 2
17.459499 4.6355 0.44499999 2
17.4265 4.6925001 0.458 2
17.4025 4.6525002 0.44999999 2
17.345501 4.7024999 0.463 2
17.446501 4.5914998 0.43599999 2
17.4615 4.7354999 0.449 2
17.415501 4.7315001 0.45300001 2
17.345501 4.7234998 0.46000001 2
17.432501 4.7094998 0.458 2
17.519501 4.7305002 0.447 2
17.3895 4.7214999 0.458 2
17.425501 4.7255001 0.454 2
17.509501 4.7014999 0.456 2
17.3235 4.7195001 0.463 2
17.425501 4.7034998 0.461 2
17.3055 4.7175002 0.465 2
17.452499 4.7125001 0.456 2
17.4245 4.7154999 0.45699999 2
17.508499 4.7265 0.449 2
17.445499 4.7214999 0.454 2
17.443501 4.7094998 0.458 2
17.3815 4.7255001 0.45699999 2
17.525499 4.7185001 0.44999999 2
17.311501 4.7185001 0.46399999 2
17.4245 4.7084999 0.45899999 2
17.372499 4.7075 0.463 2
17.324499 4.7214999 0.46200001 2
17.5075 4.7364998 0.44600001 2
17.394501 4.7135 0.46000001 2
17.4895 4.7094998 0.45500001 2
17.3545 4.7175002 0.461 2
17.2925 4.7164998 0.465 2
17.4245 4.7154999 0.45699999 2
17.307501 4.7195001 0.46399999 2
17.4685 4.7315001 0.44999999 2
17.5215 4.7414999 0.44400001 2
17.272499 4.7145 0.46700001 2
17.498501 4.7275 0.449 2
17.488501 4.7234998 0.45100001 2
17.359501 4.7115002 0.463 2
17.4345 4.7275 0.45300001 2
17.383499 4.7284999 0.456 2
17.5355 4.7305002 0.44600001 2
17.3785 4.7214999 0.458 2
17.445499 4.7325001 0.45100001 2
17.401501 4.7135 0.45899999 2
17.3055 4.7154999 0.465 2
17.3915 4.7294998 0.45500001 2
17.511499 4.7364998 0.44600001 2
17.4035 4.7065001 0.461 2
17.4625 4.7014999 0.45899999 2
17.4685 4.7224998 0.45199999 2
17.439501 4.7245002 0.454 2
17.532499 4.7375002 0.44400001 2
17.4485 4.7214999 0.454 2
17.306499 4.7195001 0.46399999 2
17.4095 4.7055001 0.461 2
17.5285 4.7185001 0.44999999 2
17.481501 4.7055001 0.456 2
17.3435 4.7145 0.463 2
17.511499 4.7234998 0.449 2
17.525499 4.7335 0.44600001 2
17.5075 4.7294998 0.44800001 2
17.4995 4.7294998 0.44800001 2
17.348499 4.7214999 0.46000001 2
17.3995 4.7164998 0.45899999 2
17.494499 4.7045002 0.456 2
17.3645 4.7084999 0.463 2
17.4125 4.7315001 0.45300001 2
17.4995 4.7205 0.45100001 2
17.320499 4.7135 0.465 2
17.5075 4.7305002 0.447 2
17.4725 4.7164998 0.454 2
17.3335 4.7154999 0.463 2
17.509501 4.7104998 0.45300001 2
17.4855 4.7164998 0.45300001 2
17.408501 4.7245002 0.456 2
17.5425 4.7294998 0.44600001 2
17.3395 4.7115002 0.46399999 2
17.3965 4.7245002 0.456 2
17.5105 4.7385001 0.44499999 2
17.397499 4.3705001 0.461 2
17.449499 4.4905 0.442 2
17.4725 4.5384998 0.43599999 2
17.473499 4.5254998 0.44299999 2
17.3965 4.3674998 0.461 2
17.463499 4.5235 0.43700001 2
17.4195 4.4184999 0.454 2
17.4375 4.4575 0.449 2
17.443501 4.4664998 0.449 2
17.4505 4.4895 0.44299999 2
17.383499 4.3425002 0.46399999 2
17.463499 4.5085001 0.44400001 2
17.470501 4.5314999 0.43799999 2
17.4055 4.3874998 0.45899999 2
17.4375 4.4545002 0.44999999 2
17.4505 4.4924998 0.442 2
17.421499 4.4235001 0.45300001 2
17.384501 4.3395 0.465 2
17.436501 4.4625001 0.44499999 2
17.473499 4.5454998 0.433 2
17.4625 4.5064998 0.44299999 2
17.449499 4.4965 0.44 2
17.4445 4.4755001 0.44499999 2
17.4415 4.4775 0.44299999 2
17.4335 4.2954998 0.46799999 2
17.4065 4.2895002 0.46399999 2
17.556499 4.2874999 0.465 2
17.4645 4.2705002 0.45500001 2
17.4505 4.2765002 0.45699999 2
17.436501 4.2954998 0.46799999 2
17.421499 4.2814999 0.46000001 2
17.561501 4.2874999 0.465 2
17.435499 4.2824998 0.46000001 2
17.400499 4.2934999 0.46599999 2
17.5105 4.2804999 0.461 2
17.4515 4.2754998 0.45699999 2
17.404499 4.2795 0.458 2
17.504499 4.2795 0.46000001 2
17.4125 4.2705002 0.45300001 2
17.418501 4.2765002 0.45699999 2
17.4065 4.2754998 0.456 2
17.453501 4.2884998 0.46399999 2
17.4925 4.2855 0.463 2
17.466499 4.2735 0.456 2
17.436501 4.2895002 0.46399999 2
17.3955 4.2865 0.46200001 2
17.4405 4.2965002 0.46799999 2
17.5105 4.2895002 0.46599999 2
17.4755 4.2934999 0.46700001 2
17.5065 4.2905002 0.46599999 2
17.366501 4.3004999 0.47 2
17.5515 4.2865 0.465 2
17.4925 4.2765002 0.458 2
17.491501 4.2905002 0.46599999 2
17.443501 4.2925 0.46599999 2
17.466499 4.2835002 0.461 2
17.3965 4.2965002 0.46799999 2
17.474501 4.2835002 0.46200001 2
17.4695 4.2895002 0.465 2
17.4175 4.2624998 0.449 2
17.4475 4.2874999 0.46399999 2
17.446501 4.2795 0.45899999 2
17.397499 4.2954998 0.46799999 2
17.563499 4.2874999 0.465 2
17.4195 4.2954998 0.46799999 2
17.4995 4.6164999 0.44299999 2
17.5035 4.5964999 0.44800001 2
17.5005 4.6135001 0.44400001 2
17.511499 4.6475 0.44999999 2
17.5135 4.6595001 0.45199999 2
17.5065 4.5925002 0.45100001 2
17.4995 4.6094999 0.44400001 2
17.5105 4.6275001 0.45100001 2
17.5215 4.6884999 0.456 2
17.5105 4.6585002 0.449 2
17.501499 4.5935001 0.447 2
17.5005 4.5875001 0.44600001 2
17.5005 4.6155 0.44400001 2
17.4825 4.5695 0.433 2
17.4965 4.6125002 0.44 2
17.4895 4.5935001 0.43599999 2
17.4855 4.5725002 0.435 2
17.490499 4.5914998 0.43799999 2
17.498501 4.5984998 0.44400001 2
17.4925 4.6044998 0.43799999 2
17.4835 4.5745001 0.433 2
17.515499 4.3125 0.47099999 2
17.502501 4.2985001 0.46799999 2
17.435499 4.3004999 0.46900001 2
17.546499 4.2915001 0.46599999 2
17.570499 4.3125 0.47 2
17.564501 4.2954998 0.46700001 2
17.533501 4.2954998 0.46700001 2
17.568501 4.3144999 0.47099999 2
17.571501 4.3165002 0.47099999 2
17.5245 4.3074999 0.47 2
17.511499 4.3134999 0.47099999 2
17.5495 4.3065 0.46900001 2
17.4715 4.2985001 0.46799999 2
17.463499 4.3024998 0.46900001 2
17.5075 4.3095002 0.47 2
17.556499 4.3045001 0.46900001 2
17.5035 4.3065 0.47 2
17.571501 4.3134999 0.47 2
17.515499 4.2915001 0.46700001 2
17.408501 4.3045001 0.47 2
17.585501 4.3154998 0.47099999 2
17.5035 4.3065 0.47 2
17.505501 4.3024998 0.46900001 2
17.5345 4.3084998 0.47 2
17.488501 4.2954998 0.46799999 2
17.525499 4.3055 0.46900001 2
17.4205 4.3065 0.47099999 2
17.518499 4.3014998 0.46900001 2
17.5005 4.3125 0.47099999 2
17.5525 4.2995 0.46799999 2
17.5145 4.3095002 0.47 2
17.5525 4.3074999 0.46900001 2
17.5725 4.3154998 0.47099999 2
17.550501 4.2915001 0.46599999 2
17.425501 4.3035002 0.47 2
17.5275 4.2995 0.46799999 2
17.5305 4.2934999 0.46700001 2
17.480499 4.3074999 0.47 2
17.4935 4.3895001 0.461 2
17.504499 4.4825001 0.449 2
17.518499 4.3414998 0.46799999 2
17.477501 4.3185 0.47 2
17.5355 4.3635001 0.46599999 2
17.438499 4.4134998 0.45699999 2
17.546499 4.3264999 0.47099999 2
17.421499 4.3825002 0.461 2
17.3955 4.3435001 0.465 2
17.5275 4.4124999 0.45899999 2
17.422501 4.3464999 0.46599999 2
17.561501 4.3695002 0.465 2
17.3755 4.3095002 0.46900001 2
17.4695 4.3264999 0.46900001 2
17.5285 4.4485002 0.454 2
17.4375 4.3575001 0.46399999 2
17.533501 4.4305 0.45699999 2
17.397499 4.3585 0.463 2
17.5285 4.3295002 0.47 2
17.5175 4.4625001 0.45199999 2
17.539499 4.3695002 0.465 2
17.539499 4.3845 0.463 2
17.4765 4.4775 0.449 2
17.550501 4.3685002 0.465 2
17.4695 4.4514999 0.45300001 2
17.509501 4.3915 0.461 2
17.4825 4.3965001 0.46000001 2
17.490499 4.3455 0.46700001 2
17.495501 4.3724999 0.46399999 2
17.561501 4.3604999 0.46700001 2
17.512501 4.4295001 0.45699999 2
17.435499 4.4105 0.45699999 2
17.4585 4.4105 0.458 2
17.488501 4.4384999 0.45500001 2
17.519501 4.3864999 0.46200001 2
17.554501 4.4074998 0.46000001 2
17.536501 4.3435001 0.46799999 2
17.4105 4.3744998 0.46200001 2
17.5385 4.3685002 0.465 2
17.425501 4.3445001 0.46599999 2
17.5065 4.3154998 0.47099999 2
17.4795 4.5075002 0.44600001 2
17.470501 4.3354998 0.46799999 2
17.373501 4.3035002 0.47 2
17.4855 4.3195 0.47 2
17.547501 4.4124999 0.46000001 2
17.5075 4.3225002 0.47 2
17.463499 4.4085002 0.458 2
17.564501 4.3315001 0.47 2
17.568501 4.3495002 0.46799999 2
17.438499 4.4045 0.458 2
17.390499 4.3344998 0.46599999 2
17.508499 4.4965 0.44800001 2
17.491501 4.4765 0.44999999 2
17.432501 4.3235002 0.46900001 2
17.588499 4.3255 0.472 2
17.502501 4.3544998 0.46599999 2
17.5075 4.4035001 0.46000001 2
17.532499 4.3794999 0.46399999 2
17.5235 4.3715 0.46399999 2
17.518499 4.3515 0.46700001 2
17.529499 4.4054999 0.46000001 2
17.4835 4.3315001 0.46900001 2
17.5385 4.3944998 0.46200001 2
17.414499 4.3395 0.46599999 2
17.488501 4.4965 0.447 2
17.459499 4.4864998 0.44800001 2
17.5145 4.4974999 0.44800001 2
17.4655 4.4615002 0.45100001 2
17.4265 4.4004998 0.458 2
17.5275 4.3414998 0.46799999 2
17.4625 4.3895001 0.461 2
17.383499 4.3204999 0.46799999 2
17.422501 4.3775001 0.461 2
17.460501 4.3715 0.463 2
17.488501 4.3195 0.47 2
17.4135 4.3464999 0.465 2
17.508499 4.4355001 0.456 2
17.5485 4.3594999 0.46599999 2
17.411501 4.3165002 0.46900001 2
17.3895 4.3095002 0.47 2
17.422501 4.3655 0.463 2
17.459499 4.4524999 0.45199999 2
17.449499 4.3395 0.46700001 2
17.473499 4.5015001 0.44600001 2
17.425501 4.4175 0.456 2
17.525499 4.3544998 0.46700001 2
17.5835 4.3385 0.47 2
17.556499 4.3924999 0.46200001 2
17.435499 4.3635001 0.46399999 2
17.494499 4.4645 0.45199999 2
17.4645 4.3785 0.46200001 2
17.532499 4.3845 0.463 2
17.4855 4.3614998 0.465 2
17.480499 4.4685001 0.45100001 2
17.5755 4.3365002 0.47 2
17.463499 4.4204998 0.45699999 2
17.539499 4.3625002 0.46599999 2
17.540501 4.3804998 0.46399999 2
17.386499 4.3065 0.47 2
17.5655 4.3474998 0.46799999 2
17.5755 4.3655 0.46599999 2
17.5065 4.5064998 0.44600001 2
17.4935 4.4895 0.44800001 2
17.4545 4.4805002 0.449 2
17.568501 4.3295002 0.47099999 2
17.404499 4.3105001 0.47 2
17.491501 4.4435 0.454 2
17.480499 4.5215001 0.44400001 2
17.487499 4.4664998 0.45100001 2
17.384501 4.3045001 0.47 2
17.443501 4.3095002 0.47099999 2
17.4095 4.3165002 0.46900001 2
17.519501 4.4835 0.44999999 2
17.4335 4.3464999 0.46599999 2
17.484501 4.3305001 0.46900001 2
17.5165 4.4864998 0.449 2
17.5385 4.3755002 0.46399999 2
17.5145 4.3534999 0.46599999 2
17.5305 4.3674998 0.465 2
17.5725 4.3354998 0.47 2
17.4785 4.3985 0.46000001 2
17.4505 4.3115001 0.47099999 2
17.4925 4.4905 0.44800001 2
17.5445 4.3915 0.46200001 2
17.529499 4.3994999 0.461 2
17.4055 4.3414998 0.46599999 2
17.5445 4.3325 0.47 2
17.557501 4.3625002 0.46599999 2
17.4335 4.3375001 0.46700001 2
17.495501 4.5295 0.44299999 2
17.463499 4.4004998 0.45899999 2
17.495501 4.4514999 0.45300001 2
17.584499 4.3435001 0.46900001 2
17.459499 4.4415002 0.454 2
17.4475 4.4615002 0.45100001 2
17.5075 4.4955001 0.44800001 2
17.5695 4.3715 0.465 2
17.5305 4.4295001 0.45699999 2
17.376499 4.3074999 0.47 2
17.4965 4.5355 0.442 2
17.5205 4.4305 0.45699999 2
17.5515 4.3534999 0.46700001 2
17.394501 4.3515 0.46399999 2
17.4335 4.4194999 0.456 2
17.5595 4.3284998 0.47099999 2
17.421499 4.3544998 0.46399999 2
17.459499 4.4105 0.458 2
17.4785 4.4155002 0.458 2
17.518499 4.3734999 0.46399999 2
17.556499 4.3515 0.46799999 2
17.505501 4.3515 0.46700001 2
17.511499 4.4885001 0.449 2
17.540501 4.4264998 0.45699999 2
17.4555 4.4254999 0.456 2
17.508499 4.4864998 0.449 2
17.4715 4.4844999 0.44800001 2
17.556499 4.3315001 0.47 2
17.393499 4.3484998 0.465 2
17.467501 4.3655 0.46399999 2
17.4615 4.3635001 0.46399999 2
17.452499 4.3985 0.45899999 2
17.529499 4.4145002 0.45899999 2
17.4575 4.3845 0.461 2
17.477501 4.3585 0.465 2
17.505501 4.3274999 0.47 2
17.511499 4.4134998 0.45899999 2
17.4585 4.3645 0.46399999 2
17.508499 4.4445 0.454 2
17.4995 4.3505001 0.46700001 2
17.5355 4.4134998 0.45899999 2
17.5035 4.3765001 0.463 2
17.491501 4.3195 0.47 2
17.4415 4.4495001 0.45199999 2
17.4445 4.4545002 0.45199999 2
17.4865 4.4745002 0.44999999 2
17.377501 4.3144999 0.46900001 2
17.5205 4.3474998 0.46700001 2
17.4615 4.4115 0.458 2
17.502501 4.4714999 0.45100001 2
17.425501 4.3445001 0.46599999 2
17.5485 4.3225002 0.47099999 2
17.5425 4.4365001 0.456 2
17.4135 4.3395 0.46599999 2
17.414499 4.3915 0.45899999 2
17.5805 4.3534999 0.46799999 2
17.4935 4.4115 0.458 2
17.5585 4.3895001 0.463 2
17.498501 4.3664999 0.46399999 2
17.5725 4.3664999 0.46599999 2
17.525499 4.3585 0.46599999 2
17.480499 4.4835 0.449 2
17.431499 4.3334999 0.46700001 2
17.4785 4.4844999 0.449 2
17.436501 4.4365001 0.454 2
17.4245 4.3674998 0.463 2
17.529499 4.3814998 0.463 2
