# .PCD v0.7 - Point Cloud Data file format
VERSION 0.7
FIELDS x y z label
SIZE 4 4 4 4
TYPE F F F U
COUNT 1 1 1 1
WIDTH 1687
HEIGHT 1
VIEWPOINT 0 0 0 1 0 0 0
POINTS 1687
DATA ascii
15.5405 3.5055001 0.45199999 2
15.4785 3.5215001 0.45100001 2
15.4715 3.5455 0.456 2
15.5725 3.5425 0.465 2
15.5135 3.5745001 0.46799999 2
15.4965 3.5715001 0.465 2
15.4745 3.4725001 0.43799999 2
15.5875 3.5225 0.461 2
15.5555 3.5295 0.46000001 2
15.4785 3.4944999 0.44400001 2
15.5465 3.4965 0.45100001 2
15.5335 3.5525 0.46399999 2
15.5125 3.5165 0.45300001 2
15.4745 3.5664999 0.46200001 2
15.4925 3.5044999 0.44800001 2
15.5615 3.5534999 0.46700001 2
15.5005 3.5274999 0.45500001 2
15.5215 3.5515001 0.46200001 2
15.5005 3.5374999 0.45699999 2
15.5345 3.5725 0.46900001 2
15.5845 3.5404999 0.46599999 2
15.4725 3.5074999 0.447 2
15.4975 3.5385001 0.45699999 2
15.4765 3.5325 0.45300001 2
15.5625 3.5235 0.45899999 2
15.6385 3.5335 0.46900001 2
15.5165 3.4905 0.44600001 2
15.4825 3.4844999 0.442 2
15.5115 3.5675001 0.46599999 2
15.5835 3.5445001 0.46599999 2
15.4755 3.5625 0.461 2
15.4875 3.5625 0.46200001 2
15.5935 3.5574999 0.47099999 2
15.5445 3.4965 0.44999999 2
15.5785 3.5545001 0.46900001 2
15.6115 3.5415001 0.46799999 2
15.4885 3.5244999 0.45199999 2
15.5365 3.5474999 0.463 2
15.5335 3.5725 0.46900001 2
15.4665 3.4795001 0.43900001 2
15.5825 3.5244999 0.461 2
15.5435 3.5604999 0.46700001 2
15.5755 3.5325 0.463 2
15.4795 3.4974999 0.44499999 2
15.5415 3.5074999 0.45300001 2
15.4925 3.5864999 0.46900001 2
15.5915 3.5555 0.47 2
15.5085 3.5335 0.45699999 2
15.5405 3.5374999 0.461 2
15.5735 3.5634999 0.47 2
15.4825 3.5474999 0.458 2
15.5125 3.5365 0.458 2
15.5225 3.5745001 0.46900001 2
15.4915 3.5035 0.447 2
15.5635 3.5304999 0.461 2
15.5475 3.5404999 0.46200001 2
15.5345 3.5105 0.45300001 2
15.5955 3.5565 0.47099999 2
15.4715 3.5485001 0.45699999 2
15.5605 3.5534999 0.46700001 2
15.4875 3.5344999 0.45500001 2
15.5555 3.5135 0.456 2
15.4935 3.5065 0.44800001 2
15.4765 3.5155001 0.449 2
15.4755 3.5565 0.45899999 2
15.5245 3.5274999 0.45699999 2
15.5015 3.5185001 0.45199999 2
15.5385 3.5495 0.46399999 2
15.5165 3.5795 0.46900001 2
15.5895 3.5385001 0.465 2
15.5405 3.5204999 0.456 2
15.4745 3.5574999 0.46000001 2
15.5175 3.5174999 0.45300001 2
15.5465 3.5664999 0.46900001 2
15.4775 3.5425 0.456 2
15.4735 3.5195 0.44999999 2
15.5385 3.5625 0.46700001 2
15.4835 3.5845001 0.46799999 2
15.5005 3.5325 0.456 2
15.5295 3.5574999 0.465 2
15.5105 3.5255001 0.45500001 2
15.5405 3.4944999 0.44999999 2
15.4915 3.5395 0.45699999 2
15.6175 3.5425 0.46900001 2
15.4735 3.4965 0.44400001 2
15.4945 3.5864999 0.46900001 2
15.5945 3.5255001 0.463 2
15.5165 3.5804999 0.47 2
15.5255 3.5105 0.45199999 2
15.4705 3.4825001 0.44 2
15.5685 3.5685 0.47099999 2
15.4755 3.4955001 0.44400001 2
15.5545 3.5404999 0.463 2
15.4745 3.5055001 0.44600001 2
15.6035 3.5474999 0.46900001 2
15.4855 3.5745001 0.465 2
15.5705 3.5504999 0.46700001 2
15.6305 3.5504999 0.472 2
15.5075 3.4835 0.44400001 2
15.5275 3.5174999 0.454 2
15.6455 3.5425 0.472 2
15.4845 3.5085001 0.44800001 2
15.5715 3.5235 0.46000001 2
15.5625 3.5204999 0.458 2
15.4795 3.5445001 0.45699999 2
15.5375 3.5504999 0.46399999 2
15.5335 3.5734999 0.46900001 2
15.4725 3.4675 0.43599999 2
15.5515 3.5695 0.47 2
15.4675 3.4844999 0.44 2
15.5395 3.5625 0.46700001 2
15.5465 3.5434999 0.463 2
15.5505 3.5325 0.46000001 2
15.6145 3.5244999 0.46399999 2
15.5125 3.5604999 0.46399999 2
15.6365 3.5855 0.45699999 2
15.6095 3.5964999 0.456 2
15.6325 3.6294999 0.44 2
15.6055 3.5804999 0.463 2
15.5895 3.6264999 0.44600001 2
15.6475 3.5734999 0.461 2
15.5695 3.5785 0.46799999 2
15.6095 3.6275001 0.44299999 2
15.6505 3.5555 0.46799999 2
15.5265 3.5945001 0.46599999 2
15.6495 3.5715001 0.46200001 2
15.6195 3.6105001 0.449 2
15.5715 3.5915 0.46200001 2
15.6275 3.6335001 0.43900001 2
15.6195 3.6194999 0.44600001 2
15.6015 3.5934999 0.458 2
15.5485 3.6135001 0.456 2
15.6525 3.6194999 0.442 2
15.6485 3.6385 0.435 2
15.6205 3.6294999 0.442 2
15.6565 3.5975001 0.44999999 2
15.6395 3.5585001 0.46799999 2
15.5935 3.5785 0.465 2
15.5615 3.5825 0.46700001 2
15.6135 3.5715001 0.465 2
15.5085 3.6034999 0.465 2
15.5475 3.6145 0.456 2
15.6075 3.6215 0.44600001 2
15.6455 3.6335001 0.43700001 2
15.6225 3.6094999 0.449 2
15.6325 3.6224999 0.44299999 2
15.5825 3.5715001 0.46900001 2
15.6515 3.5625 0.465 2
15.6355 3.6305001 0.43900001 2
15.6105 3.5585001 0.47099999 2
15.5415 3.5985 0.463 2
15.5815 3.6285 0.44600001 2
15.6215 3.5755 0.463 2
15.5545 3.6064999 0.458 2
15.6025 3.5785 0.46399999 2
15.6425 3.6415 0.43399999 2
15.5865 3.5675001 0.47 2
15.5175 3.5955 0.46700001 2
15.5895 3.5675001 0.47 2
15.6425 3.6355 0.43700001 2
15.6055 3.6345 0.44100001 2
15.5655 3.5825 0.46700001 2
15.5225 3.6005001 0.46399999 2
15.5495 3.5955 0.463 2
15.5475 3.5825 0.46799999 2
15.5365 3.6155 0.456 2
15.6005 3.6275001 0.44400001 2
15.5415 3.6155 0.456 2
15.6555 3.5885 0.454 2
15.6535 3.6355 0.435 2
15.5575 3.6025 0.45899999 2
15.6275 3.5925 0.456 2
15.5755 3.5855 0.46399999 2
15.6175 3.6045001 0.45199999 2
15.5655 3.5804999 0.46700001 2
15.6545 3.6454999 0.43099999 2
15.5405 3.5975001 0.463 2
15.6425 3.6275001 0.44 2
15.5645 3.6034999 0.458 2
15.5945 3.6305001 0.44400001 2
15.5335 3.6015 0.463 2
15.6285 3.5645001 0.46700001 2
15.6505 3.5534999 0.46900001 2
15.5065 3.5905001 0.47 2
15.5935 3.5775001 0.46599999 2
15.6185 3.5955 0.45500001 2
15.6285 3.5855 0.458 2
15.6215 3.5785 0.46200001 2
15.5825 3.5915 0.461 2
15.5895 3.6294999 0.44499999 2
15.5565 3.5955 0.463 2
15.6545 3.5734999 0.46000001 2
15.6135 3.5885 0.45899999 2
15.6385 3.6185 0.44400001 2
15.6245 3.6064999 0.44999999 2
15.5605 3.6045001 0.458 2
15.5025 3.5955 0.46900001 2
15.6575 3.5615001 0.465 2
15.6275 3.6135001 0.447 2
15.6325 3.6205001 0.44400001 2
15.6225 3.5825 0.46000001 2
15.5785 3.5804999 0.46599999 2
15.6165 3.5704999 0.46599999 2
15.5725 3.6175001 0.45199999 2
15.6345 3.6185 0.44400001 2
15.5335 3.6085 0.46000001 2
15.6515 3.5465 0.47099999 2
15.6045 3.5985 0.456 2
15.6365 3.5834999 0.458 2
15.6015 3.6135001 0.44999999 2
15.4975 3.5934999 0.47 2
15.5695 3.6135001 0.454 2
15.6445 3.5664999 0.46399999 2
15.6195 3.5804999 0.461 2
15.6195 3.6064999 0.45100001 2
15.5265 3.6005001 0.46399999 2
15.5685 3.5804999 0.46700001 2
15.6435 3.5975001 0.45199999 2
15.6485 3.6415 0.43399999 2
15.5555 3.5825 0.46799999 2
15.4975 3.5975001 0.46799999 2
15.6465 3.6375 0.435 2
15.5285 3.5985 0.46399999 2
15.5885 3.6385 0.43900001 2
15.5565 3.6364999 0.44 2
15.6085 3.6415 0.43599999 2
15.5545 3.6264999 0.44800001 2
15.5795 3.6415 0.43599999 2
15.5755 3.6285 0.447 2
15.4835 3.6025 0.46700001 2
15.5345 3.6355 0.442 2
15.6435 3.6465001 0.43200001 2
15.6005 3.6405001 0.43700001 2
15.5355 3.6224999 0.45199999 2
15.5475 3.6375 0.44 2
15.5135 3.6285 0.44800001 2
15.5155 3.6335001 0.44299999 2
15.4865 3.6085 0.463 2
15.5125 3.6285 0.44800001 2
15.5205 3.6164999 0.456 2
15.6005 3.6375 0.43900001 2
15.5295 3.6235001 0.45100001 2
15.5275 3.6335001 0.44299999 2
15.6085 3.6424999 0.43599999 2
15.4955 3.6155 0.45699999 2
15.4955 3.6075001 0.463 2
15.5215 3.6255 0.449 2
15.5565 3.6264999 0.44800001 2
15.5665 3.6405001 0.43700001 2
15.5785 3.6335001 0.44299999 2
15.5745 3.6405001 0.43799999 2
15.5315 3.6255 0.449 2
15.5525 3.6285 0.447 2
15.5805 3.6415 0.43700001 2
15.5435 3.1914999 0.43700001 2
15.5805 3.1724999 0.412 2
15.5835 3.1784999 0.421 2
15.6545 3.1654999 0.41100001 2
15.5615 3.1765001 0.41600001 2
15.6135 3.1754999 0.421 2
15.5885 3.1705 0.41 2
15.5735 3.1754999 0.41600001 2
15.5065 3.1805 0.41499999 2
15.5835 3.1705 0.41 2
15.5865 3.1684999 0.40700001 2
15.5605 3.1854999 0.42899999 2
15.5425 3.1775 0.41600001 2
15.5825 3.1775 0.41999999 2
15.6075 3.1724999 0.41600001 2
15.5585 3.1905 0.43599999 2
15.5815 3.1815 0.426 2
15.5325 3.1965001 0.44400001 2
15.5715 3.1745 0.41499999 2
15.5155 3.1784999 0.414 2
15.5815 3.1795001 0.42300001 2
15.5145 3.1895001 0.43099999 2
15.5315 3.1925001 0.43700001 2
15.5645 3.1815 0.42399999 2
15.5265 3.1754999 0.41100001 2
15.5475 3.1805 0.41999999 2
15.5785 3.1824999 0.428 2
15.5185 3.1795001 0.41600001 2
15.5065 3.1835001 0.41999999 2
15.5355 3.1745 0.41 2
15.6355 3.1665001 0.40900001 2
15.5475 3.1914999 0.43700001 2
15.5855 3.1715 0.41100001 2
15.5215 3.2035 0.45300001 2
15.4935 3.1754999 0.40700001 2
15.5835 3.1724999 0.412 2
15.5655 3.1854999 0.43000001 2
15.5655 3.1925001 0.44 2
15.6035 3.1665001 0.40599999 2
15.5025 3.1765001 0.40900001 2
15.5125 3.1805 0.41600001 2
15.5195 3.1835001 0.42199999 2
15.5165 3.1745 0.40700001 2
15.5305 3.1795001 0.41600001 2
15.5655 3.1735001 0.41100001 2
15.5925 3.1745 0.417 2
15.5465 3.1805 0.41999999 2
15.5715 3.1775 0.419 2
15.5805 3.1795001 0.42300001 2
15.5245 3.1784999 0.41499999 2
15.5455 3.1835001 0.42399999 2
15.6155 3.1775 0.42399999 2
15.6015 3.1715 0.41299999 2
15.4975 3.3505001 0.44100001 2
15.4635 3.4154999 0.435 2
15.5465 3.3954999 0.44600001 2
15.4625 3.3724999 0.43599999 2
15.4975 3.4175 0.44 2
15.5215 3.3455 0.44400001 2
15.5395 3.3615 0.44600001 2
15.5175 3.3905001 0.44299999 2
15.4855 3.3575001 0.44 2
15.6425 3.3475001 0.45899999 2
15.4415 3.3694999 0.43399999 2
15.5745 3.3475001 0.45100001 2
15.5715 3.3545001 0.44999999 2
15.4885 3.3855 0.43900001 2
15.4385 3.3475001 0.43399999 2
15.4545 3.3685 0.435 2
15.4535 3.3835001 0.435 2
15.4695 3.4054999 0.43599999 2
15.5145 3.4184999 0.442 2
15.5615 3.3845 0.44800001 2
15.5575 3.3545001 0.449 2
15.5055 3.4345 0.44 2
15.6375 3.3655 0.458 2
15.4825 3.3855 0.43900001 2
15.4885 3.3815 0.43900001 2
15.5805 3.3645 0.45100001 2
15.4805 3.3645 0.43900001 2
15.5495 3.3924999 0.447 2
15.6675 3.3445001 0.46200001 2
15.5205 3.3794999 0.44299999 2
15.5205 3.3764999 0.44299999 2
15.5405 3.4145 0.44499999 2
15.5525 3.3445001 0.44800001 2
15.5335 3.3915 0.44499999 2
15.4665 3.4414999 0.435 2
15.6245 3.3464999 0.45699999 2
15.6205 3.3515 0.456 2
15.5925 3.3705001 0.45300001 2
15.5045 3.4205 0.44 2
15.4295 3.3645 0.43200001 2
15.4695 3.4395001 0.43599999 2
15.4985 3.3845 0.44 2
15.4465 3.3425 0.435 2
15.4615 3.3994999 0.43599999 2
15.6065 3.3405001 0.45500001 2
15.4845 3.3405001 0.44 2
15.4825 3.3655 0.43900001 2
15.5025 3.4045 0.44 2
15.4735 3.4184999 0.43700001 2
15.4695 3.4224999 0.43599999 2
15.6355 3.3555 0.458 2
15.5275 3.4184999 0.44299999 2
15.5715 3.3724999 0.44999999 2
15.5045 3.3735001 0.442 2
15.5485 3.3805001 0.447 2
15.5535 3.3445001 0.44800001 2
15.4435 3.3745 0.43399999 2
15.4665 3.4245 0.435 2
15.5335 3.3894999 0.44499999 2
15.4675 3.3635001 0.43700001 2
15.6635 3.3375001 0.46200001 2
15.5355 3.3664999 0.44600001 2
15.4965 3.4354999 0.43900001 2
15.4725 3.4395001 0.43599999 2
15.4295 3.3415 0.433 2
15.4875 3.4154999 0.43799999 2
15.5485 3.4135001 0.44600001 2
15.5055 3.4324999 0.44 2
15.4665 3.3445001 0.43799999 2
15.5655 3.3915 0.449 2
15.6115 3.3494999 0.45500001 2
15.4455 3.4054999 0.433 2
15.5065 3.4354999 0.44 2
15.4545 3.4085 0.43399999 2
15.5735 3.3954999 0.44999999 2
15.6255 3.3475001 0.45699999 2
15.5075 3.3534999 0.442 2
15.4515 3.3785 0.435 2
15.4585 3.4184999 0.435 2
15.5345 3.3635001 0.44499999 2
15.4295 3.3415 0.433 2
15.4475 3.4224999 0.433 2
15.5185 3.3615 0.44400001 2
15.5365 3.3994999 0.44499999 2
15.5125 3.4135001 0.442 2
15.5915 3.3625 0.45300001 2
15.5245 3.3945 0.44299999 2
15.6335 3.3575001 0.458 2
15.4185 3.3485 0.43099999 2
15.5555 3.3935001 0.447 2
15.4985 3.3764999 0.44100001 2
15.5125 3.3894999 0.442 2
15.5015 3.3735001 0.44100001 2
15.6125 3.3395 0.456 2
15.5145 3.3985 0.442 2
15.5885 3.3905001 0.45100001 2
15.4415 3.3705001 0.43399999 2
15.4445 3.3564999 0.43399999 2
15.5925 3.3645 0.45300001 2
15.5755 3.3805001 0.44999999 2
15.4485 3.4035001 0.43399999 2
15.5015 3.3965001 0.44100001 2
15.5535 3.3805001 0.447 2
15.4355 3.3715 0.433 2
15.5125 3.4254999 0.44100001 2
15.5205 3.3445001 0.44400001 2
15.4275 3.3655 0.43200001 2
15.5015 3.3425 0.442 2
15.4735 3.3875 0.43700001 2
15.5085 3.3724999 0.442 2
15.4105 3.3485 0.43000001 2
15.5295 3.3735001 0.44499999 2
15.5965 3.3385 0.454 2
15.5235 3.3794999 0.44400001 2
15.4305 3.3655 0.433 2
15.4815 3.3645 0.43900001 2
15.6295 3.3645 0.45699999 2
15.5195 3.3724999 0.44299999 2
15.5575 3.4094999 0.447 2
15.4905 3.4195001 0.43900001 2
15.5065 3.3664999 0.442 2
15.4945 3.4315 0.43900001 2
15.5785 3.3824999 0.44999999 2
15.4775 3.4414999 0.43599999 2
15.6415 3.3485 0.45899999 2
15.5365 3.3715 0.44600001 2
15.5885 3.3805001 0.45199999 2
15.5285 3.3965001 0.44400001 2
15.5375 3.3585 0.44600001 2
15.6755 3.3425 0.463 2
15.4575 3.3715 0.43599999 2
15.4935 3.4175 0.43900001 2
15.4835 3.4035001 0.43799999 2
15.5375 3.4165001 0.44499999 2
15.6565 3.3485 0.461 2
15.4605 3.4024999 0.435 2
15.5795 3.3835001 0.45100001 2
15.4645 3.3915 0.43599999 2
15.5685 3.3645 0.44999999 2
15.4925 3.3425 0.44100001 2
15.4775 3.4554999 0.43599999 2
15.6095 3.3445001 0.45500001 2
15.4805 3.3625 0.43900001 2
15.6355 3.3434999 0.458 2
15.5065 3.3794999 0.442 2
15.6655 3.3405001 0.46200001 2
15.4995 3.3794999 0.44100001 2
15.5825 3.3924999 0.45100001 2
15.4765 3.3965001 0.43700001 2
15.4265 3.3575001 0.43200001 2
15.6175 3.3375001 0.456 2
15.4895 3.4495001 0.43799999 2
15.5875 3.3935001 0.45100001 2
15.5225 3.4224999 0.44299999 2
15.5635 3.3764999 0.449 2
15.4815 3.3515 0.43900001 2
15.4185 3.3555 0.43099999 2
15.5725 3.3415 0.45100001 2
15.4595 3.3675001 0.43599999 2
15.4185 3.3534999 0.43099999 2
15.4835 3.4284999 0.43700001 2
15.4215 3.3425 0.43200001 2
15.5975 3.3845 0.45300001 2
15.6555 3.3525 0.461 2
15.4245 3.3705001 0.43200001 2
15.5215 3.3694999 0.44400001 2
15.5375 3.4075 0.44499999 2
15.4675 3.3455 0.43799999 2
15.4275 3.3625 0.43200001 2
15.4425 3.3494999 0.43399999 2
15.4655 3.4625001 0.435 2
15.5465 3.4094999 0.44600001 2
15.4865 3.3994999 0.43900001 2
15.5385 3.4184999 0.44499999 2
15.4235 3.3755 0.43099999 2
15.4585 3.3805001 0.43599999 2
15.5475 3.3685 0.447 2
15.5405 3.3764999 0.44600001 2
15.5235 3.3494999 0.44400001 2
15.6555 3.1905 0.43799999 2
15.5375 3.2035 0.45300001 2
15.5805 3.2025001 0.45100001 2
15.5985 3.1975 0.44600001 2
15.6695 3.1845 0.43099999 2
15.6165 3.1995001 0.44800001 2
15.6305 3.2035 0.45199999 2
15.5375 3.2005 0.44999999 2
15.6055 3.2035 0.45199999 2
15.5495 3.1975 0.44600001 2
15.6425 3.1715 0.417 2
15.6655 3.1875 0.435 2
15.5465 3.1975 0.447 2
15.6065 3.1925001 0.44100001 2
15.5305 3.2035 0.45300001 2
15.5805 3.1895001 0.43700001 2
15.6085 3.1824999 0.42899999 2
15.6505 3.1895001 0.43599999 2
15.6615 3.1675 0.412 2
15.6665 3.1854999 0.43200001 2
15.6325 3.2025001 0.45100001 2
15.5945 3.1984999 0.447 2
15.5835 3.1954999 0.44299999 2
15.6655 3.2005 0.449 2
15.6285 3.2005 0.449 2
15.5855 3.1954999 0.44400001 2
15.5985 3.2014999 0.44999999 2
15.6115 3.1884999 0.43599999 2
15.6045 3.2035 0.45300001 2
15.5775 3.2025001 0.45199999 2
15.5585 3.1945 0.44299999 2
15.5645 3.2035 0.45199999 2
15.6005 3.1875 0.435 2
15.6345 3.1984999 0.447 2
15.5605 3.2025001 0.45199999 2
15.6805 3.1975 0.44499999 2
15.6665 3.1925001 0.44 2
15.6665 3.1835001 0.43099999 2
15.6675 3.1775 0.42399999 2
15.6535 3.1835001 0.43000001 2
15.6455 3.2005 0.449 2
15.5605 3.2014999 0.45100001 2
15.6035 3.1935 0.44100001 2
15.6105 3.2025001 0.45100001 2
15.6595 3.1745 0.41999999 2
15.6575 3.1965001 0.44400001 2
15.6515 3.1745 0.421 2
15.5925 3.2014999 0.44999999 2
15.6555 3.1854999 0.433 2
15.6715 3.1884999 0.435 2
15.6495 3.1995001 0.44800001 2
15.5685 3.2395 0.45699999 2
15.5625 3.2184999 0.45500001 2
15.6445 3.2804999 0.46000001 2
15.6725 3.2405 0.456 2
15.6475 3.2405 0.456 2
15.5375 3.2105 0.45500001 2
15.6405 3.2414999 0.456 2
15.6425 3.2514999 0.45699999 2
15.5865 3.2175 0.45500001 2
15.6655 3.2284999 0.45500001 2
15.6465 3.2084999 0.45300001 2
15.6915 3.2414999 0.456 2
15.5915 3.2205 0.45500001 2
15.6225 3.2505 0.458 2
15.5775 3.2095001 0.454 2
15.6605 3.2835 0.46000001 2
15.6475 3.2114999 0.45300001 2
15.6245 3.2065001 0.45300001 2
15.6275 3.2514999 0.458 2
15.6705 3.3095 0.463 2
15.6105 3.2135 0.454 2
15.6855 3.2325001 0.45500001 2
15.5565 3.2184999 0.45500001 2
15.6345 3.2844999 0.461 2
15.6095 3.2305 0.456 2
15.6545 3.2155001 0.45300001 2
15.5365 3.2084999 0.45500001 2
15.6485 3.2774999 0.46000001 2
15.6365 3.2934999 0.46200001 2
15.6645 3.2305 0.45500001 2
15.6765 3.2474999 0.456 2
15.6715 3.2145 0.45300001 2
15.5795 3.2455001 0.458 2
15.6425 3.2885001 0.461 2
15.6065 3.2535 0.458 2
15.5625 3.2344999 0.45699999 2
15.5595 3.2314999 0.45699999 2
15.6525 3.2605 0.458 2
15.5895 3.2565 0.45899999 2
15.6715 3.2514999 0.45699999 2
15.6665 3.2214999 0.454 2
15.6595 3.2885001 0.461 2
15.6355 3.2114999 0.45300001 2
15.5975 3.2225001 0.45500001 2
15.5315 3.2125001 0.45500001 2
15.5915 3.2095001 0.454 2
15.5825 3.2505 0.458 2
15.6775 3.3164999 0.46399999 2
15.6665 3.2175 0.45300001 2
15.6805 3.2804999 0.46000001 2
15.6145 3.2284999 0.456 2
15.6655 3.2625 0.458 2
15.6285 3.2255001 0.45500001 2
15.6765 3.2735 0.45899999 2
15.6695 3.2084999 0.45199999 2
15.5445 3.2225001 0.456 2
15.5905 3.2195001 0.45500001 2
15.6765 3.2485001 0.456 2
15.6215 3.2045 0.45300001 2
15.5785 3.2125001 0.454 2
15.5985 3.2284999 0.456 2
15.6045 3.2474999 0.458 2
15.6565 3.2385001 0.456 2
15.6605 3.2985001 0.46200001 2
15.6895 3.2365 0.45500001 2
15.6165 3.2625 0.45899999 2
15.5765 3.2275 0.456 2
15.5595 3.2284999 0.456 2
15.6785 3.2474999 0.456 2
15.6215 3.2165 0.454 2
15.6795 3.3145001 0.463 2
15.5675 3.2114999 0.45500001 2
15.6225 3.2755001 0.46000001 2
15.6185 3.2335 0.456 2
15.6595 3.2865 0.461 2
15.6635 3.3034999 0.46200001 2
15.6815 3.2774999 0.45899999 2
15.6885 3.2544999 0.45699999 2
15.6765 3.2075 0.45199999 2
15.5865 3.2045 0.45300001 2
15.6715 3.3004999 0.46200001 2
15.6035 3.2065001 0.45300001 2
15.6425 3.2145 0.45300001 2
15.6395 3.2695 0.45899999 2
15.5625 3.2344999 0.45699999 2
15.5935 3.2405 0.45699999 2
15.5895 3.2535 0.45899999 2
15.6755 3.2755001 0.45899999 2
15.6465 3.2045 0.45199999 2
15.5795 3.2335 0.45699999 2
15.6145 3.2704999 0.46000001 2
15.5675 3.2335 0.45699999 2
15.6575 3.2574999 0.458 2
15.6005 3.2095001 0.454 2
15.6495 3.2465 0.45699999 2
15.6685 3.2744999 0.45899999 2
15.6785 3.2395 0.456 2
15.6265 3.2455001 0.45699999 2
15.5545 3.2125001 0.45500001 2
15.6105 3.2385001 0.45699999 2
15.6775 3.3034999 0.46200001 2
15.6845 3.2765 0.45899999 2
15.6215 3.2344999 0.456 2
15.6485 3.2895 0.461 2
15.6315 3.2375 0.456 2
15.6405 3.2535 0.458 2
15.6885 3.3315001 0.465 2
15.6845 3.2755001 0.45899999 2
15.6755 3.2444999 0.456 2
15.6865 3.2235 0.454 2
15.6875 3.2165 0.45300001 2
15.5595 3.2284999 0.456 2
15.6075 3.2565 0.45899999 2
15.5275 3.4595001 0.44499999 2
15.6515 3.3715 0.461 2
15.5455 3.4925001 0.44999999 2
15.5925 3.4475 0.45500001 2
15.5085 3.4675 0.442 2
15.5625 3.4784999 0.45199999 2
15.6645 3.4165001 0.46599999 2
15.5445 3.4695001 0.44800001 2
15.5425 3.4865 0.449 2
15.6125 3.4885001 0.461 2
15.6615 3.5165 0.47099999 2
15.6455 3.3775001 0.46000001 2
15.5505 3.4925001 0.45100001 2
15.6315 3.4814999 0.46399999 2
15.5185 3.4484999 0.44299999 2
15.5755 3.4154999 0.44999999 2
15.5845 3.4805 0.456 2
15.5665 3.4465001 0.45100001 2
15.6705 3.3605001 0.463 2
15.5855 3.4914999 0.45699999 2
15.5005 3.4484999 0.44 2
15.6735 3.3494999 0.463 2
15.6185 3.4414999 0.46000001 2
15.5805 3.4365001 0.45300001 2
15.6265 3.4475 0.461 2
15.6625 3.4124999 0.465 2
15.6615 3.3675001 0.46200001 2
15.6345 3.5114999 0.46700001 2
15.5765 3.4995 0.456 2
15.4965 3.4725001 0.44 2
15.5515 3.4675 0.44999999 2
15.6425 3.4425001 0.46399999 2
15.6565 3.5195 0.47099999 2
15.6685 3.4584999 0.46900001 2
15.6295 3.4765 0.46399999 2
15.5595 3.4295001 0.449 2
15.6385 3.4354999 0.463 2
15.6265 3.4135001 0.45899999 2
15.5975 3.3894999 0.45300001 2
15.5775 3.4705 0.454 2
15.6225 3.4695001 0.46200001 2
15.5855 3.4635 0.45500001 2
15.5725 3.4284999 0.45100001 2
15.5275 3.4545 0.44499999 2
15.6375 3.4425001 0.463 2
15.4955 3.4584999 0.43900001 2
15.5295 3.4505 0.44499999 2
15.6185 3.3835001 0.456 2
15.5755 3.4154999 0.44999999 2
15.5585 3.4875 0.45199999 2
15.6755 3.4045 0.46700001 2
15.6565 3.4265001 0.465 2
15.6235 3.4875 0.463 2
15.6405 3.4525001 0.46399999 2
15.6505 3.4765 0.46700001 2
15.6035 3.5125 0.461 2
15.5775 3.4165001 0.45100001 2
15.6155 3.3915 0.456 2
15.6455 3.4935 0.46700001 2
15.6445 3.5315001 0.47 2
15.6215 3.4835 0.463 2
15.6645 3.4835 0.47 2
15.6555 3.4795001 0.46799999 2
15.5545 3.4384999 0.44800001 2
15.5615 3.4094999 0.44800001 2
15.6535 3.4965 0.46900001 2
15.5995 3.5085001 0.46000001 2
15.6385 3.4215 0.46200001 2
15.5875 3.4395001 0.454 2
15.6505 3.5155001 0.47 2
15.6645 3.4985001 0.47099999 2
15.6745 3.3935001 0.46599999 2
15.5985 3.4405 0.456 2
15.6805 3.3455 0.46399999 2
15.6265 3.4614999 0.46200001 2
15.6385 3.3855 0.46000001 2
15.6325 3.4955001 0.465 2
15.6775 3.3855 0.46599999 2
15.5715 3.5035 0.45500001 2
15.5765 3.4435 0.45199999 2
15.6485 3.5304999 0.47 2
15.5465 3.4595001 0.44800001 2
15.5525 3.4784999 0.44999999 2
15.6635 3.3894999 0.46399999 2
15.5585 3.4435 0.449 2
15.5275 3.4635 0.44499999 2
15.6355 3.3764999 0.45899999 2
15.5735 3.4875 0.45500001 2
15.6615 3.4454999 0.46700001 2
15.5855 3.4265001 0.45300001 2
15.5095 3.4525001 0.44100001 2
15.6665 3.3534999 0.46200001 2
15.6405 3.4935 0.46599999 2
15.5645 3.4844999 0.45300001 2
15.5265 3.4354999 0.44299999 2
15.6445 3.4775 0.46599999 2
15.6075 3.4545 0.458 2
15.6195 3.5044999 0.46399999 2
15.5245 3.4495001 0.44400001 2
15.6525 3.3864999 0.46200001 2
15.6455 3.4535 0.465 2
15.6325 3.4565001 0.463 2
15.6335 3.4995 0.46599999 2
15.5425 3.4554999 0.447 2
15.5635 3.4425001 0.44999999 2
15.5545 3.4985001 0.45199999 2
15.6425 3.5135 0.46799999 2
15.5665 3.4085 0.449 2
15.6635 3.3645 0.46200001 2
15.6645 3.4284999 0.46700001 2
15.6155 3.4935 0.46200001 2
15.5825 3.4525001 0.454 2
15.6145 3.5105 0.463 2
15.6385 3.4495001 0.463 2
15.6435 3.5065 0.46799999 2
15.6745 3.3835001 0.46599999 2
15.6535 3.4154999 0.46399999 2
15.5425 3.4765 0.44800001 2
15.6565 3.4905 0.46900001 2
15.6725 3.3815 0.465 2
15.6435 3.4054999 0.46200001 2
15.6635 3.3945 0.46399999 2
15.6305 3.4315 0.461 2
15.6175 3.5155001 0.46399999 2
15.4915 3.4535 0.43799999 2
15.6355 3.4045 0.46000001 2
15.6695 3.3715 0.46399999 2
15.5425 3.4875 0.449 2
15.6005 3.4115 0.45500001 2
15.6335 3.3935001 0.45899999 2
15.5755 3.4295001 0.45100001 2
15.6505 3.4575 0.46599999 2
15.6715 3.3534999 0.463 2
15.6465 3.4324999 0.46399999 2
15.5135 3.4695001 0.44299999 2
15.6045 3.3864999 0.454 2
15.5515 3.4535 0.449 2
15.6585 3.5074999 0.47 2
15.5525 3.4184999 0.447 2
15.5475 3.4595001 0.44800001 2
15.5085 3.4575 0.44100001 2
15.5915 3.5135 0.45899999 2
15.5295 3.4584999 0.44499999 2
15.6055 3.4525001 0.458 2
15.6275 3.4475 0.461 2
15.5755 3.5044999 0.456 2
15.5745 3.4435 0.45199999 2
15.6375 3.3745 0.45899999 2
15.5415 3.4445 0.44600001 2
15.5195 3.4665 0.44400001 2
15.6565 3.4645 0.46799999 2
15.6045 3.3945 0.454 2
15.6595 3.4835 0.46900001 2
15.6245 3.3945 0.458 2
15.5735 3.4974999 0.45500001 2
15.5805 3.4614999 0.454 2
15.5945 3.4265001 0.454 2
15.6425 3.4855001 0.46599999 2
15.5325 3.4675 0.44600001 2
15.6235 3.4154999 0.45899999 2
15.6165 3.5074999 0.463 2
15.5795 3.4135001 0.45100001 2
15.6075 3.4135001 0.456 2
15.6235 3.3994999 0.458 2
15.4975 3.4705 0.44 2
15.5905 3.4215 0.45300001 2
15.6405 3.4324999 0.463 2
15.6175 3.5225 0.46399999 2
15.6325 3.4545 0.463 2
15.6765 3.3455 0.46399999 2
15.5325 3.4345 0.44400001 2
15.5955 3.4995 0.45899999 2
15.5745 3.4595001 0.45300001 2
15.5775 3.4145 0.45100001 2
15.5385 3.4865 0.44800001 2
15.5955 3.4295001 0.45500001 2
15.5105 3.4665 0.442 2
15.6275 3.4115 0.45899999 2
15.6345 3.4105 0.46000001 2
15.6125 3.4254999 0.45699999 2
15.6405 3.4635 0.465 2
15.6315 3.4284999 0.461 2
15.6365 3.3805001 0.45899999 2
15.5045 3.4784999 0.442 2
15.6015 3.4395001 0.456 2
15.6235 3.4835 0.463 2
15.5345 3.4324999 0.44400001 2
15.6765 3.3575001 0.46399999 2
15.6435 3.5005 0.46700001 2
15.6195 3.4184999 0.458 2
15.5765 3.4224999 0.45100001 2
15.6385 3.4495001 0.463 2
15.6035 3.4684999 0.45899999 2
15.6265 3.4714999 0.463 2
15.5905 3.4875 0.45699999 2
15.5675 3.4505 0.45100001 2
15.5855 3.4965 0.45699999 2
15.6545 3.3655 0.461 2
15.5195 3.4395001 0.442 2
15.5855 3.4825001 0.456 2
15.6105 3.3945 0.45500001 2
15.5095 3.4675 0.442 2
15.6425 3.4015 0.461 2
15.5645 3.4775 0.45199999 2
15.5885 3.4175 0.45300001 2
15.4995 3.4614999 0.44 2
15.6005 3.4714999 0.458 2
15.6385 3.4384999 0.463 2
15.6575 3.4855001 0.46900001 2
15.6325 3.4735 0.46399999 2
15.4935 3.4575 0.43900001 2
15.6365 3.5144999 0.46700001 2
15.6755 3.4045 0.46700001 2
15.6055 3.3994999 0.45500001 2
15.6895 3.3445001 0.46599999 2
15.6845 3.3915 0.46599999 2
15.6785 3.4575 0.46700001 2
15.6765 3.4965 0.46700001 2
15.6745 3.4795001 0.46799999 2
15.6825 3.4445 0.46599999 2
15.6795 3.4835 0.46599999 2
15.6775 3.5044999 0.46700001 2
15.6725 3.4575 0.47 2
15.6715 3.4805 0.47 2
15.6735 3.4805 0.46900001 2
15.6865 3.4315 0.465 2
15.6755 3.4614999 0.46799999 2
15.6815 3.4295001 0.46700001 2
15.6825 3.4725001 0.465 2
15.6695 3.5174999 0.46900001 2
15.6815 3.4015 0.46700001 2
15.6825 3.4575 0.46599999 2
15.6765 3.4795001 0.46700001 2
15.6825 3.4545 0.46599999 2
15.6645 3.5195 0.47099999 2
15.6875 3.4215 0.46399999 2
15.6695 3.4974999 0.47 2
15.6875 3.4035001 0.465 2
15.6625 3.5395 0.472 2
15.6775 3.5385001 0.46700001 2
15.6795 3.5035 0.46599999 2
15.6905 3.5215001 0.463 2
15.6765 3.5265 0.46700001 2
15.6795 3.5135 0.46599999 2
15.6835 3.4944999 0.465 2
15.6835 3.5144999 0.465 2
15.6885 3.5074999 0.463 2
15.7085 3.4465001 0.44999999 2
15.6915 3.3675001 0.46399999 2
15.6945 3.4565001 0.46000001 2
15.7045 3.4655001 0.45300001 2
15.6985 3.4514999 0.45699999 2
15.6945 3.4245 0.46000001 2
15.7045 3.4735 0.45199999 2
15.7015 3.4215 0.456 2
15.7005 3.4235001 0.45699999 2
15.6915 3.4484999 0.46200001 2
15.6945 3.3585 0.46200001 2
15.6975 3.4165001 0.45899999 2
15.7005 3.3975 0.45699999 2
15.7065 3.4205 0.45300001 2
15.6955 3.4075 0.46000001 2
15.7035 3.4514999 0.454 2
15.6975 3.4184999 0.45899999 2
15.7045 3.4554999 0.45300001 2
15.6925 3.4094999 0.46200001 2
15.6945 3.4395001 0.46000001 2
15.7055 3.4345 0.45300001 2
15.6955 3.4645 0.45899999 2
15.6935 3.4635 0.46000001 2
15.7075 3.3115001 0.442 2
15.7055 3.3195 0.44800001 2
15.6955 3.3275001 0.458 2
15.7095 3.3215001 0.447 2
15.6915 3.3345001 0.46399999 2
15.6925 3.3345001 0.463 2
15.6985 3.3345001 0.45899999 2
15.7065 3.3295 0.454 2
15.7065 3.3334999 0.45300001 2
15.7075 3.4154999 0.45199999 2
15.7055 3.3805001 0.45300001 2
15.7115 3.4115 0.44800001 2
15.7075 3.3615 0.45100001 2
15.6955 3.3505001 0.461 2
15.7095 3.3685 0.449 2
15.7095 3.3494999 0.449 2
15.7065 3.3815 0.45199999 2
15.7075 3.3875 0.45100001 2
15.7045 3.3635001 0.454 2
15.7115 3.3905001 0.44800001 2
15.2425 3.4514999 0.72899997 2
15.2345 3.3965001 0.76899999 2
15.3015 3.4535 0.64700001 2
15.3115 3.4675 0.62599999 2
15.2465 3.3515 0.77600002 2
15.2975 3.4695001 0.64399999 2
15.2055 3.4315 0.79100001 2
15.2225 3.4565001 0.755 2
15.2485 3.3885 0.75400001 2
15.2575 3.4525001 0.708 2
15.2445 3.4565001 0.72399998 2
15.2615 3.4295001 0.71499997 2
15.2855 3.4575 0.66600001 2
15.2385 3.3915 0.76700002 2
15.2535 3.4205 0.73000002 2
15.2265 3.4215 0.76700002 2
15.2375 3.3724999 0.778 2
15.2665 3.4215 0.71100003 2
15.2625 3.4505 0.70200002 2
15.2455 3.3785 0.764 2
15.2105 3.4575 0.77100003 2
15.2545 3.4595001 0.708 2
15.2435 3.4635 0.72100002 2
15.2445 3.3755 0.76700002 2
15.2585 3.4254999 0.722 2
15.2245 3.4295001 0.76599997 2
15.2865 3.4275 0.68199998 2
15.2495 3.3815 0.75700003 2
15.2535 3.4284999 0.72600001 2
15.2495 3.4295001 0.73199999 2
15.2935 3.4525001 0.65799999 2
15.2065 3.4475 0.78100002 2
15.2835 3.4505 0.67400002 2
15.2425 3.4315 0.74000001 2
15.2585 3.3845 0.74299997 2
15.2655 3.3724999 0.73799998 2
15.2145 3.4584999 0.76499999 2
15.2315 3.4535 0.74299997 2
15.3115 3.4744999 0.62099999 2
15.2305 3.4135001 0.76599997 2
15.2345 3.3785 0.77899998 2
15.2305 3.4365001 0.755 2
15.2905 3.4525001 0.66299999 2
15.2045 3.4335001 0.79100001 2
15.2535 3.3835001 0.74900001 2
15.2355 3.4744999 0.72600001 2
15.2675 3.4335001 0.704 2
15.2245 3.3924999 0.78500003 2
15.2505 3.4565001 0.71600002 2
15.2775 3.4315 0.69099998 2
15.2405 3.4184999 0.74900001 2
15.2945 3.4584999 0.65399998 2
15.1865 3.4705 0.79699999 2
15.2325 3.4775 0.72899997 2
15.2585 3.4195001 0.72399998 2
15.2635 3.3735001 0.74000001 2
15.2705 3.4395001 0.69599998 2
15.3035 3.4744999 0.63200003 2
15.2305 3.4205 0.76200002 2
15.2785 3.4384999 0.68599999 2
15.1815 3.4695001 0.80400002 2
15.2885 3.4324999 0.676 2
15.1915 3.4645 0.79299998 2
15.2875 3.4254999 0.68099999 2
15.2395 3.3864999 0.76700002 2
15.2475 3.4744999 0.70899999 2
15.2525 3.4714999 0.704 2
15.1965 3.4545 0.79100001 2
15.2265 3.4365001 0.759 2
15.2615 3.4625001 0.69700003 2
15.2695 3.4765 0.67900002 2
15.1805 3.4744999 0.80400002 2
15.2225 3.4195001 0.773 2
15.2185 3.4414999 0.76800001 2
15.2995 3.4475 0.65200001 2
15.2195 3.4575 0.759 2
15.2005 3.4655001 0.77999997 2
15.2055 3.4305 0.792 2
15.2585 3.4105 0.72899997 2
15.2655 3.4545 0.69599998 2
15.2035 3.4614999 0.778 2
15.2195 3.4165001 0.77999997 2
15.2535 3.4295001 0.727 2
15.2915 3.4324999 0.671 2
15.2315 3.4755001 0.73299998 2
15.2125 3.4445 0.77499998 2
15.2555 3.4425001 0.71700001 2
15.2965 3.4645 0.648 2
15.2375 3.3845 0.77200001 2
15.2955 3.4484999 0.65700001 2
15.2235 3.4684999 0.74699998 2
15.1865 3.4775 0.79299998 2
15.2585 3.4384999 0.71399999 2
15.2115 3.4224999 0.787 2
15.2325 3.3755 0.78299999 2
15.2885 3.4475 0.667 2
15.2855 3.4695001 0.66100001 2
15.2205 3.4015 0.78600001 2
15.2545 3.4505 0.713 2
15.2585 3.4184999 0.72399998 2
15.2575 3.3645 0.75400001 2
15.1955 3.4744999 0.78299999 2
15.2785 3.4714999 0.66900003 2
15.2085 3.4465001 0.77899998 2
15.2325 3.4565001 0.741 2
15.2325 3.4184999 0.75999999 2
15.2395 3.4124999 0.75400001 2
15.2925 3.4445 0.66399997 2
15.2855 3.4484999 0.67199999 2
15.2865 3.4495001 0.67000002 2
15.2725 3.3905001 0.72000003 2
15.1865 3.4705 0.79699999 2
15.2005 3.4565001 0.78600001 2
15.2865 3.4184999 0.685 2
15.2605 3.4675 0.69499999 2
15.2365 3.4605 0.73299998 2
15.2095 3.4395001 0.78100002 2
15.2605 3.4395001 0.70999998 2
15.2715 3.3905001 0.72100002 2
15.2785 3.4725001 0.66799998 2
15.2235 3.4595001 0.75099999 2
15.2175 3.4645 0.75700003 2
15.2095 3.4655001 0.76800001 2
15.1825 3.4725001 0.80199999 2
15.2845 3.4725001 0.66100001 2
15.1815 3.4695001 0.80400002 2
15.2265 3.4445 0.755 2
15.2345 3.4755001 0.727 2
15.2455 3.4335001 0.73500001 2
15.2895 3.4324999 0.67400002 2
15.2545 3.4584999 0.70899999 2
15.2335 3.4354999 0.75099999 2
15.1935 3.4475 0.79900002 2
15.2765 3.4554999 0.68000001 2
15.2265 3.4045 0.77600002 2
15.2415 3.4345 0.74000001 2
15.3025 3.4705 0.63599998 2
15.2605 3.4765 0.69199997 2
15.1835 3.4714999 0.80000001 2
15.2475 3.3755 0.76200002 2
15.2455 3.3885 0.759 2
15.2605 3.4305 0.71499997 2
15.2635 3.3954999 0.72899997 2
15.2695 3.4215 0.708 2
15.2415 3.4075 0.755 2
15.2095 3.4484999 0.778 2
15.1945 3.4505 0.79699999 2
15.2145 3.4465001 0.77100003 2
15.2515 3.3894999 0.75 2
15.2175 3.4475 0.76599997 2
15.2495 3.4554999 0.71700001 2
15.2635 3.4735 0.68900001 2
15.2665 3.4085 0.71799999 2
15.2735 3.4165001 0.70499998 2
15.2375 3.4215 0.75300002 2
15.2825 3.4184999 0.69099998 2
15.2745 3.4295001 0.69700003 2
15.2215 3.4275 0.77100003 2
15.2705 3.4075 0.713 2
15.2135 3.4725001 0.759 2
15.2565 3.3975 0.73799998 2
15.2835 3.4425001 0.67699999 2
15.2355 3.3764999 0.778 2
15.2395 3.4495001 0.73400003 2
15.2855 3.4575 0.66600001 2
15.2345 3.4224999 0.75599998 2
15.2375 3.3764999 0.77600002 2
15.2125 3.4484999 0.773 2
15.2665 3.4495001 0.69800001 2
15.2685 3.3764999 0.73199999 2
15.2655 3.4545 0.69499999 2
15.2155 3.4384999 0.77399999 2
15.2335 3.4695001 0.73299998 2
15.2265 3.5244999 0.77399999 2
15.2395 3.5525 0.778 2
15.2485 3.5095 0.73199999 2
15.2685 3.5634999 0.74800003 2
15.2795 3.5855 0.74900001 2
15.2865 3.5085001 0.67900002 2
15.2585 3.5585001 0.75800002 2
15.2815 3.4805 0.66299999 2
15.2695 3.5174999 0.70899999 2
15.3045 3.4844999 0.63499999 2
15.2345 3.5155001 0.75599998 2
15.2745 3.5755 0.74900001 2
15.2705 3.5634999 0.745 2
15.2705 3.4944999 0.68900001 2
15.2715 3.5285001 0.71499997 2
15.2705 3.5595 0.74199998 2
15.2395 3.5135 0.74800003 2
15.2905 3.5615001 0.71600002 2
15.2465 3.4925001 0.72100002 2
15.2675 3.5404999 0.73000002 2
15.2585 3.5455 0.74699998 2
15.2425 3.5604999 0.78100002 2
15.2185 3.5155001 0.77700001 2
15.2455 3.5585001 0.77499998 2
15.2765 3.5795 0.74900001 2
15.2335 3.4825001 0.73100001 2
15.2635 3.5185001 0.71899998 2
15.2795 3.5114999 0.69 2
15.2765 3.5204999 0.70200002 2
15.1955 3.4825001 0.78399998 2
15.2885 3.5534999 0.71200001 2
15.2965 3.5135 0.67000002 2
15.3015 3.4805 0.63599998 2
15.2315 3.5005 0.74800003 2
15.2605 3.5074999 0.71399999 2
15.2825 3.5715001 0.73500001 2
15.2625 3.5825 0.77200001 2
15.2475 3.5374999 0.75599998 2
15.2975 3.5135 0.667 2
15.2455 3.5085001 0.736 2
15.2435 3.4965 0.72899997 2
15.3085 3.5005 0.64099997 2
15.2735 3.5955 0.76599997 2
15.2755 3.4885001 0.67900002 2
15.2745 3.5525 0.73100001 2
15.2285 3.5434999 0.78600001 2
15.2865 3.5415001 0.70499998 2
15.2135 3.4974999 0.76999998 2
15.2135 3.4784999 0.755 2
15.2855 3.5005 0.67400002 2
15.2425 3.4875 0.72299999 2
15.2475 3.5195 0.741 2
15.2675 3.4895 0.69 2
15.2675 3.5625 0.74800003 2
15.2485 3.5114999 0.73400003 2
15.3035 3.5165 0.662 2
15.2705 3.5035 0.69599998 2
15.2105 3.5014999 0.778 2
15.2475 3.5415001 0.759 2
15.2965 3.5065 0.66399997 2
15.3045 3.5005 0.64700001 2
15.2555 3.4995 0.71399999 2
15.2855 3.5344999 0.69999999 2
15.2465 3.5465 0.764 2
15.2535 3.5664999 0.76999998 2
15.2825 3.5755 0.73799998 2
15.2655 3.4914999 0.69300002 2
15.2865 3.4875 0.662 2
15.2095 3.4885001 0.76899999 2
15.2105 3.5185001 0.792 2
15.2745 3.5174999 0.70300001 2
15.2945 3.5374999 0.69099998 2
15.2505 3.5545001 0.76499999 2
15.2765 3.5815001 0.75 2
15.2825 3.5265 0.699 2
15.2825 3.4795001 0.66100001 2
15.2325 3.5295 0.76999998 2
15.2765 3.4825001 0.67199999 2
15.2695 3.5374999 0.72500002 2
15.2395 3.5044999 0.74000001 2
15.2805 3.5055001 0.685 2
15.2935 3.5404999 0.69499999 2
15.2275 3.5265 0.77499998 2
15.2445 3.5425 0.764 2
15.2395 3.5085001 0.74400002 2
15.2375 3.4814999 0.72500002 2
15.3055 3.4825001 0.63200003 2
15.2915 3.5044999 0.66799998 2
15.2615 3.5764999 0.76800001 2
15.2715 3.5044999 0.69599998 2
15.2675 3.4844999 0.68599999 2
15.2395 3.5195 0.75199997 2
15.2325 3.4885001 0.73799998 2
15.2995 3.4905 0.64600003 2
15.2715 3.5135 0.70300001 2
15.2785 3.5525 0.72500002 2
15.2505 3.5344999 0.74900001 2
15.2155 3.5044999 0.77399999 2
15.2765 3.5565 0.73100001 2
15.2545 3.5185001 0.73100001 2
15.2295 3.5335 0.77700001 2
15.2255 3.5215001 0.773 2
15.2585 3.5734999 0.76899999 2
15.2235 3.4885001 0.74900001 2
15.2925 3.5215001 0.68199998 2
15.2625 3.5815001 0.76999998 2
15.2535 3.5095 0.72500002 2
15.2895 3.5604999 0.71600002 2
15.2655 3.5244999 0.72100002 2
15.2495 3.5095 0.73000002 2
15.2365 3.5105 0.75 2
15.2235 3.5304999 0.78399998 2
15.2765 3.5415001 0.72000003 2
15.2675 3.5764999 0.75999999 2
15.2655 3.4855001 0.69 2
15.1975 3.4835 0.78100002 2
15.2975 3.5114999 0.66600001 2
15.2465 3.5335 0.75400001 2
15.2305 3.4914999 0.74199998 2
15.2695 3.5295 0.71799999 2
15.2045 3.4935 0.77999997 2
15.2645 3.5285001 0.72600001 2
15.2645 3.4965 0.699 2
15.2225 3.5165 0.773 2
15.2785 3.5555 0.727 2
15.2765 3.5044999 0.69 2
15.2515 3.5014999 0.72100002 2
15.2685 3.4944999 0.69300002 2
15.2485 3.5235 0.74299997 2
15.2075 3.4974999 0.778 2
15.2625 3.5675001 0.759 2
15.2505 3.5195 0.73699999 2
15.2355 3.5195 0.75700003 2
15.2265 3.5014999 0.75700003 2
15.2865 3.5515001 0.713 2
15.2415 3.5474999 0.773 2
15.2255 3.4875 0.74599999 2
15.2125 3.4814999 0.759 2
15.2375 3.5165 0.75300002 2
15.2725 3.5355 0.72000003 2
15.2715 3.5225 0.71100003 2
15.2685 3.5615001 0.74599999 2
15.2665 3.5555 0.74299997 2
15.2635 3.5804999 0.76800001 2
15.2475 3.5304999 0.75 2
15.2565 3.5745001 0.773 2
15.2335 3.4944999 0.741 2
15.2625 3.5274999 0.727 2
15.2815 3.5025001 0.68099999 2
15.2125 3.5155001 0.787 2
15.2455 3.5355 0.75700003 2
15.2795 3.4814999 0.667 2
15.2405 3.5545001 0.77999997 2
15.2585 3.4905 0.70300001 2
15.2095 3.5055001 0.78299999 2
15.2305 3.5374999 0.77899998 2
15.2505 3.5185001 0.736 2
15.2625 3.4925001 0.699 2
15.2895 3.5325 0.69400001 2
15.2705 3.4905 0.68699998 2
15.2905 3.4814999 0.65100002 2
15.2775 3.5465 0.722 2
15.2515 3.5704999 0.77600002 2
15.2905 3.5225 0.68400002 2
15.2405 3.4825001 0.72100002 2
15.2925 3.4814999 0.64899999 2
15.2025 3.5014999 0.78899997 2
15.2975 3.2355001 0.73100001 2
15.2765 3.2644999 0.74900001 2
15.2745 3.2225001 0.74699998 2
15.2805 3.2045 0.74000001 2
15.2735 3.3015001 0.755 2
15.2755 3.2885001 0.75300002 2
15.2805 3.2105 0.741 2
15.2945 3.2555001 0.73500001 2
15.2915 3.2474999 0.736 2
15.2775 3.2795 0.75 2
15.2805 3.2695 0.74699998 2
15.2695 3.3055 0.759 2
15.2765 3.2405 0.74699998 2
15.2825 3.2465 0.74299997 2
15.2875 3.2505 0.74000001 2
15.2715 3.2825 0.755 2
15.3055 3.2165 0.72299999 2
15.2985 3.2435 0.73100001 2
15.2875 3.2585001 0.741 2
15.2855 3.2435 0.74000001 2
15.3095 3.2275 0.72100002 2
15.2915 3.2405 0.736 2
15.2865 3.2605 0.74199998 2
15.2835 3.2505 0.74299997 2
15.3025 3.2195001 0.72600001 2
15.2965 3.2525001 0.73400003 2
15.2715 3.2735 0.75400001 2
15.2945 3.2095001 0.73000002 2
15.2585 3.3065 0.76700002 2
15.2775 3.2965 0.75199997 2
15.2835 3.1775 0.736 2
15.2745 3.2765 0.75199997 2
15.3025 3.2235 0.72600001 2
15.2635 3.3145001 0.764 2
15.2695 3.2555001 0.75300002 2
15.2825 3.2844999 0.74699998 2
15.2935 3.2565 0.736 2
15.2655 3.2815001 0.759 2
15.3005 3.2525001 0.73000002 2
15.2935 3.1895001 0.72899997 2
15.2925 3.2655001 0.73799998 2
15.2815 3.2585001 0.745 2
15.2655 3.3125 0.76200002 2
15.2665 3.2895 0.75999999 2
15.2925 3.2175 0.73299998 2
15.2915 3.2674999 0.73900002 2
15.2795 3.3134999 0.73000002 2
15.2735 3.3055 0.75599998 2
15.3015 3.2685001 0.72100002 2
15.3145 3.2785001 0.67699999 2
15.3045 3.2934999 0.68900001 2
15.2935 3.3195 0.69 2
15.3135 3.3134999 0.64399999 2
15.3045 3.2995 0.68199998 2
15.2895 3.2965 0.72299999 2
15.2805 3.3095 0.73199999 2
15.2935 3.3155 0.69400001 2
15.2985 3.2704999 0.72500002 2
15.2945 3.2874999 0.71899998 2
15.2745 3.3134999 0.74400002 2
15.2595 3.3364999 0.75999999 2
15.2715 3.3175001 0.74699998 2
15.2915 3.2955 0.71899998 2
15.3045 3.3025 0.67900002 2
15.2985 3.2844999 0.713 2
15.3095 3.2485001 0.72100002 2
15.3145 3.2904999 0.66500002 2
15.2915 3.2835 0.73000002 2
15.2965 3.2945001 0.70599997 2
15.3135 3.3275001 0.63200003 2
15.2995 3.2974999 0.69499999 2
15.3025 3.2995 0.68599999 2
15.3015 3.2695 0.71899998 2
15.3135 3.2934999 0.66399997 2
15.2665 3.3225 0.755 2
15.3095 3.3285 0.64099997 2
15.3095 3.3204999 0.64899999 2
15.2915 3.3145001 0.69999999 2
15.2765 3.3234999 0.72899997 2
15.2845 3.3055 0.727 2
15.3005 3.2765 0.71600002 2
15.3025 3.3295 0.65799999 2
15.2955 3.2915001 0.71100003 2
15.3015 3.2585001 0.73000002 2
15.3145 3.2685001 0.68900001 2
15.3115 3.2514999 0.71100003 2
15.3005 3.3195 0.671 2
15.3095 3.2544999 0.71399999 2
15.2705 3.3364999 0.73100001 2
15.2955 3.3195 0.68400002 2
15.2995 3.3215001 0.67199999 2
15.3035 3.3255 0.65899998 2
15.3075 3.2815001 0.69199997 2
15.3155 3.2485001 0.704 2
15.3005 3.3295 0.66100001 2
15.2785 3.2965 0.75099999 2
15.3035 3.3155 0.66799998 2
15.3155 3.2785001 0.676 2
15.2955 3.2725 0.73199999 2
15.2945 3.2704999 0.73699999 2
15.2885 3.2995 0.722 2
15.3125 3.2655001 0.69499999 2
15.3085 3.3295 0.63999999 2
15.3005 3.2955 0.69599998 2
15.3135 3.2704999 0.68800002 2
15.3045 3.3185 0.66399997 2
15.2935 3.2985001 0.70999998 2
15.3145 3.2625 0.69499999 2
15.2975 3.2934999 0.704 2
15.3085 3.2695 0.70200002 2
15.3065 3.3055 0.671 2
15.3115 3.2695 0.69300002 2
15.3035 3.3225 0.66100001 2
15.3125 3.3034999 0.65700001 2
15.3125 3.3295 0.63200003 2
15.3095 3.3275001 0.64200002 2
15.2845 3.3275001 0.70499998 2
15.3055 3.2644999 0.71600002 2
15.2695 3.3295 0.741 2
15.2915 3.3134999 0.69999999 2
15.2945 3.2844999 0.722 2
15.2895 3.3004999 0.71799999 2
15.2945 3.3195 0.68800002 2
15.2995 3.2765 0.71600002 2
15.2765 3.3134999 0.73900002 2
15.2985 3.3245001 0.671 2
15.3095 3.3245001 0.64300001 2
15.3135 3.3204999 0.63599998 2
15.2805 3.3295 0.713 2
15.2775 3.3295 0.72100002 2
15.2815 3.2965 0.74400002 2
15.2855 3.3994999 0.69199997 2
15.2875 3.3625 0.68900001 2
15.2995 3.3735001 0.65799999 2
15.2915 3.3705001 0.67799997 2
15.2825 3.3345001 0.70099998 2
15.2745 3.3794999 0.71799999 2
15.3145 3.3685 0.62300003 2
15.3025 3.3785 0.65200001 2
15.3145 3.3805001 0.62300003 2
15.2845 3.3985 0.69300002 2
15.2975 3.3994999 0.66299999 2
15.2925 3.4065001 0.67500001 2
15.2785 3.3364999 0.71100003 2
15.2995 3.3815 0.65899998 2
15.2895 3.4135001 0.68000001 2
15.2935 3.3975 0.67299998 2
15.2855 3.3764999 0.69199997 2
15.2785 3.3405001 0.71200001 2
15.2875 3.3515 0.68900001 2
15.2905 3.4115 0.68000001 2
15.2585 3.3445001 0.75800002 2
15.3105 3.3475001 0.634 2
15.3045 3.4154999 0.64399999 2
15.3035 3.4305 0.64700001 2
15.2755 3.3735001 0.71600002 2
15.3085 3.3494999 0.63999999 2
15.2965 3.3655 0.66799998 2
15.3115 3.4435 0.62599999 2
15.3135 3.4465001 0.62300003 2
15.2915 3.4065001 0.67799997 2
15.2825 3.3794999 0.69999999 2
15.2685 3.3715 0.73400003 2
15.3065 3.3545001 0.64300001 2
15.2785 3.3405001 0.71200001 2
15.2875 3.3485 0.68900001 2
15.2735 3.3405001 0.72399998 2
15.2935 3.3965001 0.67299998 2
15.2875 3.3445001 0.68900001 2
15.2715 3.3594999 0.727 2
15.2955 3.3395 0.67000002 2
15.2795 3.3425 0.70999998 2
15.2995 3.4105 0.65600002 2
15.2795 3.3405001 0.70999998 2
15.2975 3.3625 0.66399997 2
15.3015 3.4195001 0.65200001 2
15.2995 3.3585 0.65899998 2
15.2855 3.3764999 0.69300002 2
15.2945 3.4065001 0.67000002 2
15.2865 3.3855 0.68900001 2
15.2995 3.3445001 0.66100001 2
15.2915 3.3875 0.67799997 2
15.3065 3.4035001 0.64099997 2
15.2655 3.3675001 0.741 2
15.2875 3.3745 0.68800002 2
15.3125 3.3415 0.63099998 2
15.2835 3.3855 0.69800001 2
15.2595 3.3534999 0.75599998 2
15.2665 3.3545001 0.73900002 2
15.2845 3.3675001 0.69499999 2
15.3025 3.3794999 0.65100002 2
15.2995 3.3375001 0.66000003 2
15.2655 3.3415 0.74199998 2
15.3065 3.3355 0.64499998 2
15.2815 3.3845 0.70200002 2
15.3045 3.3555 0.64899999 2
15.2865 3.3525 0.69199997 2
15.2815 3.3494999 0.704 2
15.3005 3.3935001 0.65499997 2
15.3025 3.4265001 0.648 2
15.2845 3.3735001 0.69400001 2
15.2915 3.3385 0.68099999 2
15.3095 3.3885 0.63499999 2
15.2965 3.3375001 0.66900003 2
15.2805 3.3445001 0.70700002 2
15.3045 3.3645 0.64700001 2
15.3085 3.4205 0.63499999 2
15.2555 3.3405001 0.76700002 2
15.3095 3.3615 0.63599998 2
15.3005 3.4305 0.65399998 2
15.3055 3.4065001 0.64200002 2
15.2775 3.3635001 0.71200001 2
15.3055 3.3875 0.64499998 2
15.3125 3.3675001 0.62800002 2
15.3125 3.3805001 0.62699997 2
15.2715 3.3594999 0.727 2
15.3015 3.3475001 0.65499997 2
15.2995 3.4315 0.65700001 2
15.2995 3.3575001 0.65899998 2
15.2875 3.3534999 0.69 2
15.2835 3.4045 0.69700003 2
15.2745 3.3395 0.72100002 2
15.2775 3.3594999 0.713 2
15.2865 3.3555 0.69099998 2
15.3115 3.4595001 0.625 2
15.2995 3.3625 0.66000003 2
15.3115 3.3445001 0.63300002 2
15.3035 3.3405001 0.65200001 2
15.2845 3.3735001 0.69499999 2
15.3115 3.4475 0.62599999 2
15.3105 3.3864999 0.63099998 2
15.2885 3.3915 0.685 2
15.2875 3.3594999 0.68800002 2
15.3135 3.4224999 0.62300003 2
15.2815 3.3715 0.70200002 2
15.3135 3.3645 0.62599999 2
15.2875 3.3534999 0.69 2
15.2855 3.4075 0.69099998 2
15.3065 3.3585 0.64399999 2
15.3035 3.4354999 0.64600003 2
15.2865 3.3745 0.68900001 2
15.3125 3.4495001 0.62300003 2
15.2825 3.3625 0.70200002 2
15.3115 3.3395 0.63200003 2
15.2945 3.4165001 0.67000002 2
15.2885 3.4094999 0.68400002 2
15.2595 3.3415 0.75700003 2
15.2705 3.3585 0.73000002 2
15.3065 3.3545001 0.64399999 2
15.2955 3.3935001 0.667 2
15.3065 3.5525 0.68699998 2
15.3105 3.5495 0.68000001 2
15.3065 3.5715001 0.70200002 2
15.3045 3.5215001 0.66399997 2
15.3005 3.5415001 0.68599999 2
15.3115 3.5255001 0.65899998 2
15.3135 3.5304999 0.65899998 2
15.3015 3.5615001 0.70099998 2
15.3065 3.5395 0.67699999 2
15.3235 3.5404999 0.65499997 2
15.3005 3.5465 0.68900001 2
15.3245 3.5285001 0.64300001 2
15.3045 3.5404999 0.68000001 2
15.2995 3.5745001 0.713 2
15.3225 3.5225 0.63999999 2
15.3015 3.5465 0.68900001 2
15.3035 3.5745001 0.708 2
15.3225 3.5174999 0.63700002 2
15.3135 3.5215001 0.65100002 2
15.3235 3.5135 0.63200003 2
15.3235 3.5555 0.667 2
15.3145 3.5344999 0.66100001 2
15.3045 3.5704999 0.704 2
15.3165 3.5155001 0.64300001 2
15.3115 3.5265 0.65899998 2
15.2905 3.5815001 0.73100001 2
15.3035 3.5265 0.67000002 2
15.3165 3.4865 0.61900002 2
15.2965 3.5545001 0.70099998 2
15.3025 3.5385001 0.68099999 2
15.3105 3.5174999 0.653 2
15.3085 3.5504999 0.68199998 2
15.3045 3.5285001 0.671 2
15.3245 3.5385001 0.64999998 2
15.3145 3.5085001 0.64099997 2
15.3185 3.5465 0.66500002 2
15.2895 3.5834999 0.73500001 2
15.3215 3.5504999 0.66500002 2
15.3245 3.5274999 0.64200002 2
15.3125 3.5625 0.68699998 2
15.2955 3.5864999 0.72899997 2
15.3115 3.5504999 0.67799997 2
15.3235 3.5574999 0.66799998 2
15.3035 3.5555 0.69300002 2
15.2825 3.5994999 0.75700003 2
15.3055 3.5775001 0.70899999 2
15.3185 3.5534999 0.67199999 2
15.2835 3.6235001 0.741 2
15.2795 3.6235001 0.74599999 2
15.3175 3.6275001 0.69999999 2
15.2835 3.6264999 0.73699999 2
15.2835 3.6145 0.75199997 2
15.3195 3.6285 0.69700003 2
15.2745 3.6285 0.745 2
15.3125 3.6275001 0.70499998 2
15.2885 3.6245 0.73400003 2
15.2935 3.6164999 0.73799998 2
15.3145 3.6245 0.70599997 2
15.2895 3.6135001 0.74599999 2
15.3195 3.6275001 0.69700003 2
15.2865 3.6194999 0.74299997 2
15.3115 3.2095001 0.69800001 2
15.3145 3.2205 0.70300001 2
15.3075 3.2165 0.71899998 2
15.2985 3.1875 0.71200001 2
15.3015 3.2025001 0.72100002 2
15.3075 3.1735001 0.667 2
15.2985 3.1945 0.71899998 2
15.3125 3.2225001 0.71200001 2
15.3105 3.1815 0.66799998 2
15.3005 3.1815 0.699 2
15.3135 3.2114999 0.69499999 2
15.3095 3.2125001 0.70700002 2
15.3005 3.1854999 0.70099998 2
15.3095 3.1945 0.685 2
15.3105 3.2005 0.69099998 2
15.3065 3.2014999 0.704 2
15.3035 3.1845 0.69 2
15.2885 3.1715 0.722 2
15.3065 3.1905 0.69099998 2
15.3135 3.2265 0.713 2
15.3125 3.2175 0.70499998 2
15.3035 3.1815 0.68900001 2
15.3105 3.1995001 0.69 2
15.3095 3.2214999 0.72000003 2
15.2985 3.1835001 0.70700002 2
15.3075 3.1925001 0.68900001 2
15.3065 3.1875 0.68699998 2
15.3045 3.1895001 0.69400001 2
15.3005 3.1935 0.71200001 2
15.3025 3.1805 0.69099998 2
15.2945 3.1784999 0.70999998 2
15.3165 3.3334999 0.498 2
15.3135 3.3395 0.57499999 2
15.3145 3.3405001 0.50800002 2
15.3175 3.3255 0.51999998 2
15.3105 3.3585 0.50800002 2
15.3075 3.3735001 0.47299999 2
15.3085 3.3675001 0.505 2
15.3095 3.3615 0.51800001 2
15.3095 3.3555 0.55000001 2
15.3085 3.3645 0.51499999 2
15.3195 3.3215001 0.491 2
15.3225 3.3095 0.49599999 2
15.3125 3.3515 0.50300002 2
15.3155 3.3375001 0.51300001 2
15.3145 3.3385 0.52899998 2
15.3165 3.3285 0.56900001 2
15.3145 3.3295 0.60600001 2
15.3115 3.3575001 0.47499999 2
15.3145 3.3375001 0.55000001 2
15.3155 3.3375001 0.49700001 2
15.3105 3.3505001 0.57200003 2
15.3145 3.3315001 0.616 2
15.3065 3.3705001 0.51999998 2
15.3205 3.3195 0.48100001 2
15.3155 3.3375001 0.51200002 2
15.3205 3.3145001 0.50400001 2
15.3205 3.3195 0.495 2
15.3095 3.3585 0.53899997 2
15.3175 3.3264999 0.53100002 2
15.3155 3.3355 0.51700002 2
15.3165 3.3264999 0.56900001 2
15.3105 3.3625 0.48199999 2
15.3145 3.3415 0.51999998 2
15.3155 3.3325 0.55299997 2
15.3165 3.3345001 0.49399999 2
15.3105 3.3585 0.47799999 2
15.3095 3.3594999 0.51300001 2
15.3175 3.3234999 0.55900002 2
15.3215 3.3155 0.491 2
15.3105 3.3555 0.51800001 2
15.3095 3.3585 0.55199999 2
15.3105 3.3505001 0.57599998 2
15.3175 3.3315001 0.486 2
15.3165 3.3325 0.495 2
15.3145 3.3325 0.57200003 2
15.3135 3.3385 0.56300002 2
15.3145 3.3315001 0.60299999 2
15.3125 3.3494999 0.51300001 2
15.3185 3.3225 0.52600002 2
15.3115 3.3464999 0.55500001 2
15.3205 3.3134999 0.514 2
15.3095 3.3625 0.50599998 2
15.3135 3.3415 0.55900002 2
15.3155 3.3355 0.51700002 2
15.3065 3.3775001 0.484 2
15.3145 3.3415 0.509 2
15.3225 3.3104999 0.49200001 2
15.3125 3.3434999 0.56400001 2
15.3095 3.3575001 0.54299998 2
15.3195 3.3234999 0.49000001 2
15.3125 3.3485 0.509 2
15.3235 3.3055 0.484 2
15.3135 3.3494999 0.484 2
15.3105 3.3605001 0.495 2
15.3145 3.3325 0.60600001 2
