# .PCD v0.7 - Point Cloud Data file format
VERSION 0.7
FIELDS x y z label
SIZE 4 4 4 4
TYPE F F F U
COUNT 1 1 1 1
WIDTH 1634
HEIGHT 1
VIEWPOINT 0 0 0 1 0 0 0
POINTS 1634
DATA ascii
17.810499 3.3905001 0.46799999 2
17.9175 3.3945 0.46200001 2
17.8675 3.3694999 0.465 2
17.8825 3.4135001 0.463 2
17.960501 3.3564999 0.461 2
17.8025 3.3575001 0.46900001 2
17.855499 3.4094999 0.465 2
17.806499 3.4284999 0.46700001 2
17.814501 3.4205 0.46700001 2
18.0285 3.3355 0.458 2
17.8335 3.4154999 0.46599999 2
17.8675 3.3965001 0.465 2
17.9515 3.3694999 0.461 2
17.821501 3.4275 0.46599999 2
17.865499 3.3515 0.46599999 2
17.8325 3.3515 0.46799999 2
17.9375 3.3464999 0.46200001 2
17.886499 3.3364999 0.465 2
18.005501 3.3234999 0.46000001 2
18.009501 3.3505001 0.45899999 2
17.8025 3.3655 0.46900001 2
17.821501 3.3575001 0.46799999 2
17.828501 3.4275 0.46599999 2
17.8995 3.3724999 0.46399999 2
17.8955 3.3555 0.46399999 2
17.9555 3.2995 0.45500001 2
18.0145 3.3055 0.45199999 2
18.0555 3.3065 0.44999999 2
18.009501 3.2995 0.45100001 2
17.9515 3.2945001 0.454 2
17.931499 3.2925 0.454 2
18.0455 3.3145001 0.454 2
17.9305 3.3065 0.46000001 2
18.018499 3.2895 0.44600001 2
17.9645 3.2904999 0.45100001 2
17.925501 3.2965 0.456 2
17.966499 3.3045001 0.456 2
18.005501 3.2844999 0.44499999 2
18.039499 3.2804999 0.44100001 2
18.0425 3.2865 0.44299999 2
17.9035 3.2965 0.458 2
17.998501 3.3125 0.45699999 2
17.9065 3.2985001 0.45899999 2
17.8855 3.2974999 0.46000001 2
17.9995 3.2965 0.44999999 2
17.956499 3.2985001 0.45500001 2
17.8745 3.3104999 0.46599999 2
18.0385 3.3204999 0.456 2
17.921499 3.3085001 0.461 2
17.987499 3.3074999 0.456 2
17.890499 3.3074999 0.46399999 2
17.9405 3.3115001 0.461 2
17.9235 3.3055 0.46000001 2
17.9715 3.2974999 0.45300001 2
17.9585 3.3155 0.461 2
17.869499 3.2985001 0.46200001 2
17.967501 3.2965 0.45300001 2
18.0235 3.2885001 0.44499999 2
18.0275 3.2835 0.44299999 2
17.890499 3.3065 0.463 2
17.821501 3.3065 0.46900001 2
17.939501 3.3055 0.45899999 2
18.039499 3.3074999 0.45100001 2
17.9585 3.2925 0.45199999 2
18.0005 3.3004999 0.45199999 2
17.9715 3.3055 0.456 2
17.9825 3.2974999 0.45199999 2
18.046499 3.3185 0.45500001 2
18.046499 3.3125 0.45300001 2
18.061501 3.3175001 0.454 2
17.9575 3.2925 0.45199999 2
18.0035 3.3175001 0.458 2
18.008499 3.2915001 0.44800001 2
17.9695 3.2885001 0.449 2
17.997499 3.3164999 0.458 2
18.0235 3.3145001 0.45500001 2
18.0315 3.3125 0.454 2
17.987499 3.2985001 0.45199999 2
17.946501 3.2965 0.45500001 2
17.9855 3.2865 0.447 2
17.953501 3.3025 0.456 2
17.9035 3.3034999 0.461 2
18.056499 3.2955 0.44499999 2
18.001499 3.2874999 0.447 2
17.998501 3.3034999 0.45300001 2
18.012501 3.3185 0.458 2
17.8745 3.3055 0.46399999 2
17.998501 3.2885001 0.447 2
17.8435 3.3074999 0.46799999 2
17.9785 3.2915001 0.44999999 2
17.9995 3.2904999 0.44800001 2
18.0065 3.2904999 0.447 2
17.928499 3.5625 0.458 2
17.977501 3.4035001 0.45899999 2
18.0285 3.3694999 0.45699999 2
17.953501 3.5815001 0.456 2
17.946501 3.4275 0.46000001 2
17.9725 3.5285001 0.456 2
17.9205 3.4145 0.461 2
17.9125 3.4795001 0.46000001 2
17.9895 3.4085 0.458 2
17.9205 3.4735 0.46000001 2
18.0415 3.3715 0.45699999 2
18.0345 3.4075 0.456 2
18.036501 3.3924999 0.456 2
17.9785 3.4124999 0.45899999 2
18.0555 3.5325 0.45199999 2
18.0495 3.5785 0.45199999 2
17.9515 3.5804999 0.456 2
18.025499 3.5155001 0.454 2
17.9055 3.4224999 0.46200001 2
17.900499 3.4835 0.461 2
17.997499 3.4965 0.456 2
18.0135 3.3694999 0.458 2
18.0145 3.5764999 0.45300001 2
18.054501 3.3594999 0.456 2
17.949499 3.5664999 0.45699999 2
17.870501 3.4465001 0.463 2
17.9405 3.5855 0.45699999 2
18.0235 3.4495001 0.456 2
17.922501 3.4914999 0.46000001 2
17.9835 3.6224999 0.454 2
17.8755 3.4955001 0.46200001 2
17.970501 3.5055001 0.45699999 2
17.9545 3.5845001 0.456 2
17.925501 3.4024999 0.461 2
18.025499 3.5895 0.45199999 2
17.845501 3.4914999 0.463 2
17.9135 3.5385001 0.45899999 2
18.0355 3.4265001 0.456 2
17.8685 3.5005 0.46200001 2
17.9835 3.4944999 0.45699999 2
18.056499 3.4744999 0.454 2
18.008499 3.4254999 0.45699999 2
18.0285 3.4414999 0.456 2
18.009501 3.3965001 0.458 2
18.0495 3.4625001 0.454 2
18.0315 3.4435 0.456 2
17.9135 3.5055001 0.46000001 2
18.056499 3.3775001 0.456 2
18.047501 3.6005001 0.45100001 2
18.0205 3.6385 0.45199999 2
18.0455 3.5545001 0.45199999 2
18.0375 3.5925 0.45199999 2
17.935499 3.4384999 0.46000001 2
17.9025 3.4714999 0.461 2
17.9235 3.4614999 0.46000001 2
17.9855 3.4094999 0.458 2
17.9695 3.4714999 0.458 2
17.9685 3.5434999 0.456 2
17.929501 3.4675 0.46000001 2
18.0495 3.6034999 0.45100001 2
17.925501 3.4695001 0.46000001 2
17.9965 3.6045001 0.45300001 2
17.939501 3.4814999 0.45899999 2
18.0215 3.5945001 0.45300001 2
17.9305 3.4305 0.461 2
18.0275 3.4725001 0.45500001 2
18.0625 3.4284999 0.454 2
18.0105 3.3875 0.458 2
17.9515 3.4665 0.45899999 2
17.921499 3.5525 0.458 2
17.9335 3.4735 0.45899999 2
18.0075 3.4974999 0.45500001 2
17.9685 3.5555 0.456 2
17.988501 3.4825001 0.45699999 2
18.018499 3.4925001 0.45500001 2
17.973499 3.3924999 0.45899999 2
17.9995 3.4465001 0.45699999 2
17.929501 3.4875 0.45899999 2
17.9335 3.4475 0.46000001 2
17.9785 3.4354999 0.458 2
17.9895 3.5704999 0.45500001 2
17.866501 3.4335001 0.46399999 2
17.8755 3.4775 0.46200001 2
17.9335 3.5555 0.458 2
18.026501 3.4974999 0.454 2
18.033501 3.6235001 0.45100001 2
17.9405 3.4145 0.46000001 2
18.019501 3.4295001 0.456 2
17.894501 3.4914999 0.461 2
17.9415 3.5225 0.458 2
17.9035 3.4554999 0.461 2
18.0445 3.5274999 0.45300001 2
18.0135 3.4324999 0.45699999 2
17.9545 3.4855001 0.458 2
17.834499 3.4614999 0.46399999 2
18.040501 3.5715001 0.45199999 2
17.997499 3.4525001 0.45699999 2
18.025499 3.3594999 0.458 2
18.0355 3.4784999 0.45500001 2
17.977501 3.3885 0.45899999 2
18.012501 3.5355 0.454 2
17.959499 3.5335 0.45699999 2
17.977501 3.5274999 0.456 2
17.9695 3.4375 0.45899999 2
17.963499 3.5675001 0.456 2
18.039499 3.3965001 0.456 2
18.0205 3.5295 0.454 2
18.0075 3.5804999 0.454 2
18.0495 3.5755 0.45199999 2
18.0165 3.6045001 0.45300001 2
18.063499 3.3894999 0.45500001 2
17.9865 3.4154999 0.458 2
17.8575 3.4315 0.46399999 2
17.998501 3.4265001 0.45699999 2
18.019501 3.4015 0.45699999 2
17.9855 3.5355 0.456 2
17.9825 3.5474999 0.45500001 2
17.946501 3.4035001 0.46000001 2
18.0215 3.4395001 0.456 2
18.047501 3.4714999 0.454 2
17.9865 3.3935001 0.45899999 2
17.8685 3.4505 0.463 2
18.0455 3.6305001 0.45100001 2
18.0455 3.5615001 0.45199999 2
18.043501 3.6684999 0.44999999 2
18.0495 3.3494999 0.45699999 2
17.9095 3.4865 0.46000001 2
18.0425 3.5555 0.45199999 2
17.9175 3.4835 0.46000001 2
18.0345 3.4795001 0.45500001 2
18.0145 3.5074999 0.45500001 2
17.977501 3.4835 0.45699999 2
18.0235 3.4375 0.456 2
17.998501 3.4965 0.456 2
17.995501 3.5515001 0.45500001 2
17.9265 3.5504999 0.458 2
17.9475 3.4425001 0.46000001 2
18.0425 3.6454999 0.44999999 2
17.8995 3.4655001 0.461 2
17.9725 3.3794999 0.46000001 2
18.0275 3.3805001 0.45699999 2
17.8505 3.4545 0.46399999 2
18.009501 3.4625001 0.456 2
17.939501 3.4085 0.461 2
17.931499 3.5625 0.458 2
17.967501 3.4935 0.45699999 2
17.9095 3.5534999 0.45899999 2
17.9645 3.4784999 0.458 2
18.025499 3.4245 0.456 2
17.960501 3.5035 0.45699999 2
18.002501 3.4224999 0.45699999 2
18.067499 3.3505001 0.456 2
17.995501 3.5255001 0.45500001 2
17.981501 3.3855 0.45899999 2
17.963499 3.5325 0.45699999 2
18.015499 3.5144999 0.45500001 2
18.0595 3.3375001 0.45699999 2
18.0035 3.4974999 0.456 2
18.063499 3.3594999 0.456 2
17.9245 3.5525 0.458 2
17.9235 3.4554999 0.46000001 2
18.043501 3.4054999 0.456 2
17.938499 3.4354999 0.46000001 2
17.990499 3.4635 0.45699999 2
18.019501 3.5925 0.45300001 2
18.0525 3.5325 0.45199999 2
18.0285 3.3954999 0.45699999 2
18.015499 3.5455 0.454 2
18.033501 3.6675 0.44999999 2
17.9335 3.5775001 0.45699999 2
17.9555 3.4365001 0.45899999 2
17.997499 3.4985001 0.456 2
18.0425 3.5604999 0.45199999 2
18.015499 3.6445 0.45199999 2
18.040501 3.4635 0.45500001 2
17.921499 3.4445 0.461 2
18.008499 3.4665 0.456 2
17.9485 3.5125 0.458 2
18.047501 3.6684999 0.44999999 2
18.0065 3.5695 0.454 2
17.9025 3.5074999 0.46000001 2
18.025499 3.4085 0.45699999 2
18.0355 3.4184999 0.456 2
17.8535 3.4605 0.46399999 2
17.921499 3.5485001 0.458 2
18.025499 3.4335001 0.456 2
18.002501 3.5135 0.45500001 2
18.018499 3.5014999 0.45500001 2
18.011499 3.4985001 0.45500001 2
18.0035 3.4554999 0.45699999 2
18.026501 3.4135001 0.456 2
17.967501 3.5485001 0.456 2
18.0215 3.4124999 0.45699999 2
18.0445 3.5685 0.45199999 2
17.8515 3.4995 0.463 2
17.9695 3.5344999 0.456 2
18.0035 3.5785 0.454 2
18.0495 3.3694999 0.456 2
17.9825 3.6185 0.454 2
17.831499 3.4554999 0.465 2
18.046499 3.4755001 0.454 2
17.8545 3.4935 0.463 2
18.0235 3.5715001 0.45300001 2
17.9685 3.5834999 0.45500001 2
17.8605 3.4635 0.463 2
18.0345 3.4965 0.454 2
17.939501 3.5395 0.458 2
17.8645 3.4345 0.46399999 2
17.932501 3.5585001 0.458 2
18.0415 3.4254999 0.45500001 2
18.025499 3.6075001 0.45199999 2
18.0375 3.3815 0.45699999 2
17.939501 3.5775001 0.45699999 2
18.0445 3.5755 0.45199999 2
18.0005 3.5295 0.45500001 2
17.966499 3.6105001 0.45500001 2
17.876499 3.4575 0.463 2
17.9555 3.4245 0.46000001 2
18.0375 3.5815001 0.45199999 2
17.998501 3.5265 0.45500001 2
17.9575 3.4925001 0.458 2
17.852501 3.4784999 0.463 2
18.0005 3.4445 0.45699999 2
18.047501 3.4645 0.454 2
17.8265 3.4505 0.465 2
17.991501 3.4205 0.458 2
17.9105 3.4525001 0.461 2
17.984501 3.5085001 0.456 2
17.977501 3.6045001 0.454 2
17.9485 3.5225 0.458 2
18.039499 3.6594999 0.44999999 2
17.931499 3.4844999 0.45899999 2
18.025499 3.5315001 0.454 2
17.884501 3.4245 0.463 2
18.0065 3.6224999 0.45300001 2
17.980499 3.3885 0.45899999 2
17.9895 3.5775001 0.454 2
18.012501 3.4324999 0.45699999 2
17.953501 3.4844999 0.458 2
17.900499 3.4105 0.46200001 2
18.033501 3.5515001 0.45300001 2
18.032499 3.3945 0.45699999 2
17.9755 3.3755 0.46000001 2
18.0375 3.5764999 0.45199999 2
17.9935 3.6064999 0.454 2
17.9855 3.4905 0.45699999 2
18.039499 3.4514999 0.45500001 2
18.0515 3.4554999 0.454 2
17.988501 3.5495 0.45500001 2
17.929501 3.5114999 0.45899999 2
18.0425 3.5755 0.45199999 2
18.043501 3.3464999 0.45699999 2
17.974501 3.4925001 0.45699999 2
17.9585 3.4505 0.45899999 2
17.8855 3.4254999 0.463 2
18.0035 3.4425001 0.45699999 2
17.9165 3.4165001 0.46200001 2
17.9865 3.4445 0.458 2
18.033501 3.6594999 0.44999999 2
18.043501 3.6224999 0.45100001 2
17.8405 3.4684999 0.46399999 2
17.9275 3.4495001 0.46000001 2
17.988501 3.6294999 0.45300001 2
17.866501 3.4525001 0.463 2
18.0415 3.5225 0.45300001 2
17.9555 3.5404999 0.45699999 2
18.0235 3.3805001 0.45699999 2
17.9965 3.6164999 0.45300001 2
18.025499 3.3935001 0.45699999 2
18.009501 3.5035 0.45500001 2
17.904499 3.4324999 0.46200001 2
17.987499 3.3885 0.45899999 2
17.900499 3.4395001 0.46200001 2
17.915501 3.5385001 0.45899999 2
17.998501 3.4145 0.458 2
18.0135 3.4375 0.456 2
18.0105 3.6075001 0.45300001 2
17.9625 3.5014999 0.45699999 2
17.9205 3.5295 0.45899999 2
18.0235 3.6575 0.45100001 2
17.8925 3.4965 0.461 2
17.8755 3.4885001 0.46200001 2
17.9275 3.4995 0.45899999 2
18.063499 3.3315001 0.45699999 2
17.887501 3.5295 0.46000001 2
18.019501 3.5085001 0.45500001 2
17.991501 3.5295 0.45500001 2
17.907499 3.4635 0.461 2
17.925501 3.5664999 0.458 2
17.9935 3.4995 0.456 2
18.053499 3.5274999 0.45300001 2
18.057501 3.3694999 0.456 2
17.9725 3.5994999 0.45500001 2
18.0135 3.5235 0.45500001 2
17.9445 3.4075 0.46000001 2
18.026501 3.5834999 0.45300001 2
18.001499 3.3794999 0.458 2
17.9095 3.4735 0.461 2
17.862499 3.4925001 0.46200001 2
17.994499 3.4024999 0.458 2
17.9765 3.5825 0.45500001 2
17.9105 3.4974999 0.46000001 2
17.9655 3.5755 0.456 2
18.033501 3.4995 0.454 2
17.866501 3.4375 0.463 2
18.0245 3.4115 0.45699999 2
17.998501 3.4405 0.45699999 2
18.0205 3.4405 0.456 2
18.0105 3.5815001 0.45300001 2
17.981501 3.5255001 0.456 2
18.032499 3.4825001 0.45500001 2
17.9515 3.5565 0.45699999 2
17.862499 3.5085001 0.46200001 2
17.856501 3.4375 0.46399999 2
17.890499 3.4445 0.46200001 2
17.956499 3.4414999 0.45899999 2
18.039499 3.5485001 0.45300001 2
17.936501 3.4905 0.45899999 2
17.935499 3.5355 0.458 2
18.0525 3.4124999 0.45500001 2
17.921499 3.4184999 0.461 2
18.0375 3.3705001 0.45699999 2
18.043501 3.5315001 0.45300001 2
18.0595 3.4484999 0.454 2
18.0005 3.4675 0.456 2
18.0485 3.3985 0.456 2
17.855499 3.4714999 0.463 2
17.866501 3.4875 0.46200001 2
17.973499 3.5065 0.45699999 2
17.9345 3.5095 0.45899999 2
17.963499 3.5335 0.45699999 2
18.0525 3.5515001 0.45199999 2
17.9555 3.4535 0.45899999 2
17.915501 3.5244999 0.45899999 2
18.036501 3.6125 0.45100001 2
17.9305 3.5225 0.458 2
17.8475 3.4454999 0.46399999 2
18.0485 3.6064999 0.45100001 2
17.893499 3.4865 0.461 2
18.019501 3.5855 0.45300001 2
17.984501 3.3724999 0.45899999 2
18.0305 3.5085001 0.454 2
17.8925 3.4354999 0.46200001 2
17.9265 3.5655 0.458 2
18.001499 3.4205 0.45699999 2
17.9445 3.5615001 0.45699999 2
18.0165 3.5525 0.454 2
18.0205 3.5074999 0.45500001 2
18.0075 3.4425001 0.45699999 2
17.8745 3.5105 0.461 2
17.9655 3.4324999 0.45899999 2
17.988501 3.3845 0.45899999 2
17.831499 3.4584999 0.465 2
17.942499 3.4675 0.45899999 2
17.9515 3.4365001 0.45899999 2
17.911501 3.5225 0.45899999 2
17.883499 3.4755001 0.46200001 2
17.990499 3.4054999 0.458 2
18.0135 3.4465001 0.456 2
17.9095 3.4795001 0.46000001 2
18.018499 3.3894999 0.45699999 2
17.8825 3.4775 0.46200001 2
17.9335 3.4165001 0.461 2
17.980499 3.4435 0.458 2
17.9235 3.5504999 0.458 2
18.0105 3.4305 0.45699999 2
17.946501 3.4705 0.45899999 2
18.0495 3.3805001 0.456 2
18.040501 3.5895 0.45199999 2
17.921499 3.4275 0.461 2
18.0495 3.4755001 0.454 2
18.0035 3.3815 0.458 2
17.9615 3.4584999 0.458 2
17.9055 3.4295001 0.46200001 2
17.973499 3.5715001 0.45500001 2
17.9715 3.5144999 0.45699999 2
17.8305 3.4535 0.465 2
18.0375 3.6775 0.44999999 2
18.033501 3.6205001 0.45100001 2
17.966499 3.4775 0.458 2
17.814501 3.4584999 0.465 2
17.936501 3.4605 0.46000001 2
17.935499 3.5585001 0.45699999 2
17.872499 3.4365001 0.463 2
18.046499 3.6585 0.44999999 2
17.877501 3.4605 0.46200001 2
18.0305 3.6654999 0.44999999 2
17.9405 3.5295 0.458 2
17.981501 3.5404999 0.456 2
18.032499 3.6255 0.45100001 2
17.9095 3.4875 0.46000001 2
17.9765 3.4825001 0.45699999 2
17.9725 3.5144999 0.45699999 2
17.9135 3.4554999 0.461 2
17.963499 3.4094999 0.46000001 2
17.994499 3.4405 0.45699999 2
17.9825 3.4024999 0.45899999 2
17.9335 3.4554999 0.46000001 2
18.033501 3.3775001 0.45699999 2
17.952499 3.3945 0.46000001 2
18.064501 3.3304999 0.45699999 2
17.9445 3.4124999 0.46000001 2
18.004499 3.4935 0.456 2
17.8575 3.4345 0.46399999 2
17.952499 3.5695 0.456 2
18.0425 3.4805 0.454 2
17.980499 3.5925 0.454 2
18.033501 3.3965001 0.45699999 2
18.0425 3.5425 0.45300001 2
18.0595 3.4645 0.454 2
18.0315 3.6465001 0.45100001 2
17.939501 3.4814999 0.45899999 2
17.943501 3.4865 0.45899999 2
17.880501 3.4885001 0.46200001 2
18.060499 3.3875 0.45500001 2
17.9305 3.4265001 0.461 2
17.901501 3.4605 0.461 2
17.904499 3.5255001 0.46000001 2
18.0105 3.4955001 0.45500001 2
17.966499 3.4865 0.458 2
18.0385 3.3785 0.45699999 2
17.9405 3.4705 0.45899999 2
17.9765 3.5764999 0.45500001 2
18.001499 3.5925 0.454 2
18.0105 3.3815 0.458 2
17.9135 3.5534999 0.45899999 2
17.9175 3.5274999 0.45899999 2
17.998501 3.6294999 0.45300001 2
17.998501 3.6034999 0.45300001 2
17.960501 3.5975001 0.45500001 2
17.953501 3.4395001 0.45899999 2
18.0105 3.3685 0.458 2
17.997499 3.4805 0.456 2
17.991501 3.5664999 0.45500001 2
17.8265 3.4714999 0.465 2
18.033501 3.4454999 0.45500001 2
18.039499 3.5915 0.45199999 2
18.0345 3.5734999 0.45199999 2
18.0445 3.4725001 0.454 2
17.956499 3.4705 0.458 2
17.967501 3.3985 0.46000001 2
18.0175 3.4135001 0.45699999 2
17.9835 3.5105 0.456 2
18.0075 3.6385 0.45199999 2
18.0595 3.4284999 0.45500001 2
18.0495 3.5445001 0.45199999 2
17.870501 3.4565001 0.463 2
18.0235 3.3724999 0.458 2
18.004499 3.5864999 0.454 2
17.997499 3.5474999 0.45500001 2
18.015499 3.5474999 0.454 2
18.0275 3.6324999 0.45100001 2
17.9825 3.4075 0.45899999 2
18.0355 3.6454999 0.45100001 2
17.9935 3.5664999 0.45500001 2
17.997499 3.4995 0.456 2
18.036501 3.6355 0.45100001 2
17.938499 3.5434999 0.458 2
17.8745 3.5195 0.461 2
18.012501 3.4775 0.456 2
18.0515 3.4195001 0.45500001 2
18.057501 3.6684999 0.44800001 2
18.102501 3.5945001 0.442 2
18.0865 3.6465001 0.447 2
18.0835 3.6615 0.449 2
18.0735 3.5815001 0.43700001 2
18.0595 3.6105001 0.44 2
18.0935 3.6454999 0.44800001 2
18.084499 3.5595 0.435 2
18.064501 3.6275001 0.44299999 2
18.0835 3.6155 0.44299999 2
18.064501 3.5834999 0.43700001 2
18.0725 3.5455 0.433 2
18.085501 3.6594999 0.449 2
18.0945 3.6715 0.45100001 2
18.0825 3.6795001 0.45100001 2
18.077499 3.6505001 0.447 2
18.0975 3.6465001 0.44800001 2
18.120501 3.6665001 0.45300001 2
18.0825 3.6245 0.44400001 2
18.1015 3.6494999 0.449 2
18.084499 3.6294999 0.44499999 2
18.074499 3.5235 0.43000001 2
18.0765 3.6055 0.44100001 2
18.115499 3.6715 0.45300001 2
18.0735 3.6675 0.449 2
18.0795 3.5964999 0.44 2
18.112499 3.6705 0.45300001 2
18.099501 3.6494999 0.449 2
18.068501 3.6745 0.44999999 2
18.088499 3.6435001 0.447 2
18.1045 3.6215 0.44499999 2
18.1175 3.6624999 0.45199999 2
18.0805 3.5664999 0.43599999 2
18.0905 3.5905001 0.44 2
18.0665 3.5934999 0.43799999 2
18.0945 3.6355 0.44600001 2
18.0725 3.5775001 0.43700001 2
18.088499 3.6494999 0.44800001 2
18.091499 3.6765001 0.45199999 2
18.0965 3.5745001 0.43799999 2
18.0765 3.5664999 0.43599999 2
18.0905 3.5595 0.43599999 2
18.0735 3.5185001 0.42899999 2
18.1045 3.5945001 0.442 2
18.105499 3.5945001 0.442 2
18.115499 3.6505001 0.44999999 2
18.0655 3.6554999 0.447 2
18.0865 3.6285 0.44499999 2
18.0945 3.6115 0.44299999 2
18.126499 3.6545 0.45199999 2
18.1175 3.6394999 0.449 2
18.0755 3.6775 0.45100001 2
18.081499 3.6665001 0.44999999 2
18.077499 3.5285001 0.43099999 2
18.0725 3.6305001 0.44400001 2
18.071501 3.6085 0.44100001 2
18.0905 3.6385 0.44600001 2
18.0905 3.6115 0.44299999 2
18.0825 3.6105001 0.442 2
18.0965 3.5595 0.43599999 2
18.098499 3.6145 0.44400001 2
18.113501 3.6194999 0.44600001 2
18.070499 3.6784999 0.44999999 2
18.0795 3.5515001 0.43399999 2
18.0965 3.6015 0.442 2
18.098499 3.6754999 0.45199999 2
18.071501 3.5934999 0.43900001 2
18.0665 3.6115 0.44100001 2
18.1005 3.6695001 0.45100001 2
18.1385 3.6765001 0.456 2
18.068501 3.6055 0.44 2
18.064501 3.6705 0.449 2
18.1255 3.6485 0.45100001 2
18.112499 3.6375 0.44800001 2
18.0805 3.6735001 0.44999999 2
18.116501 3.6364999 0.44800001 2
18.1145 3.6224999 0.44600001 2
18.070499 3.6745 0.44999999 2
18.0805 3.5745001 0.43700001 2
18.0755 3.5725 0.43599999 2
18.068501 3.6545 0.447 2
18.116501 3.6385 0.449 2
18.092501 3.6255 0.44499999 2
18.0495 3.6784999 0.449 2
18.0695 3.5695 0.435 2
18.1105 3.6375 0.44800001 2
18.115499 3.6515 0.44999999 2
18.1015 3.3805001 0.454 2
18.1075 3.4395001 0.44400001 2
18.0945 3.3855 0.45100001 2
18.0835 3.4045 0.44499999 2
18.074499 3.4205 0.44100001 2
18.0905 3.4435 0.44 2
18.0865 3.4235001 0.44299999 2
18.1535 3.4435 0.454 2
18.0805 3.4024999 0.44499999 2
18.1385 3.4184999 0.45500001 2
18.1355 3.4284999 0.45199999 2
18.1105 3.3975 0.45199999 2
18.091499 3.4105 0.44600001 2
18.085501 3.3764999 0.45100001 2
18.116501 3.4465001 0.44499999 2
18.115499 3.4554999 0.44299999 2
18.0825 3.3815 0.449 2
18.127501 3.4375 0.449 2
18.077499 3.4245 0.44100001 2
18.077499 3.3835001 0.44800001 2
18.150499 3.4495001 0.45199999 2
18.078501 3.3455 0.45500001 2
18.1085 3.4284999 0.44600001 2
18.081499 3.3815 0.449 2
18.0895 3.4835 0.433 2
18.136499 3.4395001 0.45100001 2
18.0975 3.3855 0.45199999 2
18.0765 3.3815 0.44800001 2
18.123501 3.4094999 0.45300001 2
18.1465 3.4554999 0.44999999 2
18.0765 3.3635001 0.45100001 2
18.115499 3.3885 0.45500001 2
18.085501 3.4535 0.43700001 2
18.077499 3.4465001 0.43700001 2
18.0835 3.3945 0.447 2
18.0865 3.3555 0.45500001 2
18.1015 3.3685 0.456 2
18.0965 3.4205 0.44499999 2
18.088499 3.4165001 0.44400001 2
18.1415 3.4135001 0.456 2
18.1035 3.3905001 0.45199999 2
18.0945 3.3694999 0.454 2
18.0895 3.4324999 0.442 2
18.1085 3.4684999 0.43900001 2
18.0975 3.4115 0.447 2
18.119499 3.4015 0.454 2
18.098499 3.4414999 0.442 2
18.1255 3.4525001 0.44600001 2
18.140499 3.4085 0.45699999 2
18.0895 3.4625001 0.43599999 2
18.1285 3.4215 0.45199999 2
18.0825 3.4405 0.43900001 2
18.0765 3.4914999 0.428 2
18.1525 3.4335001 0.45500001 2
18.0805 3.3475001 0.45500001 2
18.074499 3.4395001 0.43700001 2
18.1115 3.4665 0.44100001 2
18.0825 3.4075 0.44499999 2
18.1385 3.4384999 0.45100001 2
18.095501 3.4335001 0.44299999 2
18.105499 3.3675001 0.45699999 2
18.0875 3.4215 0.44299999 2
18.0895 3.3994999 0.44800001 2
18.127501 3.3985 0.456 2
18.0865 3.3555 0.45500001 2
18.1045 3.4665 0.43900001 2
18.074499 3.4635 0.433 2
18.1385 3.4365001 0.45100001 2
18.0795 3.4645 0.43399999 2
18.105499 3.4335001 0.44499999 2
18.1075 3.4645 0.44 2
18.0895 3.3564999 0.45500001 2
18.078501 3.4395001 0.43799999 2
18.085501 3.3975 0.447 2
18.077499 3.4075 0.44299999 2
18.0825 3.4955001 0.42899999 2
18.0895 3.4625001 0.43700001 2
18.112499 3.4484999 0.44400001 2
18.1485 3.4205 0.456 2
18.144501 3.4354999 0.45300001 2
18.098499 3.4535 0.44 2
18.129499 3.4195001 0.45300001 2
18.136499 3.4584999 0.447 2
18.0965 3.4024999 0.449 2
18.129499 3.4015 0.456 2
18.1465 3.4495001 0.45100001 2
18.1355 3.4375 0.45100001 2
18.1455 3.6245 0.45500001 2
18.1255 3.5685 0.44600001 2
18.1315 3.5645001 0.44800001 2
18.1315 3.6275001 0.45100001 2
18.134501 3.6064999 0.45100001 2
18.147499 3.6175001 0.456 2
18.127501 3.6245 0.44999999 2
18.120501 3.5815001 0.44499999 2
18.122499 3.5474999 0.44499999 2
18.0865 3.5114999 0.43099999 2
18.1395 3.5675001 0.45100001 2
18.1285 3.5585001 0.447 2
18.129499 3.6465001 0.45100001 2
18.151501 3.6364999 0.458 2
18.122499 3.5875001 0.44600001 2
18.123501 3.6055 0.447 2
18.126499 3.5715001 0.447 2
18.1455 3.6355 0.456 2
18.1185 3.5925 0.44499999 2
18.109501 3.5675001 0.44100001 2
18.161501 3.6085 0.46000001 2
18.129499 3.6224999 0.44999999 2
18.106501 3.5764999 0.44100001 2
18.1415 3.6485 0.45500001 2
18.1415 3.6415 0.45500001 2
18.0875 3.5125 0.43099999 2
18.1325 3.5864999 0.449 2
18.109501 3.5755 0.44100001 2
18.0825 3.5165 0.43000001 2
18.164499 3.6015 0.461 2
18.126499 3.5964999 0.44800001 2
18.1315 3.5634999 0.44800001 2
18.1425 3.6635001 0.456 2
18.120501 3.6245 0.447 2
18.1425 3.6094999 0.454 2
18.1465 3.5855 0.454 2
18.123501 3.5725 0.44600001 2
18.1395 3.5675001 0.45100001 2
18.1625 3.6055 0.46000001 2
18.115499 3.5834999 0.44400001 2
18.1185 3.6135001 0.44600001 2
18.1485 3.6324999 0.45699999 2
18.1565 3.6034999 0.458 2
18.105499 3.5645001 0.44 2
18.136499 3.5675001 0.44999999 2
18.1145 3.5864999 0.44400001 2
18.1415 3.6005001 0.45300001 2
18.133499 3.5885 0.44999999 2
18.1245 3.6115 0.44800001 2
18.144501 3.6405001 0.456 2
18.1485 3.6245 0.456 2
18.1315 3.5925 0.449 2
18.1555 3.6335001 0.45899999 2
18.1285 3.5945001 0.449 2
18.1605 3.5845001 0.45899999 2
18.1015 3.5574999 0.43799999 2
18.091499 3.5255001 0.433 2
18.1465 3.5864999 0.454 2
18.0975 3.7095001 0.44400001 2
18.0945 3.7035 0.44600001 2
18.105499 3.7045 0.44600001 2
18.130501 3.6824999 0.45500001 2
18.137501 3.6824999 0.456 2
18.136499 3.6945 0.45199999 2
18.106501 3.7214999 0.44100001 2
18.126499 3.7084999 0.44600001 2
18.102501 3.6914999 0.45100001 2
18.0725 3.7035 0.44499999 2
18.0875 3.6865001 0.45199999 2
18.119499 3.7035 0.44800001 2
18.071501 3.6854999 0.45100001 2
18.130501 3.7135 0.44499999 2
18.1285 3.7014999 0.449 2
18.112499 3.7105 0.44499999 2
18.0735 3.6914999 0.449 2
18.0975 3.6875 0.45199999 2
18.1075 3.7005 0.44800001 2
18.116501 3.6935 0.45100001 2
18.120501 3.7084999 0.44600001 2
18.092501 3.7105 0.44400001 2
18.122499 3.7255001 0.44 2
18.088499 3.6875 0.45100001 2
18.077499 3.6984999 0.447 2
18.0795 3.7054999 0.44499999 2
18.0965 3.6905 0.45100001 2
18.0965 3.6965001 0.44800001 2
18.0905 3.6965001 0.44800001 2
18.129499 3.7045 0.44800001 2
18.0905 3.6875 0.45100001 2
18.0585 3.2825 0.44100001 2
18.068501 3.2915001 0.44600001 2
18.127501 3.2945001 0.458 2
18.1425 3.3134999 0.46799999 2
18.122499 3.3204999 0.46700001 2
18.161501 3.3065 0.46900001 2
18.1465 3.3525 0.48199999 2
18.1675 3.2865 0.463 2
18.113501 3.3104999 0.461 2
18.1555 3.3245001 0.47400001 2
18.1255 3.3055 0.46200001 2
18.1385 3.3065 0.465 2
18.113501 3.2885001 0.45300001 2
18.157499 3.3375001 0.479 2
18.161501 3.3155 0.472 2
18.1045 3.3125 0.46000001 2
18.1675 3.3004999 0.46799999 2
18.158501 3.3004999 0.46599999 2
18.1565 3.3255 0.47499999 2
18.154499 3.3534999 0.484 2
18.136499 3.3025 0.463 2
18.130501 3.3245001 0.47 2
18.151501 3.3134999 0.47 2
18.168501 3.3004999 0.46799999 2
18.1525 3.2844999 0.46000001 2
18.120501 3.3285 0.46900001 2
18.1395 3.3385 0.47600001 2
18.1245 3.2934999 0.458 2
18.1325 3.3125 0.46599999 2
18.1605 3.2904999 0.463 2
18.1185 3.3125 0.463 2
18.068501 3.2885001 0.44499999 2
18.077499 3.2925 0.44800001 2
18.092501 3.3095 0.45699999 2
18.140499 3.3364999 0.47600001 2
18.0935 3.2895 0.44999999 2
18.0875 3.3045001 0.454 2
18.120501 3.3145001 0.46399999 2
18.1105 3.2945001 0.45500001 2
18.1485 3.3034999 0.46599999 2
18.137501 3.3355 0.47499999 2
18.144501 3.3464999 0.47999999 2
18.140499 3.3434999 0.47799999 2
18.1595 3.3334999 0.47799999 2
18.1485 3.2974999 0.463 2
18.112499 3.3145001 0.463 2
18.1105 3.3185 0.46399999 2
18.1395 3.3055 0.465 2
18.1465 3.3345001 0.47600001 2
18.1215 3.3145001 0.46399999 2
18.077499 3.2915001 0.44800001 2
18.057501 3.2865 0.442 2
18.1085 3.3395 0.46900001 2
18.1035 3.3255 0.46399999 2
18.0725 3.3125 0.45300001 2
18.109501 3.3325 0.46799999 2
18.0655 3.3025 0.44800001 2
18.061501 3.2915001 0.44400001 2
18.1395 3.3525 0.48100001 2
18.0905 3.3345001 0.46399999 2
18.0665 3.3164999 0.45300001 2
18.1085 3.3345001 0.46799999 2
18.126499 3.3425 0.47499999 2
18.064501 3.2974999 0.447 2
18.0695 3.3245001 0.456 2
18.1075 3.3234999 0.465 2
18.067499 3.3145001 0.45199999 2
18.064501 3.2904999 0.44499999 2
18.0735 3.3055 0.45100001 2
18.1485 3.3945 0.46799999 2
18.1385 3.4045 0.458 2
18.143499 3.3845 0.47 2
18.112499 3.3575001 0.465 2
18.0725 3.3285 0.45699999 2
18.1535 3.3835001 0.47600001 2
18.1595 3.3985 0.472 2
18.154499 3.4124999 0.463 2
18.158501 3.4105 0.46599999 2
18.098499 3.3475001 0.46200001 2
18.1315 3.3805001 0.465 2
18.137501 3.3855 0.46599999 2
18.1215 3.3815 0.45899999 2
18.123501 3.3735001 0.46399999 2
18.109501 3.3615 0.46200001 2
18.1355 3.3905001 0.46200001 2
18.158501 3.3885 0.47600001 2
18.123501 3.3694999 0.46599999 2
18.133499 3.3755 0.46799999 2
18.105499 3.3485 0.46599999 2
18.1415 3.3645 0.47799999 2
18.1465 3.3985 0.465 2
18.1185 3.3475001 0.47299999 2
18.1535 3.3875 0.47299999 2
18.1315 3.3815 0.46399999 2
18.130501 3.3845 0.46200001 2
18.1325 3.3694999 0.47099999 2
18.126499 3.3555 0.47400001 2
18.157499 3.3664999 0.486 2
18.129499 3.3724999 0.46799999 2
18.109501 3.3485 0.46799999 2
18.144501 3.3905001 0.46700001 2
18.1115 3.3594999 0.463 2
18.0975 3.3464999 0.46200001 2
18.137501 3.3705001 0.47299999 2
18.1635 3.4135001 0.46700001 2
18.157499 3.4005001 0.46900001 2
18.0975 3.3385 0.46599999 2
18.1315 3.3675001 0.47099999 2
18.099501 3.3585 0.45699999 2
18.120501 3.6394999 0.62599999 2
18.1175 3.6835001 0.64200002 2
18.1185 3.6745 0.634 2
18.120501 3.6535001 0.625 2
18.1185 3.6715 0.63700002 2
18.122499 3.6285 0.616 2
18.1215 3.6454999 0.616 2
18.119499 3.6594999 0.634 2
18.119499 3.6565001 0.63499999 2
18.1285 3.7155001 0.69099998 2
18.134501 3.6935 0.69800001 2
18.1215 3.6925001 0.662 2
18.1175 3.7035 0.65399998 2
18.120501 3.7244999 0.67400002 2
18.1185 3.7105 0.662 2
18.115499 3.7084999 0.64999998 2
18.1325 3.7054999 0.69800001 2
18.1215 3.7284999 0.67900002 2
18.116501 3.7355001 0.66799998 2
18.115499 3.7155001 0.65399998 2
18.115499 3.7205 0.65799999 2
18.1115 3.7305 0.65100002 2
18.1215 3.7105 0.66900003 2
18.123501 3.7125001 0.676 2
18.1315 3.7054999 0.69599998 2
18.1245 3.7184999 0.68099999 2
18.120501 3.7145 0.66900003 2
18.116501 3.7235 0.662 2
18.1175 3.7314999 0.66900003 2
18.122499 3.6925001 0.66299999 2
18.133499 3.6925001 0.69400001 2
18.126499 3.7145 0.68599999 2
18.123501 3.6975 0.667 2
18.127501 3.7045 0.68199998 2
18.1285 3.7145 0.69099998 2
18.1245 3.7175 0.68199998 2
18.116501 3.7244999 0.66299999 2
18.1325 3.6965001 0.69300002 2
18.1625 3.2934999 0.583 2
18.1555 3.3204999 0.60500002 2
18.164499 3.2804999 0.58600003 2
18.158501 3.3125 0.59100002 2
18.158501 3.2895 0.616 2
18.158501 3.3104999 0.59500003 2
18.158501 3.3125 0.59299999 2
18.1605 3.2904999 0.597 2
18.1625 3.2605 0.61400002 2
18.157499 3.3025 0.61000001 2
18.161501 3.2865 0.59799999 2
18.1605 3.2874999 0.60399997 2
18.1555 3.3115001 0.61199999 2
18.165501 3.2695 0.58999997 2
18.157499 3.2934999 0.61299998 2
18.158501 3.2955 0.60799998 2
18.1605 3.2704999 0.61799997 2
18.1635 3.2665 0.60399997 2
18.161501 3.3085001 0.57700002 2
18.164499 3.2855 0.57999998 2
18.164499 3.2815001 0.58200002 2
18.158501 3.2995 0.60500002 2
18.1605 3.2704999 0.61699998 2
18.1555 3.3125 0.61500001 2
18.1635 3.2505 0.61900002 2
18.1555 3.3134999 0.61299998 2
18.1625 3.2815001 0.597 2
18.1605 3.2785001 0.61299998 2
18.1635 3.2465 0.62 2
18.1635 3.2815001 0.62099999 2
18.157499 3.3264999 0.61699998 2
18.1565 3.3175001 0.616 2
18.1535 3.3325 0.61400002 2
18.164499 3.2985001 0.62199998 2
18.1845 3.2874999 0.63599998 2
18.175501 3.2665 0.63 2
18.157499 3.3004999 0.61699998 2
18.186501 3.2915001 0.63800001 2
18.1665 3.2674999 0.62300003 2
18.172501 3.2755001 0.62800002 2
18.186501 3.3095 0.63800001 2
18.171499 3.2744999 0.62699997 2
18.189501 3.3145001 0.63999999 2
18.1695 3.3085001 0.62599999 2
18.1625 3.3074999 0.62 2
18.161501 3.3085001 0.62 2
18.1665 3.2774999 0.62300003 2
18.171499 3.2974999 0.62699997 2
18.157499 3.3215001 0.61699998 2
18.189501 3.3034999 0.63999999 2
18.1905 3.3055 0.64099997 2
18.154499 3.3234999 0.61500001 2
18.189501 3.2995 0.63999999 2
18.1535 3.3304999 0.58099997 2
18.1555 3.3245001 0.56400001 2
18.143499 3.3534999 0.55800003 2
18.1425 3.3575001 0.56199998 2
18.1555 3.3264999 0.597 2
18.161501 3.3074999 0.55599999 2
18.1525 3.3315001 0.58399999 2
18.150499 3.3355 0.55900002 2
18.1535 3.3315001 0.60399997 2
18.1605 3.3115001 0.56 2
18.140499 3.3594999 0.55500001 2
18.144501 3.3515 0.56800002 2
18.150499 3.3385 0.59600002 2
18.1555 3.3245001 0.59200001 2
18.1525 3.3315001 0.55800003 2
18.1535 3.3304999 0.57700002 2
18.1495 3.3385 0.56800002 2
18.1535 3.3315001 0.59600002 2
18.1605 3.3115001 0.565 2
18.1465 3.3485 0.58600003 2
18.143499 3.3555 0.57099998 2
18.1525 3.3325 0.57499999 2
18.1415 3.3724999 0.56199998 2
18.1415 3.3855 0.56300002 2
18.1485 3.4265001 0.58399999 2
18.1465 3.4655001 0.56800002 2
18.1455 3.4484999 0.56699997 2
18.147499 3.4045 0.58200002 2
18.1485 3.4175 0.58600003 2
18.143499 3.3575001 0.57499999 2
18.143499 3.3755 0.57200003 2
18.140499 3.3735001 0.55800003 2
18.1465 3.4584999 0.57200003 2
18.144501 3.4224999 0.56900001 2
18.1495 3.5014999 0.57700002 2
18.150499 3.4725001 0.583 2
18.144501 3.4024999 0.57099998 2
18.1495 3.5135 0.574 2
18.1485 3.4124999 0.58600003 2
18.1485 3.3645 0.59200001 2
18.151501 3.3425 0.60699999 2
18.1425 3.4085 0.56300002 2
18.1485 3.4105 0.58700001 2
18.1455 3.4425001 0.56999999 2
18.150499 3.3675001 0.602 2
18.1495 3.4054999 0.58899999 2
18.150499 3.4445 0.58899999 2
18.1425 3.3605001 0.56900001 2
18.1495 3.3885 0.59399998 2
18.1425 3.3625 0.56800002 2
18.143499 3.3594999 0.574 2
18.1495 3.4525001 0.58399999 2
18.1465 3.4375 0.57300001 2
18.150499 3.4365001 0.59100002 2
18.144501 3.4345 0.565 2
18.144501 3.3615 0.57599998 2
18.147499 3.3775001 0.58499998 2
18.1465 3.3954999 0.57800001 2
18.144501 3.3635001 0.57499999 2
18.1495 3.4805 0.57700002 2
18.1485 3.4435 0.58099997 2
18.1495 3.3555 0.597 2
18.1495 3.4755001 0.57800001 2
18.1465 3.4375 0.57300001 2
18.147499 3.4115 0.58099997 2
18.1455 3.4124999 0.57099998 2
18.1485 3.5025001 0.57300001 2
18.1425 3.3745 0.56800002 2
18.1455 3.3975 0.57700002 2
18.147499 3.4375 0.57599998 2
18.143499 3.3835001 0.57099998 2
18.144501 3.3564999 0.579 2
18.143499 3.3655 0.574 2
18.1495 3.4575 0.58399999 2
18.143499 3.4275 0.54500002 2
18.1485 3.5014999 0.56099999 2
18.1495 3.5095 0.56999999 2
18.1455 3.4495001 0.54299998 2
18.1415 3.3965001 0.54400003 2
18.1495 3.5144999 0.57099998 2
18.143499 3.4295001 0.53899997 2
18.1455 3.4554999 0.55699998 2
18.1455 3.4454999 0.528 2
18.143499 3.4205 0.54699999 2
18.1465 3.4744999 0.551 2
18.1465 3.4695001 0.54500002 2
18.144501 3.4384999 0.53899997 2
18.1425 3.4094999 0.55800003 2
18.144501 3.4375 0.55599999 2
18.147499 3.4795001 0.54799998 2
18.1455 3.4505 0.52499998 2
18.147499 3.4835 0.56199998 2
18.147499 3.4895 0.56699997 2
18.143499 3.4205 0.54799998 2
18.143499 3.4224999 0.54000002 2
18.1465 3.4614999 0.55500001 2
18.1395 3.3764999 0.55400002 2
18.1495 3.5095 0.56900001 2
18.147499 3.4865 0.56400001 2
18.1455 3.4514999 0.53500003 2
18.1465 3.4705 0.55500001 2
18.143499 3.4254999 0.54100001 2
18.1495 3.5044999 0.56199998 2
18.144501 3.4395001 0.53600001 2
18.1495 3.5055001 0.56800002 2
18.1455 3.4495001 0.52899998 2
18.147499 3.4855001 0.56999999 2
18.137501 3.4805 0.447 2
18.1145 3.4985001 0.44 2
18.1425 3.4725001 0.449 2
18.129499 3.4744999 0.44400001 2
18.140499 3.5014999 0.449 2
18.168501 3.4855001 0.45699999 2
18.1625 3.4725001 0.45500001 2
18.172501 3.4825001 0.45899999 2
18.171499 3.4765 0.458 2
18.147499 3.4645 0.44999999 2
18.1145 3.4914999 0.43900001 2
18.182501 3.4775 0.46200001 2
18.1625 3.4775 0.45500001 2
18.1005 3.4925001 0.435 2
18.1325 3.4905 0.44600001 2
18.1385 3.4665 0.447 2
18.151501 3.4775 0.45199999 2
18.1145 3.4925001 0.44 2
18.136499 3.5014999 0.447 2
18.179501 3.4725001 0.461 2
18.1425 3.4705 0.44800001 2
18.1355 3.4885001 0.447 2
18.1285 3.4805 0.44400001 2
18.147499 3.4935 0.45100001 2
18.1315 3.4885001 0.44499999 2
18.1565 3.4914999 0.454 2
18.1465 3.4895 0.44999999 2
18.1425 3.4985001 0.449 2
18.1395 3.4895 0.44800001 2
18.158501 3.4865 0.454 2
18.1415 3.4684999 0.44800001 2
18.0795 3.4995 0.428 2
18.1735 3.4855001 0.45899999 2
18.182501 3.4825001 0.46200001 2
18.179501 3.4855001 0.461 2
18.1705 3.4665 0.458 2
18.143499 3.4844999 0.449 2
18.123501 3.4895 0.442 2
18.1605 3.4124999 0.64200002 2
18.185499 3.5065 0.69599998 2
18.1635 3.4024999 0.64399999 2
18.1745 3.4885001 0.67799997 2
18.172501 3.4835 0.67400002 2
18.1915 3.5185001 0.70700002 2
18.179501 3.4985001 0.68699998 2
18.1665 3.4565001 0.65899998 2
18.164499 3.4154999 0.648 2
18.172501 3.4395001 0.66500002 2
18.171499 3.5295 0.68300003 2
18.179501 3.4315 0.67199999 2
18.1775 3.5404999 0.69300002 2
18.1735 3.4094999 0.65899998 2
18.1775 3.4935 0.68300003 2
18.171499 3.5295 0.68300003 2
18.165501 3.3885 0.64300001 2
18.164499 3.4145 0.648 2
18.1745 3.5315001 0.68699998 2
18.1675 3.4744999 0.66500002 2
18.171499 3.4775 0.67199999 2
18.188499 3.5265 0.70499998 2
18.172501 3.5055001 0.67900002 2
18.168501 3.4435 0.66000003 2
18.175501 3.5404999 0.69099998 2
18.1765 3.4395001 0.66900003 2
18.1745 3.5474999 0.69099998 2
18.1705 3.4015 0.653 2
18.1665 3.4495001 0.65799999 2
18.1905 3.5185001 0.70700002 2
18.1905 3.4635 0.69400001 2
18.193501 3.4625001 0.69700003 2
18.1775 3.4295001 0.66900003 2
18.1945 3.4705 0.70099998 2
18.181499 3.4525001 0.67900002 2
18.188499 3.4735 0.69300002 2
18.181499 3.5215001 0.69499999 2
18.158501 3.3915 0.63499999 2
18.179501 3.4684999 0.68099999 2
18.1675 3.4015 0.64899999 2
18.165501 3.4735 0.662 2
18.165501 3.4115 0.64899999 2
18.186501 3.5055001 0.69800001 2
18.1905 3.4784999 0.69599998 2
18.1765 3.5525 0.69499999 2
18.171499 3.3994999 0.65399998 2
18.1745 3.5244999 0.68599999 2
18.182501 3.4605 0.68199998 2
18.196501 3.4584999 0.70099998 2
18.1705 3.4875 0.67199999 2
18.168501 3.3924999 0.648 2
18.165501 3.4365001 0.653 2
18.165501 3.4505 0.65700001 2
18.1605 3.3735001 0.63300002 2
18.1735 3.4154999 0.66000003 2
18.192499 3.4965 0.704 2
18.1835 3.4735 0.68699998 2
18.1905 3.4505 0.69 2
18.189501 3.4435 0.68699998 2
18.1775 3.5114999 0.68599999 2
18.185499 3.4914999 0.69300002 2
18.1735 3.5465 0.68900001 2
18.172501 3.4115 0.65799999 2
18.164499 3.4195001 0.64899999 2
18.1805 3.5455 0.69800001 2
18.192499 3.4595001 0.69499999 2
18.172501 3.4755001 0.67199999 2
18.1735 3.3924999 0.65399998 2
18.2005 3.4695001 0.708 2
18.1765 3.4484999 0.671 2
18.1735 3.5504999 0.69 2
18.171499 3.4005001 0.65399998 2
18.1745 3.5125 0.68400002 2
18.189501 3.5044999 0.70099998 2
18.189501 3.4435 0.68699998 2
18.1845 3.5434999 0.704 2
18.1735 3.4855001 0.676 2
18.1775 3.4875 0.68199998 2
18.161501 3.4265001 0.64600003 2
18.1675 3.5095 0.66900003 2
18.1535 3.3794999 0.61500001 2
18.154499 3.4425001 0.61000001 2
18.1535 3.4054999 0.61000001 2
18.1565 3.4605 0.61699998 2
18.158501 3.4054999 0.63700002 2
18.1565 3.4684999 0.61799997 2
18.1605 3.4545 0.63999999 2
18.1635 3.5065 0.64499998 2
18.1625 3.5474999 0.63499999 2
18.172501 3.5595 0.685 2
18.157499 3.4414999 0.62300003 2
18.164499 3.5235 0.648 2
18.1665 3.5174999 0.662 2
18.165501 3.4955001 0.66100001 2
18.1555 3.4705 0.61199999 2
18.1535 3.4605 0.60299999 2
18.161501 3.4475 0.64700001 2
18.1565 3.5274999 0.61000001 2
18.158501 3.4625001 0.62699997 2
18.1535 3.4885001 0.59500003 2
18.1625 3.4925001 0.64600003 2
18.172501 3.5485001 0.68699998 2
18.1565 3.4505 0.61799997 2
18.1525 3.4525001 0.59500003 2
18.1565 3.3924999 0.62699997 2
18.158501 3.5365 0.616 2
18.158501 3.5195 0.62199998 2
18.157499 3.5315001 0.61400002 2
18.1525 3.4265001 0.602 2
18.1565 3.5035 0.61000001 2
18.1535 3.4324999 0.60500002 2
18.157499 3.3885 0.63200003 2
18.1605 3.4855001 0.63499999 2
18.151501 3.4035001 0.60000002 2
18.154499 3.3954999 0.61500001 2
18.1525 3.5035 0.58999997 2
18.1635 3.4995 0.65100002 2
18.1675 3.5144999 0.667 2
18.157499 3.4015 0.62900001 2
18.1565 3.5185001 0.611 2
18.1635 3.4695001 0.65499997 2
18.154499 3.5274999 0.59799999 2
18.164499 3.4655001 0.65899998 2
18.1625 3.4955001 0.64399999 2
18.164499 3.5415001 0.64999998 2
18.1735 3.5755 0.69199997 2
18.154499 3.3685 0.62099999 2
18.154499 3.4354999 0.60799998 2
18.158501 3.4645 0.62599999 2
18.1535 3.3954999 0.61000001 2
18.1535 3.4384999 0.60699999 2
18.1625 3.5285001 0.639 2
18.154499 3.3835001 0.616 2
18.154499 3.3735001 0.61799997 2
18.158501 3.4765 0.62599999 2
18.154499 3.4115 0.616 2
18.1535 3.3794999 0.61500001 2
18.1605 3.5074999 0.634 2
18.151501 3.4795001 0.58899999 2
18.150499 3.5044999 0.58099997 2
18.1565 3.4995 0.61299998 2
18.154499 3.5274999 0.59500003 2
18.1595 3.4885001 0.63099998 2
18.1605 3.4505 0.63800001 2
18.1625 3.5144999 0.64300001 2
18.158501 3.5125 0.62099999 2
18.1595 3.4405 0.63800001 2
18.151501 3.4655001 0.59200001 2
18.1595 3.4405 0.63599998 2
18.1595 3.5144999 0.62599999 2
18.161501 3.5335 0.634 2
18.154499 3.5025001 0.59899998 2
18.1695 3.5574999 0.671 2
18.1635 3.4595001 0.65399998 2
18.1595 3.4224999 0.63700002 2
18.165501 3.4974999 0.65899998 2
18.1525 3.3635001 0.60900003 2
18.1595 3.4675 0.63300002 2
18.1555 3.4755001 0.61000001 2
18.158501 3.4384999 0.63300002 2
18.154499 3.3745 0.61900002 2
18.1735 3.5675001 0.68900001 2
18.1535 3.4795001 0.597 2
18.1525 3.4965 0.59299999 2
18.1625 3.4765 0.64899999 2
18.157499 3.4425001 0.62300003 2
18.1535 3.3824999 0.61299998 2
18.1705 3.5325 0.68000001 2
18.1745 3.5725 0.69400001 2
18.1675 3.5615001 0.66100001 2
18.161501 3.4425001 0.64600003 2
18.165501 3.5365 0.65600002 2
18.1605 3.5155001 0.63300002 2
18.1595 3.4254999 0.639 2
18.1695 3.5595 0.67000002 2
18.157499 3.5285001 0.61299998 2
18.1525 3.3395 0.61299998 2
18.1565 3.5385001 0.60600001 2
18.151501 3.4475 0.59299999 2
18.150499 3.4895 0.583 2
18.1675 3.5574999 0.66100001 2
18.1525 3.4445 0.59600002 2
18.1665 3.5165 0.66100001 2
18.1565 3.4684999 0.61799997 2
18.158501 3.4324999 0.634 2
18.154499 3.3694999 0.61799997 2
18.1595 3.5434999 0.62400001 2
18.151501 3.4224999 0.59899998 2
18.1535 3.4275 0.60500002 2
18.1665 3.5545001 0.65399998 2
18.1635 3.5225 0.64600003 2
18.1555 3.4354999 0.61500001 2
18.1745 3.5755 0.69800001 2
18.164499 3.5335 0.64999998 2
18.172501 3.5734999 0.685 2
18.1595 3.5025001 0.62699997 2
18.1535 3.3605001 0.61799997 2
18.1565 3.4995 0.61000001 2
18.157499 3.5044999 0.616 2
18.1595 3.4744999 0.63099998 2
18.1595 3.4575 0.63200003 2
18.1535 3.3764999 0.61299998 2
18.1555 3.4335001 0.616 2
18.1665 3.4995 0.66399997 2
18.157499 3.5005 0.61500001 2
18.1535 3.5144999 0.59200001 2
18.1525 3.5085001 0.58999997 2
18.1595 3.4595001 0.63499999 2
18.1525 3.3664999 0.60900003 2
18.1705 3.5515001 0.676 2
18.1325 3.5085001 0.44600001 2
18.1845 3.5225 0.46399999 2
18.1085 3.5105 0.43799999 2
18.1665 3.5105 0.458 2
18.122499 3.5355 0.44400001 2
18.175501 3.5695 0.463 2
18.178499 3.5315001 0.46200001 2
18.1665 3.5495 0.45899999 2
18.179501 3.5504999 0.463 2
18.1775 3.5185001 0.46200001 2
18.1705 3.5825 0.46200001 2
18.175501 3.5615001 0.463 2
18.1745 3.5425 0.46200001 2
18.168501 3.5265 0.45899999 2
18.1015 3.5225 0.43599999 2
18.1555 3.5344999 0.45500001 2
18.122499 3.5395 0.44400001 2
18.1075 3.5174999 0.43799999 2
18.1285 3.5065 0.44499999 2
18.119499 3.5195 0.442 2
18.119499 3.5374999 0.44299999 2
18.1555 3.5615001 0.456 2
18.168501 3.5825 0.461 2
18.158501 3.5114999 0.45500001 2
18.1565 3.5404999 0.45500001 2
18.1385 3.5144999 0.44800001 2
18.136499 3.5105 0.44800001 2
18.1315 3.5185001 0.44600001 2
18.1835 3.5335 0.46399999 2
18.168501 3.5734999 0.461 2
18.172501 3.5155001 0.46000001 2
18.150499 3.5335 0.45300001 2
18.157499 3.5504999 0.456 2
18.186501 3.5295 0.465 2
18.168501 3.5255001 0.45899999 2
18.123501 3.5165 0.44400001 2
18.1705 3.5204999 0.45899999 2
18.185499 3.5215001 0.46399999 2
18.143499 3.5065 0.44999999 2
18.120501 3.5014999 0.442 2
18.151501 3.5344999 0.45300001 2
18.1695 3.5415001 0.46000001 2
18.171499 3.5845001 0.46200001 2
18.1395 3.5325 0.449 2
18.179501 3.5445001 0.463 2
18.1625 3.5474999 0.458 2
18.185499 3.5315001 0.465 2
18.185499 3.5095 0.46399999 2
18.1775 3.5204999 0.46200001 2
18.1665 3.5055001 0.45699999 2
18.1765 3.5265 0.46200001 2
18.113501 3.5155001 0.44 2
18.1495 3.5215001 0.45199999 2
18.1555 3.5545001 0.456 2
18.1565 3.5485001 0.456 2
18.1395 3.5525 0.44999999 2
18.154499 3.5585001 0.62900001 2
18.168501 3.5775001 0.68000001 2
18.144501 3.5615001 0.61400002 2
18.133499 3.5745001 0.60799998 2
18.147499 3.5675001 0.62699997 2
18.1625 3.5675001 0.65600002 2
18.1465 3.5825 0.64399999 2
18.1355 3.5715001 0.60900003 2
18.157499 3.5465 0.61799997 2
18.1555 3.5595 0.63200003 2
18.134501 3.5825 0.62099999 2
18.137501 3.5845001 0.62900001 2
18.1625 3.5795 0.67199999 2
18.1415 3.5825 0.634 2
18.171499 3.5755 0.68400002 2
18.140499 3.5755 0.62199998 2
18.1495 3.5645001 0.62699997 2
18.137501 3.5855 0.63 2
18.1635 3.5545001 0.63999999 2
18.1635 3.5685 0.65899998 2
18.1395 3.5825 0.63 2
18.154499 3.5734999 0.64899999 2
18.1495 3.5404999 0.59500003 2
18.1325 3.5755 0.60900003 2
18.157499 3.5434999 0.61500001 2
18.1355 3.5864999 0.62800002 2
18.134501 3.5734999 0.60900003 2
18.1455 3.5685 0.62400001 2
18.1665 3.5825 0.68400002 2
18.1495 3.5634999 0.625 2
18.1565 3.5574999 0.63 2
18.1495 3.5604999 0.62099999 2
18.150499 3.5474999 0.60699999 2
18.165501 3.5695 0.66299999 2
18.1665 3.5675001 0.66399997 2
18.143499 3.5864999 0.64300001 2
18.144501 3.5664999 0.62 2
18.1635 3.5634999 0.653 2
18.130501 3.5885 0.62 2
18.1485 3.5875001 0.65499997 2
18.1485 3.5655 0.62599999 2
18.1415 3.5734999 0.62300003 2
18.1385 3.6315 0.65700001 2
18.143499 3.5975001 0.65100002 2
18.1425 3.6075001 0.65499997 2
18.137501 3.6324999 0.65700001 2
18.136499 3.6115 0.64499998 2
18.137501 3.6145 0.648 2
18.1415 3.6075001 0.65200001 2
18.150499 3.6194999 0.67299998 2
18.1565 3.6115 0.68000001 2
18.1355 3.5925 0.63499999 2
18.133499 3.6364999 0.65100002 2
18.126499 3.6135001 0.63 2
18.129499 3.5985 0.62699997 2
18.1355 3.6164999 0.64499998 2
18.1595 3.6005001 0.68099999 2
18.1495 3.5925 0.65899998 2
18.1255 3.6205001 0.63099998 2
18.1245 3.6045001 0.62099999 2
18.122499 3.6485 0.63700002 2
18.127501 3.6695001 0.65399998 2
18.126499 3.6155 0.62900001 2
18.1465 3.6245 0.66900003 2
18.1255 3.6294999 0.63499999 2
18.143499 3.6045001 0.65399998 2
18.126499 3.6175001 0.63099998 2
18.1325 3.6375 0.64999998 2
18.126499 3.6465001 0.64300001 2
18.1465 3.6275001 0.67000002 2
18.143499 3.6155 0.66000003 2
18.134501 3.6324999 0.65100002 2
18.130501 3.6385 0.64600003 2
18.1455 3.5975001 0.65399998 2
18.1255 3.6324999 0.63499999 2
18.143499 3.6175001 0.66100001 2
18.158501 3.6085 0.68199998 2
18.1385 3.6364999 0.66000003 2
18.120501 3.6784999 0.64700001 2
18.130501 3.6064999 0.63300002 2
18.1665 3.5955 0.69 2
18.1395 3.5945001 0.64399999 2
18.1595 3.5934999 0.676 2
18.1385 3.6175001 0.65100002 2
18.1355 3.6164999 0.64499998 2
18.119499 3.6565001 0.63499999 2
18.1535 3.5905001 0.66600001 2
18.1625 3.5885 0.68000001 2
18.140499 3.6255 0.65799999 2
18.140499 3.6264999 0.65899998 2
18.137501 3.6875 0.70200002 2
18.137501 3.6615 0.676 2
18.1255 3.6795001 0.66000003 2
18.165501 3.6125 0.70499998 2
18.144501 3.6675 0.70099998 2
18.1415 3.6505001 0.67500001 2
18.1555 3.6485 0.713 2
18.1415 3.6445 0.67000002 2
18.1455 3.6615 0.699 2
18.140499 3.6524999 0.67400002 2
18.1525 3.6605 0.71600002 2
18.1425 3.6824999 0.71100003 2
18.144501 3.6765001 0.71100003 2
18.143499 3.6754999 0.70599997 2
18.1315 3.6824999 0.67900002 2
18.143499 3.6795001 0.70999998 2
18.1355 3.6715 0.67900002 2
18.136499 3.6635001 0.67500001 2
18.144501 3.6845 0.71899998 2
18.1425 3.6505001 0.68000001 2
18.119499 3.6875 0.65100002 2
18.158501 3.6255 0.69800001 2
18.1465 3.6865001 0.72600001 2
18.154499 3.6235001 0.68400002 2
18.1395 3.6684999 0.68800002 2
18.1385 3.6594999 0.676 2
18.1555 3.6445 0.70999998 2
18.137501 3.6535001 0.66600001 2
18.143499 3.6405001 0.67199999 2
18.1555 3.6375 0.69999999 2
18.1665 3.6064999 0.70099998 2
18.1325 3.6795001 0.68000001 2
18.1665 3.6094999 0.70200002 2
18.158501 3.6205001 0.69400001 2
18.1625 3.6115 0.69499999 2
18.147499 3.6545 0.69499999 2
18.157499 3.6294999 0.699 2
18.1485 3.6385 0.68199998 2
18.161501 3.6175001 0.69700003 2
18.151501 3.6454999 0.69800001 2
18.1675 3.5975001 0.69300002 2
18.1415 3.6745 0.69999999 2
18.161501 3.6264999 0.70599997 2
18.171499 3.5925 0.70099998 2
18.144501 3.6475 0.68199998 2
18.1495 3.6724999 0.72100002 2
18.134501 3.6665001 0.671 2
18.1625 3.6064999 0.69 2
18.133499 3.6854999 0.68800002 2
18.1415 3.6475 0.671 2
18.1485 3.7284999 0.44 2
18.164499 3.7255001 0.442 2
18.1555 3.7054999 0.44800001 2
18.144501 3.7284999 0.44 2
18.147499 3.7365 0.43799999 2
18.1485 3.6954999 0.45199999 2
18.1845 3.7065001 0.449 2
18.154499 3.6905 0.454 2
18.168501 3.7014999 0.44999999 2
18.1775 3.7195001 0.44400001 2
18.151501 3.7284999 0.44100001 2
18.144501 3.6845 0.45500001 2
18.1595 3.7275 0.44100001 2
18.157499 3.7105 0.447 2
18.1705 3.7155001 0.44600001 2
18.1495 3.7244999 0.442 2
18.1485 3.7114999 0.44600001 2
18.165501 3.7105 0.447 2
18.1495 3.6925001 0.45300001 2
18.1465 3.7165 0.44400001 2
18.1675 3.3215001 0.47499999 2
18.1775 3.3175001 0.47499999 2
18.164499 3.3564999 0.48699999 2
18.175501 3.3015001 0.47 2
18.172501 3.3104999 0.472 2
18.1745 3.2945001 0.46700001 2
18.182501 3.3185 0.47600001 2
18.168501 3.3185 0.47400001 2
18.1735 3.3145001 0.47400001 2
18.168501 3.3575001 0.48800001 2
18.1745 3.3125 0.47299999 2
18.172501 3.3045001 0.47 2
18.1845 3.3455 0.48500001 2
18.1765 3.3755 0.68099999 2
18.1805 3.3355 0.73000002 2
18.1675 3.3285 0.68199998 2
18.178499 3.3824999 0.68300003 2
18.1905 3.4165001 0.70599997 2
18.168501 3.3494999 0.66900003 2
18.1625 3.3375001 0.65200001 2
18.181499 3.3785 0.69999999 2
18.1705 3.3575001 0.67000002 2
18.186501 3.3664999 0.73100001 2
18.171499 3.3515 0.68199998 2
18.175501 3.3645 0.68800002 2
18.189501 3.3845 0.72899997 2
18.181499 3.3805001 0.699 2
18.188499 3.4215 0.69400001 2
18.1765 3.3594999 0.69400001 2
18.1765 3.3954999 0.667 2
18.192499 3.4335001 0.70099998 2
18.182501 3.3605001 0.71799999 2
18.165501 3.3605001 0.648 2
18.1805 3.3295 0.73400003 2
18.189501 3.4015 0.71600002 2
18.182501 3.3494999 0.72799999 2
18.181499 3.3385 0.73400003 2
18.1905 3.3945 0.72500002 2
18.171499 3.3234999 0.70300001 2
18.168501 3.3464999 0.67199999 2
18.161501 3.3375001 0.648 2
18.188499 3.4275 0.69099998 2
18.1845 3.3835001 0.70700002 2
18.188499 3.3785 0.727 2
18.1835 3.3415 0.74000001 2
18.179501 3.3815 0.68800002 2
18.2015 3.4675 0.71100003 2
