# .PCD v0.7 - Point Cloud Data file format
VERSION 0.7
FIELDS x y z label
SIZE 4 4 4 4
TYPE F F F U
COUNT 1 1 1 1
WIDTH 1648
HEIGHT 1
VIEWPOINT 0 0 0 1 0 0 0
POINTS 1648
DATA ascii
19.0425 1.9855 0.44800001 2
19.0625 1.9245 0.45100001 2
19.0445 1.9355 0.45899999 2
19.0135 2.0155001 0.45699999 2
19.015499 2.0344999 0.45100001 2
19.0345 1.9855 0.45199999 2
19.060499 1.9595 0.44299999 2
19.053499 1.9505 0.44999999 2
19.039499 1.9694999 0.454 2
19.0455 1.9845001 0.44600001 2
19.061501 1.9125 0.45500001 2
19.0485 1.9135 0.46200001 2
19.0205 2.0174999 0.45300001 2
19.033501 1.9555 0.461 2
19.033501 1.9915 0.45100001 2
19.004499 2.0615001 0.45100001 2
19.012501 2.0295 0.454 2
19.026501 1.9755 0.45899999 2
19.009501 2.0495 0.45199999 2
19.012501 2.0144999 0.458 2
19.008499 2.0285001 0.45699999 2
19.0165 2.0355 0.44999999 2
19.063499 1.9195 0.45199999 2
19.046499 1.9625 0.45100001 2
19.0625 1.9125 0.454 2
19.018499 2.0395 0.44800001 2
19.0495 1.9385 0.45500001 2
19.047501 1.9855 0.44499999 2
19.0515 1.9535 0.44999999 2
19.015499 2.0574999 0.45100001 2
19.026501 2.0704999 0.456 2
19.050501 2.0114999 0.44999999 2
18.998501 2.0955 0.454 2
19.032499 2.0144999 0.447 2
19.018499 2.0565 0.45199999 2
19.043501 2.0074999 0.44800001 2
19.043501 2.0625 0.458 2
19.0275 2.0365 0.44999999 2
19.060499 1.9615 0.44299999 2
19.0175 2.0495 0.44999999 2
19.0305 2.0515001 0.45300001 2
19.054501 2.0474999 0.458 2
19.0425 2.0365 0.45300001 2
19.046499 2.0595 0.458 2
19.0285 2.0474999 0.45199999 2
19.060499 1.9615 0.44299999 2
19.040501 2.0344999 0.45199999 2
19.046499 2.0155001 0.44999999 2
19.057501 2.0244999 0.45500001 2
19.0245 2.0585001 0.45300001 2
19.032499 2.0335 0.44999999 2
19.0275 2.0315001 0.449 2
19.0495 2.0315001 0.454 2
19.0385 2.0615001 0.45699999 2
19.011499 2.0604999 0.45100001 2
19.0445 2.0225 0.45100001 2
19.0235 2.0534999 0.45199999 2
19.0215 2.0415001 0.449 2
19.0305 2.0255001 0.44800001 2
19.0485 2.0415001 0.456 2
19.0585 2.0114999 0.45199999 2
19.0285 2.0385001 0.44999999 2
19.047501 2.0225 0.45199999 2
19.0515 2.0415001 0.456 2
18.998501 2.0964999 0.454 2
19.056499 2.0395 0.45699999 2
19.0355 2.0655 0.45699999 2
19.046499 2.0155001 0.44999999 2
19.0355 2.1005001 0.45899999 2
19.005501 2.0964999 0.456 2
19.011499 2.0955 0.456 2
19.0385 2.0725 0.458 2
19.0425 2.1045001 0.45899999 2
19.0205 2.1135001 0.45699999 2
19.040501 2.0994999 0.45899999 2
19.018499 2.0964999 0.45699999 2
19.0245 2.0795 0.45699999 2
19.0455 2.1125 0.46000001 2
19.0235 2.0815001 0.45699999 2
19.0515 2.1045001 0.46000001 2
19.0375 2.1125 0.45899999 2
19.0425 2.1015 0.45899999 2
19.0235 2.1224999 0.458 2
19.0585 2.1064999 0.461 2
19.022499 2.1105001 0.458 2
19.0375 2.0864999 0.458 2
19.0445 2.0685 0.45899999 2
19.040501 2.0864999 0.45899999 2
19.011499 2.1164999 0.45699999 2
19.0515 2.1164999 0.46000001 2
19.0165 2.1094999 0.45699999 2
19.0315 2.1205001 0.45899999 2
19.0445 2.1255 0.46000001 2
19.0555 2.1175001 0.461 2
19.0585 2.0704999 0.46000001 2
19.0555 2.0855 0.46000001 2
19.053499 2.0664999 0.46000001 2
19.047501 2.0945001 0.46000001 2
19.032499 2.1194999 0.45899999 2
19.0495 2.0625 0.45899999 2
19.057501 2.1305001 0.461 2
19.0215 2.0975001 0.45699999 2
18.998501 2.1145 0.45500001 2
19.046499 2.1145 0.46000001 2
18.9965 1.8595001 0.62 2
19.0065 1.8954999 0.60799998 2
18.990499 1.8425 0.59799999 2
18.998501 1.8715 0.57800001 2
18.9895 1.8435 0.55000001 2
18.984501 1.8214999 0.60399997 2
18.9965 1.8575 0.63599998 2
18.998501 1.8745 0.54699999 2
18.984501 1.8205 0.59799999 2
19.0005 1.8775001 0.57499999 2
18.997499 1.8645 0.61199999 2
19.001499 1.8825001 0.55599999 2
18.994499 1.8575 0.56400001 2
18.977501 1.8025 0.55400002 2
18.9765 1.7984999 0.56999999 2
18.9865 1.8275 0.61500001 2
19.004499 1.8925 0.58099997 2
19.0065 1.8945 0.61299998 2
18.991501 1.8475 0.597 2
18.980499 1.8065 0.60299999 2
18.998501 1.8674999 0.61500001 2
18.9795 1.8075 0.55900002 2
19.001499 1.8795 0.57999998 2
18.9795 1.8085001 0.55800003 2
19.005501 1.8935 0.57800001 2
19.004499 1.8935 0.565 2
19.004499 1.8855 0.62900001 2
18.9895 1.8405 0.574 2
18.9895 1.8375 0.597 2
18.988501 1.8365 0.58999997 2
18.9935 1.8494999 0.61900002 2
18.995501 1.8605 0.58600003 2
19.0065 1.8895 0.65200001 2
18.9935 1.8575 0.546 2
18.9965 1.8645 0.574 2
19.0035 1.8865 0.58200002 2
18.997499 1.8705 0.55699998 2
18.9865 1.8295 0.602 2
19.001499 1.8785 0.60500002 2
19.004499 1.8875 0.62199998 2
18.995501 1.8545001 0.634 2
18.995501 1.8665 0.54100001 2
18.9855 1.8275 0.59399998 2
18.9765 1.7995 0.55800003 2
19.0065 1.8985 0.57700002 2
18.990499 1.8444999 0.58399999 2
18.994499 1.8575 0.56800002 2
18.973499 1.7865 0.58899999 2
18.980499 1.8105 0.58499998 2
18.987499 1.8365 0.56699997 2
18.974501 1.7934999 0.55599999 2
18.970501 1.7785 0.55500001 2
19.0065 1.8965 0.58999997 2
19.0005 1.8775001 0.57599998 2
18.984501 1.8214999 0.60600001 2
19.0005 1.8735 0.60399997 2
18.988501 1.8335 0.61000001 2
18.980499 1.8125 0.55699998 2
19.002501 1.8865 0.56999999 2
18.9755 1.7945 0.57800001 2
19.002501 1.8835 0.59100002 2
18.9755 1.7955 0.574 2
19.0005 1.8724999 0.61500001 2
18.987499 1.8335 0.58899999 2
19.001499 1.8765 0.61900002 2
18.991501 1.8455 0.61000001 2
19.004499 1.8965 0.542 2
18.9935 1.8545001 0.56400001 2
18.9895 1.8435 0.56800002 2
18.9965 1.8605 0.62 2
18.967501 1.7695 0.56 2
18.977501 1.8035001 0.55199999 2
19.005501 1.8985 0.54900002 2
18.984501 1.8235 0.59299999 2
18.9925 1.8494999 0.58999997 2
18.980499 1.8115 0.55299997 2
19.0005 1.8805 0.55299997 2
18.987499 1.8345 0.58399999 2
19.002501 1.8845 0.57300001 2
19.0065 1.8945 0.63200003 2
18.987499 1.8285 0.61500001 2
19.002501 1.8875 0.551 2
18.991501 1.8494999 0.55199999 2
18.9965 1.8655 0.57700002 2
18.987499 1.8365 0.546 2
19.0035 1.8865 0.59799999 2
19.0065 1.9005001 0.56999999 2
19.001499 1.8745 0.63999999 2
18.9935 1.8505 0.62400001 2
18.977501 1.7975 0.59200001 2
18.9935 1.8575 0.54799998 2
18.9695 1.7735 0.57700002 2
19.005501 1.8975 0.54400003 2
19.0035 1.8865 0.60500002 2
18.9755 1.7925 0.57499999 2
18.9695 1.7704999 0.58399999 2
18.995501 1.8565 0.62400001 2
18.988501 1.8355 0.597 2
19.0035 1.8895 0.58099997 2
18.9715 1.7815 0.57300001 2
18.9715 1.7815 0.574 2
18.9925 1.8505 0.57499999 2
19.005501 1.8895 0.62599999 2
18.991501 1.8435 0.60799998 2
19.001499 1.8795 0.60799998 2
19.0075 1.8945 0.63800001 2
18.981501 1.8135 0.60000002 2
18.9655 1.7605 0.56 2
19.004499 2.1654999 0.62300003 2
19.002501 2.1745 0.60299999 2
19.0135 2.1975 0.60699999 2
19.0005 2.1705 0.60500002 2
19.0135 2.1975 0.60699999 2
18.995501 2.1524999 0.61199999 2
18.994499 2.1615 0.59799999 2
18.981501 2.1335001 0.59500003 2
19.005501 2.1684999 0.62400001 2
19.0075 2.1865001 0.60100001 2
19.0065 2.1705 0.62400001 2
18.9925 2.1554999 0.59899998 2
19.011499 2.1765001 0.63200003 2
19.0065 2.1845 0.60500002 2
18.998501 2.1624999 0.61000001 2
19.0165 2.1995001 0.61299998 2
18.994499 2.1545 0.60699999 2
19.0005 2.1724999 0.602 2
19.0315 1.7275 0.755 2
19.018499 1.7405 0.745 2
19.0205 1.7265 0.74299997 2
19.032499 1.7495 0.76099998 2
18.984501 1.7225 0.70599997 2
19.0205 1.7625 0.75099999 2
19.0245 1.7535 0.75300002 2
19.022499 1.7305 0.74699998 2
19.022499 1.7225 0.745 2
19.0205 1.7325 0.745 2
19.005501 1.7275 0.72799999 2
19.0305 1.7285 0.75400001 2
19.033501 1.7285 0.75800002 2
19.0165 1.7515 0.745 2
19.0245 1.7395 0.75 2
18.9995 1.7415 0.72500002 2
18.991501 1.7325 0.71499997 2
19.005501 1.7455 0.73199999 2
19.0165 1.7295001 0.74000001 2
18.981501 1.7205 0.70200002 2
19.0285 1.7235 0.75099999 2
19.026501 1.7335 0.75099999 2
19.0275 1.7485 0.75599998 2
18.988501 1.7255 0.71100003 2
19.022499 1.7615 0.75300002 2
19.001499 1.8285 0.68400002 2
19.004499 1.7995 0.70499998 2
18.988501 1.7535 0.69999999 2
18.9935 1.7984999 0.685 2
18.994499 1.7715 0.70099998 2
19.018499 1.7934999 0.73299998 2
19.004499 1.7925 0.708 2
19.0145 1.8105 0.71600002 2
19.0215 1.7765 0.74800003 2
18.988501 1.7654999 0.69300002 2
19.0035 1.7875 0.708 2
19.0075 1.8805 0.66500002 2
19.018499 1.8195 0.71899998 2
19.0005 1.8005 0.69700003 2
19.012501 1.7575001 0.74299997 2
18.998501 1.8285 0.67799997 2
19.025499 1.7775 0.755 2
18.995501 1.8205 0.67500001 2
19.0245 1.7805001 0.75099999 2
18.9995 1.7585 0.71799999 2
18.987499 1.7765 0.685 2
18.995501 1.7845 0.69599998 2
19.0005 1.8285 0.68099999 2
19.005501 1.7545 0.73000002 2
19.005501 1.7995 0.70599997 2
19.0205 1.8155 0.72399998 2
18.987499 1.7735 0.68800002 2
19.0135 1.8285 0.70499998 2
19.009501 1.8455 0.68800002 2
19.018499 1.8235 0.71700001 2
19.029499 1.7795 0.76099998 2
18.997499 1.7815 0.70099998 2
19.012501 1.8375 0.69800001 2
19.0205 1.7704999 0.74900001 2
19.015499 1.7845 0.73299998 2
19.008499 1.8525 0.68199998 2
18.9925 1.8005 0.68199998 2
18.994499 1.8105 0.67900002 2
18.9925 1.7605 0.70300001 2
18.991501 1.7955 0.68199998 2
19.019501 1.7845 0.74000001 2
19.002501 1.7785 0.713 2
18.9825 1.7295001 0.70200002 2
18.9995 1.7505 0.722 2
19.0165 1.8345 0.70700002 2
19.005501 1.8245 0.69199997 2
19.0165 1.7635 0.74599999 2
18.991501 1.7865 0.68800002 2
18.9825 1.7375 0.69800001 2
19.0135 1.8315001 0.704 2
19.022499 1.8115 0.73100001 2
18.9865 1.7474999 0.699 2
19.002501 1.8674999 0.66399997 2
19.004499 1.8275 0.69 2
19.005501 1.7934999 0.70999998 2
18.9995 1.8075 0.69099998 2
19.025499 1.8035001 0.74000001 2
19.0005 1.8385 0.67500001 2
18.9865 1.7585 0.69499999 2
19.011499 1.7865 0.72500002 2
18.990499 1.7575001 0.70099998 2
19.001499 1.8055 0.69499999 2
18.9965 1.8205 0.67699999 2
19.0235 1.8185 0.72799999 2
18.991501 1.7595 0.70300001 2
19.0065 1.8724999 0.66799998 2
19.011499 1.7585 0.74000001 2
18.9965 1.8005 0.69 2
19.029499 1.7765 0.76200002 2
18.988501 1.7665 0.69300002 2
18.9785 1.7335 0.69300002 2
19.012501 1.8115 0.713 2
19.002501 1.8135 0.69300002 2
19.0035 1.8494999 0.67400002 2
19.009501 1.7905 0.71799999 2
19.0245 1.7785 0.75300002 2
18.995501 1.8125 0.68099999 2
19.0065 1.8285 0.69300002 2
19.0035 1.7795 0.713 2
19.002501 1.7815 0.71100003 2
18.995501 1.7675 0.70599997 2
18.977501 1.7275 0.69400001 2
19.001499 1.7995 0.69800001 2
19.001499 1.8535 0.66900003 2
19.001499 1.8125 0.69199997 2
18.9645 1.7565 0.57800001 2
18.966499 1.7285 0.62599999 2
18.9765 1.7455 0.667 2
18.9765 1.7625 0.64099997 2
18.9715 1.7355 0.64600003 2
18.984501 1.8005 0.63999999 2
18.9655 1.7355 0.611 2
18.9835 1.7975 0.64099997 2
18.967501 1.7585 0.59200001 2
18.963499 1.7465 0.58600003 2
18.998501 1.8575 0.653 2
19.0005 1.8605 0.65600002 2
18.990499 1.8375 0.62599999 2
18.9655 1.7415 0.602 2
18.9725 1.7215 0.67000002 2
18.980499 1.7805001 0.64499998 2
18.9965 1.8425 0.65799999 2
18.980499 1.7735 0.653 2
18.973499 1.7285 0.67000002 2
18.977501 1.7885 0.61199999 2
18.967501 1.7305 0.63200003 2
18.980499 1.8065 0.61000001 2
18.987499 1.8105 0.64600003 2
18.9865 1.8235 0.62 2
18.973499 1.7495 0.63999999 2
18.9865 1.8195 0.62800002 2
18.988501 1.8045 0.662 2
18.984501 1.8105 0.63 2
18.9795 1.7565 0.671 2
18.9765 1.7805001 0.616 2
18.9785 1.7565 0.66600001 2
18.995501 1.8315001 0.66900003 2
18.967501 1.7365 0.62300003 2
18.973499 1.7244999 0.676 2
18.9825 1.7665 0.671 2
18.9925 1.8105 0.67400002 2
18.970501 1.7695 0.59399998 2
18.9965 1.8585 0.639 2
18.970501 1.7695 0.59799999 2
18.966499 1.7515 0.59500003 2
18.967501 1.7255 0.63700002 2
18.973499 1.7695 0.61400002 2
18.990499 1.8265001 0.64099997 2
18.998501 1.8525 0.65700001 2
18.9725 1.7745 0.602 2
18.9965 1.8575 0.64099997 2
18.970501 1.7395 0.63800001 2
18.987499 1.8085001 0.65200001 2
18.991501 1.8365 0.63499999 2
18.9685 1.7325 0.634 2
18.9765 1.7244999 0.69099998 2
18.987499 1.7875 0.67500001 2
18.990499 1.8195 0.65200001 2
18.9725 1.7745 0.602 2
18.977501 1.7984999 0.602 2
18.967501 1.7635 0.58399999 2
18.9725 1.7355 0.65200001 2
18.991501 1.8075 0.676 2
18.9835 1.7815 0.66000003 2
18.9935 1.8285 0.66000003 2
18.988501 1.7945 0.67400002 2
18.973499 1.7345001 0.66100001 2
18.9645 1.7424999 0.59500003 2
19.0005 1.8715 0.64600003 2
18.977501 1.7435 0.67400002 2
18.974501 1.7265 0.68099999 2
18.9835 1.7965 0.64099997 2
18.9865 1.8015 0.64899999 2
18.997499 1.8405 0.66600001 2
18.980499 1.7515 0.68199998 2
18.9765 1.7405 0.67000002 2
18.973499 1.7244999 0.67299998 2
18.9765 1.7235 0.69499999 2
18.9855 1.8045 0.639 2
18.9655 1.7485 0.59500003 2
18.9615 1.7385 0.58200002 2
18.987499 1.7865 0.67900002 2
18.9725 1.7305 0.66000003 2
18.9715 1.7275 0.65899998 2
18.974501 1.7455 0.653 2
19.0065 1.8895 0.65799999 2
18.988501 1.7955 0.67199999 2
18.9765 1.7445 0.66399997 2
18.984501 1.7845 0.66500002 2
18.9765 1.7735 0.62599999 2
18.9625 1.7445 0.58200002 2
18.9765 1.7455 0.66299999 2
18.998501 1.8575 0.65200001 2
18.9795 1.7725 0.648 2
18.9785 1.7435 0.68000001 2
18.9725 1.7435 0.64600003 2
18.984501 1.7855 0.66000003 2
18.9965 1.8385 0.66399997 2
18.980499 1.7845 0.63700002 2
18.990499 1.8045 0.67000002 2
18.994499 1.8415 0.64499998 2
18.9785 1.7555 0.662 2
18.9795 1.7555 0.66799998 2
18.9935 1.8195 0.671 2
18.9755 1.7855 0.60299999 2
18.9725 1.7465 0.63800001 2
18.987499 1.8245 0.62800002 2
18.974501 1.7575001 0.63499999 2
18.9725 1.7715 0.60500002 2
18.9785 1.7934999 0.61400002 2
18.9725 1.7515 0.63099998 2
18.970501 1.7704999 0.59399998 2
18.9765 1.7675 0.63300002 2
19.002501 1.8735 0.65700001 2
18.981501 1.7775 0.65399998 2
18.9785 1.7795 0.62900001 2
18.984501 1.7745 0.67400002 2
18.973499 1.7555 0.63200003 2
18.9715 1.7435 0.634 2
18.966499 1.7615 0.58200002 2
18.974501 1.7265 0.68000001 2
18.973499 1.7315 0.66799998 2
18.9865 1.7805001 0.68199998 2
19.009501 1.9305 0.57599998 2
19.0135 1.9575 0.65700001 2
19.0135 1.9665 0.64899999 2
19.009501 1.9155 0.63599998 2
19.009501 1.9255 0.62199998 2
19.0075 1.9055001 0.57300001 2
19.0075 1.9065 0.59500003 2
19.0165 1.9945 0.66299999 2
19.0175 2.0044999 0.66500002 2
19.0075 1.9035 0.616 2
19.0105 1.9345 0.62199998 2
19.012501 1.9595 0.61900002 2
19.015499 1.9795001 0.65600002 2
19.0135 1.9585 0.64300001 2
19.0105 1.9265 0.64399999 2
19.0105 1.9315 0.60000002 2
19.0165 1.9945 0.66600001 2
19.0075 1.9075 0.57700002 2
19.011499 1.9475 0.588 2
19.0135 1.9565001 0.66900003 2
19.012501 1.9545 0.66000003 2
19.0075 1.9085 0.54400003 2
19.011499 1.9485 0.59799999 2
19.012501 1.9555 0.66000003 2
19.008499 1.9065 0.62699997 2
19.009501 1.9265 0.56699997 2
19.008499 1.9145 0.59299999 2
19.018499 2.0174999 0.67299998 2
19.012501 1.9605 0.61199999 2
19.0135 1.9635 0.61500001 2
19.0145 1.9744999 0.65499997 2
19.0175 2.0095 0.662 2
19.009501 1.9225 0.579 2
19.011499 1.9425 0.66500002 2
19.0105 1.9315 0.62400001 2
19.008499 1.9085 0.61699998 2
19.009501 1.9255 0.61400002 2
19.0175 2.0055001 0.671 2
19.0135 1.9615 0.66900003 2
19.009501 1.9234999 0.56599998 2
19.011499 1.9385 0.65899998 2
19.0175 2.0014999 0.66299999 2
19.009501 1.9234999 0.60100001 2
19.009501 1.9184999 0.64200002 2
19.008499 1.9095 0.63999999 2
19.0075 1.9045 0.537 2
19.0135 1.9635 0.64899999 2
19.0075 1.9065 0.59299999 2
19.0075 1.9035 0.61400002 2
19.0105 1.9295 0.62900001 2
19.008499 1.9135 0.59600002 2
19.0075 1.9015 0.59200001 2
19.009501 1.9265 0.62199998 2
19.012501 1.9575 0.63300002 2
19.008499 1.9175 0.56999999 2
19.0105 1.9335001 0.65499997 2
19.009501 1.9255 0.59899998 2
19.008499 1.9085 0.59899998 2
19.009501 1.9175 0.63800001 2
19.008499 1.9175 0.58600003 2
19.0105 1.9305 0.662 2
19.0075 1.9015 0.57800001 2
19.0135 1.9655 0.65200001 2
19.0075 1.9005001 0.634 2
19.0135 1.9595 0.66500002 2
19.0165 1.9905 0.65100002 2
19.008499 1.9075 0.60100001 2
19.011499 1.9414999 0.64899999 2
19.011499 1.9435 0.63099998 2
19.0105 1.9275 0.61400002 2
19.009501 1.9255 0.62699997 2
19.0105 1.9295 0.62099999 2
19.009501 1.9285001 0.58499998 2
19.0075 1.9105 0.565 2
19.008499 1.9085 0.60000002 2
19.0135 1.9615 0.64399999 2
19.0075 1.8975 0.64999998 2
19.0105 1.9335001 0.59100002 2
19.0105 1.9325 0.653 2
19.009501 1.9155 0.65200001 2
19.0135 1.9675 0.634 2
19.0145 1.9765 0.625 2
19.0145 1.9685 0.67000002 2
18.9995 2.0495 0.62099999 2
19.0075 1.9865 0.60100001 2
19.0065 1.9365 0.55800003 2
19.0065 1.9184999 0.542 2
18.9835 2.0825 0.58499998 2
18.9835 2.0975001 0.59500003 2
19.0005 2.0565 0.62900001 2
19.0105 2.0374999 0.65200001 2
18.998501 2.0474999 0.616 2
18.9825 2.0764999 0.57700002 2
19.0005 2.0195 0.60100001 2
19.0075 1.9505 0.57300001 2
19.002501 1.9395 0.54699999 2
19.0145 1.9924999 0.63200003 2
19.001499 1.9565001 0.55500001 2
19.0135 1.9985 0.63499999 2
18.9785 2.1125 0.58999997 2
19.0105 2.0344999 0.65200001 2
18.9855 2.0964999 0.60299999 2
19.004499 1.9895 0.59399998 2
18.991501 2.0634999 0.602 2
18.990499 2.0785 0.60799998 2
18.990499 2.0515001 0.58700001 2
18.9835 2.1064999 0.602 2
18.994499 2.0404999 0.59600002 2
19.011499 2.0355 0.65600002 2
18.998501 2.0085001 0.583 2
18.9965 2.0604999 0.61699998 2
19.0145 2.0155001 0.65399998 2
18.977501 2.1115 0.58499998 2
18.994499 2.0244999 0.58200002 2
18.995501 2.0655 0.61799997 2
19.009501 2.0335 0.64600003 2
19.001499 2.0274999 0.611 2
19.001499 1.9985 0.58600003 2
18.998501 1.9765 0.55900002 2
18.9925 2.0515001 0.59500003 2
19.011499 2.0434999 0.66399997 2
18.994499 2.0295 0.58399999 2
19.012501 2.0325 0.65700001 2
18.9965 2.0445001 0.60600001 2
18.9925 2.0695 0.60799998 2
19.018499 2.0235 0.67299998 2
18.991501 2.0574999 0.59500003 2
19.009501 1.9455 0.57800001 2
18.9995 2.0325 0.60900003 2
18.995501 1.9885 0.55900002 2
18.995501 2.0044999 0.56999999 2
18.994499 2.0795 0.625 2
18.9995 1.9725 0.55800003 2
19.015499 1.9855 0.63099998 2
19.002501 2.0495 0.63300002 2
19.011499 1.9885 0.62 2
19.008499 1.9855 0.60600001 2
18.9925 2.0834999 0.62099999 2
19.004499 2.0585001 0.64899999 2
18.994499 2.0425 0.59399998 2
19.008499 1.9694999 0.59200001 2
19.009501 1.9445 0.57800001 2
19.004499 2.0545001 0.64300001 2
18.998501 2.0675001 0.63 2
18.987499 2.0964999 0.61000001 2
18.991501 2.0144999 0.56199998 2
19.0135 2.0315001 0.662 2
18.9895 2.0295 0.56599998 2
18.9965 2.0335 0.59500003 2
18.998501 1.9785 0.56 2
19.0145 1.9965 0.63599998 2
18.998501 2.0555 0.62199998 2
19.015499 2.0035 0.64600003 2
18.9835 2.1025 0.602 2
19.009501 1.9355 0.56800002 2
18.987499 2.0634999 0.58399999 2
19.0135 2.0165 0.65100002 2
18.984501 2.0795 0.58600003 2
18.981501 2.1085 0.59600002 2
18.9995 1.9885 0.57200003 2
18.998501 2.0495 0.61900002 2
19.0065 2.0105 0.616 2
19.0105 1.9435 0.579 2
19.001499 1.9615 0.56 2
19.0065 1.9835 0.597 2
19.0075 2.0395 0.64399999 2
18.998501 1.9945 0.57499999 2
19.008499 2.0204999 0.634 2
19.012501 2.0274999 0.653 2
18.990499 2.0845001 0.616 2
19.0065 1.9535 0.57200003 2
19.002501 1.9755 0.57300001 2
18.995501 2.0604999 0.61400002 2
19.012501 2.0325 0.66000003 2
19.0035 1.9775 0.58099997 2
19.0035 1.9495 0.55500001 2
18.990499 2.0915 0.61799997 2
19.008499 2.0155001 0.62699997 2
18.9855 2.0675001 0.58099997 2
19.015499 2.0255001 0.66500002 2
19.005501 1.9595 0.57200003 2
19.0035 1.9285001 0.54100001 2
19.004499 2.0144999 0.61199999 2
18.998501 1.9995 0.57599998 2
19.0005 2.0425 0.62 2
19.008499 2.0185001 0.63 2
19.0035 2.0125 0.60799998 2
19.008499 1.9345 0.56300002 2
18.988501 2.0955 0.616 2
18.990499 2.0574999 0.59399998 2
19.005501 2.0565 0.65100002 2
19.011499 2.0244999 0.64899999 2
18.990499 2.0775001 0.60900003 2
18.997499 2.0404999 0.60699999 2
18.984501 2.0915 0.59600002 2
19.001499 2.0574999 0.63599998 2
18.995501 1.9945 0.56 2
18.9865 2.0815001 0.59399998 2
19.0065 1.9725 0.58600003 2
18.988501 2.0415001 0.57300001 2
19.0065 1.9694999 0.583 2
19.0075 1.9735 0.59299999 2
18.9895 2.0725 0.60100001 2
19.0105 2.0255001 0.64600003 2
18.997499 1.9995 0.57499999 2
18.987499 2.0895 0.60699999 2
19.005501 1.9525 0.56900001 2
18.9995 2.0595 0.62800002 2
18.9865 2.0474999 0.56999999 2
19.0105 1.9755 0.60299999 2
19.0075 1.9315 0.55800003 2
18.991501 2.0515001 0.59299999 2
19.001499 1.9885 0.58099997 2
18.988501 2.0875001 0.60900003 2
18.994499 2.0135 0.57499999 2
18.987499 2.0915 0.60799998 2
19.0075 1.9905 0.60299999 2
18.998501 2.0265 0.60000002 2
18.9935 2.0905001 0.63 2
19.005501 2.0834999 0.66399997 2
19.019501 2.0415001 0.69099998 2
19.012501 2.0685 0.68099999 2
19.0035 2.0715001 0.65100002 2
19.0145 2.0855 0.69700003 2
19.0175 2.0855 0.708 2
19.005501 2.1005001 0.67500001 2
19.0005 2.0715001 0.64099997 2
19.004499 2.0725 0.65700001 2
19.0135 2.0495 0.67199999 2
19.0135 2.0634999 0.68000001 2
19.018499 2.0675001 0.70099998 2
19.015499 2.0915 0.704 2
18.9925 2.1034999 0.63300002 2
19.0065 2.0795 0.66600001 2
19.001499 2.0715001 0.64600003 2
19.015499 2.0474999 0.67900002 2
19.0175 2.0404999 0.68099999 2
18.997499 2.1145 0.65399998 2
19.015499 2.0395 0.67500001 2
19.0135 2.1245 0.71600002 2
18.995501 2.0994999 0.64200002 2
18.9995 2.1235001 0.667 2
19.0145 2.1235001 0.71799999 2
19.011499 2.0985 0.69499999 2
18.9765 2.1245 0.59200001 2
19.018499 2.0395 0.68300003 2
19.012501 2.1094999 0.70200002 2
18.995501 2.0864999 0.63499999 2
19.0215 2.1164999 0.73699999 2
19.005501 2.1255 0.69 2
18.9925 2.1185 0.63999999 2
18.991501 2.1175001 0.63599998 2
19.0205 2.0595 0.704 2
18.998501 2.1034999 0.65399998 2
19.015499 2.0425 0.67699999 2
18.997499 2.0885 0.64200002 2
19.0005 2.0804999 0.64700001 2
18.9835 2.1155 0.61000001 2
19.012501 2.0625 0.67799997 2
19.0145 2.0525 0.67799997 2
19.009501 2.1055 0.69099998 2
19.004499 2.1094999 0.67699999 2
19.005501 2.0655 0.65399998 2
19.0105 2.0604999 0.66799998 2
19.0175 2.0634999 0.69400001 2
18.994499 2.1155 0.64600003 2
19.0165 2.0555 0.68800002 2
19.0065 2.0864999 0.67199999 2
19.012501 2.0695 0.68099999 2
19.0145 2.0885 0.699 2
19.0075 2.0985 0.68099999 2
18.994499 2.0855 0.62800002 2
19.0135 2.1135001 0.70999998 2
18.9965 2.1064999 0.64700001 2
19.018499 2.0845001 0.70899999 2
19.0215 2.0934999 0.72600001 2
19.0205 2.0834999 0.71600002 2
19.018499 2.0595 0.69499999 2
19.0145 2.0985 0.70499998 2
18.9895 2.1075001 0.625 2
19.008499 2.1215 0.69599998 2
19.019501 2.0525 0.69400001 2
19.0135 2.0604999 0.68099999 2
18.988501 2.1185 0.62800002 2
19.018499 2.0395 0.685 2
19.0215 2.1034999 0.73000002 2
18.9855 2.1224999 0.62 2
19.001499 2.1164999 0.67000002 2
19.004499 2.1015 0.67400002 2
19.015499 2.1175001 0.72000003 2
18.981501 2.1175001 0.60500002 2
19.008499 2.1255 0.699 2
19.019501 2.1075001 0.72600001 2
19.012501 2.1235001 0.70999998 2
18.997499 2.0864999 0.63999999 2
19.011499 2.1245 0.70899999 2
18.9855 2.1105001 0.61299998 2
19.019501 2.0804999 0.71200001 2
19.0205 2.0845001 0.71600002 2
19.015499 2.1175001 0.71799999 2
19.0075 2.0834999 0.67299998 2
18.987499 2.1034999 0.61500001 2
19.015499 2.0885 0.70300001 2
19.019501 2.0585001 0.69700003 2
19.008499 2.1275001 0.69499999 2
19.004499 2.1345 0.671 2
19.019501 2.1345 0.72600001 2
19.0035 2.1575 0.63200003 2
19.019501 2.1335001 0.72600001 2
19.0065 2.1545 0.65100002 2
19.012501 2.1754999 0.63499999 2
19.004499 2.1635001 0.62599999 2
19.0105 2.1705 0.63700002 2
18.990499 2.1335001 0.62400001 2
19.0145 2.1275001 0.71799999 2
19.0165 2.1754999 0.64899999 2
19.002501 2.1294999 0.67400002 2
19.0175 2.1684999 0.66600001 2
19.001499 2.1305001 0.667 2
19.001499 2.1615 0.62199998 2
19.0205 2.1454999 0.71200001 2
18.998501 2.1465001 0.63499999 2
18.981501 2.1275001 0.60299999 2
19.018499 2.1435001 0.708 2
19.019501 2.1515 0.699 2
19.0175 2.1424999 0.704 2
18.9895 2.1294999 0.63 2
19.019501 2.1424999 0.713 2
19.0145 2.1754999 0.64399999 2
18.977501 2.1255 0.59100002 2
18.9855 2.1285 0.61799997 2
19.0105 2.1335001 0.69499999 2
18.988501 2.1294999 0.625 2
19.012501 2.1535001 0.67199999 2
19.011499 2.1524999 0.66799998 2
19.004499 2.1535001 0.64300001 2
19.0105 2.1745 0.63200003 2
19.0105 2.1415 0.68300003 2
19.0135 2.1554999 0.67299998 2
19.0165 2.1695001 0.66000003 2
19.0105 2.1565001 0.65799999 2
18.981501 2.1294999 0.602 2
18.9835 2.1285 0.60900003 2
19.012501 2.1485 0.67900002 2
18.9995 2.1405001 0.64600003 2
19.0105 2.1745 0.63200003 2
19.009501 2.1505001 0.66399997 2
19.005501 2.1645 0.62900001 2
18.9835 2.1275001 0.60900003 2
19.018499 2.1285 0.73000002 2
19.0135 2.1754999 0.63999999 2
19.0145 2.1605 0.66799998 2
19.0075 2.1394999 0.676 2
19.0145 2.1264999 0.71899998 2
19.0205 2.1285 0.73500001 2
19.008499 2.1305001 0.69199997 2
18.9965 2.1305001 0.64999998 2
18.991501 2.1594999 0.583 2
18.9835 2.1454999 0.57099998 2
18.9925 2.1695001 0.55599999 2
19.008499 2.1945 0.58499998 2
19.0065 2.1925001 0.57800001 2
18.9935 2.1705 0.55699998 2
19.0035 2.1895001 0.56999999 2
18.988501 2.1605 0.56 2
18.9895 2.1635001 0.55599999 2
19.002501 2.1875 0.56599998 2
19.008499 2.1954999 0.58600003 2
19.0005 2.1795001 0.58399999 2
18.991501 2.1615 0.574 2
19.001499 2.1805 0.583 2
19.0105 2.1954999 0.59899998 2
18.9925 2.1624999 0.58200002 2
19.002501 2.1784999 0.597 2
19.001499 2.1784999 0.59100002 2
18.9865 2.1494999 0.583 2
18.990499 2.1635001 0.56300002 2
18.9895 2.1545 0.58399999 2
18.990499 2.1605 0.57099998 2
19.0075 2.1895001 0.59799999 2
18.991501 2.1684999 0.55199999 2
18.998501 2.1735001 0.588 2
19.0205 1.9815 0.68099999 2
19.015499 1.9495 0.67299998 2
19.018499 1.9905 0.67799997 2
19.0355 2.0035 0.70700002 2
19.0165 1.9815 0.676 2
19.025499 1.9945 0.68900001 2
19.040501 1.9535 0.713 2
19.067499 1.9895 0.75700003 2
19.0835 2.0095 0.78299999 2
19.046499 2.0074999 0.72399998 2
19.071501 2.0114999 0.76499999 2
19.026501 1.9375 0.69 2
19.0385 1.9435 0.70899999 2
19.0445 2.0085001 0.72000003 2
19.025499 1.9475 0.68800002 2
19.084499 2.0095 0.78500003 2
19.043501 2.0165 0.71899998 2
19.039499 1.9765 0.71200001 2
19.0455 1.9815 0.722 2
19.047501 1.9505 0.72399998 2
19.0235 1.9715 0.68699998 2
19.0415 1.9505 0.71499997 2
19.029499 2.0174999 0.69700003 2
19.0285 1.9485 0.69300002 2
19.033501 1.9815 0.70300001 2
19.040501 1.9615 0.71200001 2
19.0665 1.9995 0.75599998 2
19.036501 1.9435 0.70599997 2
19.050501 2.0074999 0.73000002 2
19.0245 1.9755 0.68699998 2
19.018499 1.9765 0.67799997 2
19.022499 1.9525 0.68400002 2
19.040501 1.9895 0.71399999 2
19.0215 1.9495 0.68099999 2
19.0235 1.9515001 0.68599999 2
19.0735 2.0114999 0.76800001 2
19.0495 1.9905 0.72799999 2
19.026501 1.9565001 0.69099998 2
19.074499 1.9985 0.76899999 2
19.0495 1.9694999 0.72799999 2
19.032499 2.0105 0.70200002 2
19.0345 1.9855 0.70499998 2
19.0235 1.9525 0.685 2
19.0235 1.9295 0.685 2
19.081499 1.9935 0.77899998 2
19.067499 2.0125 0.75800002 2
19.008499 1.8954999 0.66000003 2
19.0425 1.9875 0.71700001 2
19.033501 2.0225 0.704 2
19.022499 2.0035 0.68599999 2
19.0765 1.9955 0.77200001 2
19.025499 1.9685 0.68900001 2
19.0275 1.9765 0.69300002 2
19.0555 1.9744999 0.73699999 2
19.033501 1.9924999 0.70200002 2
19.043501 1.9665 0.71799999 2
19.0135 1.9335001 0.66799998 2
19.064501 2.0005 0.75300002 2
19.0145 1.9445 0.671 2
19.0305 1.9665 0.69599998 2
19.057501 1.9755 0.74000001 2
19.0315 1.9875 0.69999999 2
19.0425 2.0044999 0.71799999 2
19.0445 1.9965 0.72000003 2
19.040501 1.9455 0.71200001 2
19.0245 2.0135 0.68800002 2
19.018499 1.9135 0.676 2
19.019501 1.9595 0.67900002 2
19.039499 2.0114999 0.713 2
19.0655 1.9755 0.75300002 2
19.0315 2.0095 0.69999999 2
19.0205 1.9924999 0.68099999 2
19.0315 2.0155001 0.69999999 2
19.0355 1.9795001 0.70599997 2
19.0665 2.0074999 0.75599998 2
19.025499 1.9905 0.68900001 2
19.0585 2.0065 0.74299997 2
19.026501 1.9525 0.69099998 2
19.0375 1.9565001 0.708 2
19.0145 1.9615 0.671 2
19.036501 2.0165 0.70899999 2
19.047501 1.9535 0.72500002 2
19.0215 2.0155001 0.685 2
19.0175 1.9595 0.676 2
19.0825 1.9955 0.78200001 2
19.0425 1.9825 0.71700001 2
19.043501 1.9414999 0.71600002 2
19.0795 1.9945 0.77600002 2
19.057501 1.9865 0.741 2
19.039499 2.0035 0.713 2
19.060499 1.9765 0.745 2
19.0555 1.9855 0.73699999 2
19.0355 1.9945 0.70599997 2
19.050501 2.0005 0.73100001 2
19.040501 2.0715001 0.74699998 2
19.0385 2.0404999 0.72299999 2
19.060499 2.0474999 0.76599997 2
19.025499 2.0775001 0.72299999 2
19.0315 2.0764999 0.73400003 2
19.0285 2.0595 0.71700001 2
19.043501 2.0295 0.72500002 2
19.047501 2.0395 0.73900002 2
19.039499 2.0304999 0.72000003 2
19.0285 2.0895 0.73799998 2
19.0585 2.0655 0.77600002 2
19.0445 2.0595 0.745 2
19.032499 2.0274999 0.704 2
19.053499 2.0274999 0.74199998 2
19.0825 2.0165 0.78500003 2
19.0355 2.0625 0.73199999 2
19.0275 2.0465 0.708 2
19.0285 2.1045001 0.74599999 2
19.054501 2.0555 0.76200002 2
19.056499 2.0585001 0.76800001 2
19.077499 2.0144999 0.77499998 2
19.036501 2.0755 0.74199998 2
19.025499 2.0934999 0.73400003 2
19.0415 2.0574999 0.73900002 2
19.026501 2.1094999 0.74599999 2
19.0275 2.0555 0.713 2
19.061501 2.0185001 0.75 2
19.071501 2.0155001 0.76700002 2
19.0315 2.0875001 0.741 2
19.0235 2.0355 0.69300002 2
19.0375 2.0445001 0.72299999 2
19.0345 2.0975001 0.75300002 2
19.040501 2.0895 0.75800002 2
19.043501 2.0315001 0.72600001 2
19.0515 2.0534999 0.755 2
19.040501 2.0895 0.75800002 2
19.0455 2.0315001 0.73000002 2
19.025499 2.0265 0.69099998 2
19.050501 2.0685 0.764 2
19.070499 2.0385001 0.77899998 2
19.0595 2.0555 0.76999998 2
19.0525 2.0385001 0.74599999 2
19.0315 2.0695 0.73000002 2
19.026501 2.0335 0.69700003 2
19.0275 2.0734999 0.72600001 2
19.063499 2.0555 0.77700001 2
19.0355 2.0325 0.71200001 2
19.046499 2.0434999 0.74000001 2
19.070499 2.0404999 0.78100002 2
19.0445 2.0834999 0.76300001 2
19.054501 2.0455 0.75599998 2
19.0315 2.0664999 0.72799999 2
19.0385 2.0855 0.75300002 2
19.0315 2.0795 0.73699999 2
19.0415 2.0265 0.71899998 2
19.0425 2.0745001 0.75199997 2
19.0385 2.0704999 0.74299997 2
19.025499 2.0534999 0.708 2
19.032499 2.0985 0.74900001 2
19.029499 2.1075001 0.75 2
19.0765 2.0235 0.77999997 2
19.053499 2.0595 0.76300001 2
19.0455 2.0315001 0.73000002 2
19.0765 2.0174999 0.77600002 2
19.0695 2.0215001 0.76700002 2
19.050501 2.0455 0.74699998 2
19.039499 2.0785 0.74900001 2
19.0245 2.0604999 0.71200001 2
19.0375 2.0285001 0.713 2
19.0515 2.0775001 0.77100003 2
19.0315 2.0715001 0.73100001 2
19.043501 2.0525 0.74000001 2
19.022499 2.0274999 0.68699998 2
19.046499 2.0265 0.72799999 2
19.0695 2.0344999 0.77399999 2
19.0495 2.0615001 0.75700003 2
19.022499 2.0274999 0.68699998 2
19.033501 2.0634999 0.73000002 2
19.077499 1.9025 0.79299998 2
19.071501 1.8235 0.792 2
19.053499 1.8164999 0.77999997 2
19.0755 1.9365 0.79000002 2
19.063499 1.8185 0.787 2
19.0455 1.8275 0.773 2
19.0755 1.8805 0.792 2
19.085501 1.9655 0.79500002 2
19.0875 1.9835 0.796 2
19.0735 1.9245 0.78899997 2
19.0455 1.8035001 0.77499998 2
19.0835 1.9495 0.79400003 2
19.0805 1.8825001 0.796 2
19.0905 1.9845001 0.79699999 2
19.0725 1.8494999 0.792 2
19.053499 1.8485 0.778 2
19.0555 1.8075 0.78200001 2
19.074499 1.9345 0.78899997 2
19.0655 1.8655 0.78600001 2
19.068501 1.8265001 0.79000002 2
19.071501 1.8555 0.79100001 2
19.067499 1.8365 0.78899997 2
19.0625 1.8795 0.78299999 2
19.0735 1.8575 0.792 2
19.078501 1.8645 0.796 2
19.074499 1.8904999 0.79100001 2
19.0525 1.8195 0.77899998 2
19.060499 1.8135 0.78500003 2
19.067499 1.8765 0.787 2
19.0595 1.8785 0.78100002 2
19.057501 1.8724999 0.77999997 2
19.063499 1.8555 0.78500003 2
19.0735 1.8315001 0.79299998 2
19.056499 1.8255 0.78200001 2
19.0825 1.9464999 0.79400003 2
19.074499 1.9245 0.78899997 2
19.064501 1.8065 0.78799999 2
19.0665 1.8505 0.787 2
19.040501 1.7984999 0.77200001 2
19.071501 1.8205 0.792 2
19.0725 1.8125 0.79400003 2
19.0725 1.9265 0.78799999 2
19.0875 1.9575 0.79699999 2
19.0725 1.8625 0.79100001 2
19.060499 1.8164999 0.78500003 2
19.085501 1.9605 0.79500002 2
19.085501 1.9585 0.79500002 2
19.0835 1.9805 0.78899997 2
19.043501 1.9245 0.72600001 2
19.0165 1.8535 0.69800001 2
19.0355 1.8085001 0.75999999 2
19.0485 1.8635 0.764 2
19.0585 1.8904999 0.77600002 2
19.0415 1.8755 0.74199998 2
19.068501 1.9535 0.76899999 2
19.0315 1.9125 0.70300001 2
19.0385 1.9265 0.71399999 2
19.019501 1.8674999 0.69599998 2
19.046499 1.8585 0.76099998 2
19.029499 1.8735 0.71700001 2
19.081499 1.9775 0.787 2
19.011499 1.8795 0.67400002 2
19.036501 1.8904999 0.72500002 2
19.070499 1.9565001 0.77200001 2
19.043501 1.8555 0.75599998 2
19.064501 1.9655 0.75300002 2
19.0415 1.8425 0.759 2
19.039499 1.8895 0.73199999 2
19.0425 1.9065 0.73199999 2
19.040501 1.9265 0.71799999 2
19.0245 1.8295 0.727 2
19.056499 1.8904999 0.76999998 2
19.050501 1.9125 0.745 2
19.050501 1.9455 0.73199999 2
19.0385 1.8435 0.75099999 2
19.060499 1.9464999 0.75300002 2
19.033501 1.8945 0.71600002 2
19.063499 1.9245 0.76999998 2
19.0495 1.8795 0.75999999 2
19.036501 1.9085 0.71700001 2
19.0305 1.9115 0.70099998 2
19.054501 1.9065 0.75700003 2
19.071501 1.9375 0.78200001 2
19.043501 1.9365 0.71899998 2
19.011499 1.8775001 0.67400002 2
19.0665 1.9395 0.76999998 2
19.054501 1.8904999 0.76499999 2
19.0655 1.9475 0.76300001 2
19.0235 1.8325 0.72100002 2
19.071501 1.9565001 0.77399999 2
19.0355 1.7925 0.76700002 2
19.022499 1.8475 0.71200001 2
19.0455 1.9085 0.73699999 2
19.0285 1.9065 0.699 2
19.0205 1.8415 0.71200001 2
19.047501 1.8805 0.755 2
19.040501 1.8465 0.75400001 2
19.0445 1.8825001 0.74699998 2
19.077499 1.9845001 0.77499998 2
19.0275 1.8485 0.72399998 2
19.033501 1.8485 0.736 2
19.060499 1.9225 0.76499999 2
19.026501 1.8315001 0.73000002 2
19.015499 1.8835 0.68000001 2
19.0165 1.8505 0.69800001 2
19.039499 1.9035 0.72500002 2
19.040501 1.9255 0.71700001 2
19.009501 1.8885 0.66399997 2
19.0375 1.8225 0.75800002 2
19.043501 1.8385 0.76599997 2
19.047501 1.9445 0.72600001 2
19.0385 1.8985 0.72500002 2
19.019501 1.8565 0.70200002 2
19.025499 1.8195 0.73299998 2
19.0175 1.8685 0.69099998 2
19.0305 1.8904999 0.70999998 2
19.078501 1.9694999 0.78299999 2
19.0275 1.8975 0.69999999 2
19.061501 1.9655 0.74699998 2
19.026501 1.8635 0.71499997 2
19.0445 1.9225 0.72799999 2
19.0175 1.8724999 0.69 2
19.057501 1.9155 0.75999999 2
19.0385 1.8875 0.73199999 2
19.025499 1.8444999 0.722 2
19.057501 1.9195 0.75999999 2
19.047501 1.9045 0.74400002 2
19.0375 1.8954999 0.72500002 2
19.056499 1.9495 0.74199998 2
19.043501 1.9305 0.722 2
19.057501 1.8985 0.76899999 2
19.0345 1.8935 0.71799999 2
19.0385 1.8405 0.75199997 2
19.032499 1.9015 0.70999998 2
19.0275 1.8494999 0.72399998 2
19.046499 1.8595001 0.76099998 2
19.0275 1.8965 0.70099998 2
19.0245 1.8185 0.73100001 2
19.033501 1.8115 0.75400001 2
19.018499 1.8435 0.70700002 2
19.0275 1.8615 0.71700001 2
19.053499 1.9165 0.75199997 2
19.056499 1.8995 0.76599997 2
19.029499 1.8415 0.73199999 2
19.0375 1.8655 0.73799998 2
19.033501 1.8235 0.74900001 2
19.0655 1.9355 0.76999998 2
19.025499 1.8765 0.70700002 2
19.0285 1.9195 0.69300002 2
19.029499 1.8005 0.75 2
19.074499 1.9715 0.77399999 2
19.067499 1.9315 0.77700001 2
19.0585 1.9445 0.75 2
19.043501 1.8755 0.74599999 2
19.0555 1.9515001 0.74000001 2
19.0455 1.9245 0.73000002 2
19.0805 1.9875 0.77899998 2
19.0755 1.9665 0.778 2
19.0205 1.8345 0.71499997 2
19.081499 1.9665 0.792 2
19.078501 1.9575 0.78899997 2
19.0415 1.8225 0.76700002 2
19.0495 1.9055001 0.74699998 2
19.0275 1.8954999 0.70300001 2
19.0305 1.9125 0.70099998 2
19.040501 1.8674999 0.74400002 2
19.0525 1.9325 0.74299997 2
19.0755 1.9455 0.787 2
19.018499 1.9065 0.676 2
19.0455 1.8985 0.741 2
19.047501 1.8915 0.74900001 2
19.0455 1.8305 0.773 2
19.0425 1.9035 0.73199999 2
19.064501 1.9095 0.77899998 2
19.077499 1.9575 0.78600001 2
19.0165 1.8615 0.69300002 2
19.032499 1.8845 0.71899998 2
19.040501 1.8895 0.73400003 2
19.0345 1.8295 0.74699998 2
19.036501 1.8985 0.722 2
19.081499 1.9735 0.78799999 2
19.0525 1.9245 0.745 2
19.0755 1.9525 0.78399998 2
19.0215 1.8275 0.72000003 2
19.061501 1.9625 0.74699998 2
19.025499 1.8875 0.70300001 2
19.0655 1.9685 0.75400001 2
19.061501 1.8935 0.77999997 2
19.043501 1.8835 0.74400002 2
19.063499 1.9575 0.75599998 2
19.019501 1.8425 0.708 2
19.0285 1.8125 0.74199998 2
19.067499 1.9615 0.76200002 2
19.0345 1.9035 0.71499997 2
19.025499 1.9095 0.69099998 2
19.039499 1.8235 0.76300001 2
19.050501 1.9464999 0.73000002 2
19.0345 1.8435 0.741 2
19.064501 1.9345 0.76800001 2
19.064501 1.9565001 0.75800002 2
19.0595 1.9234999 0.76200002 2
19.0735 1.9615 0.77499998 2
19.0795 1.9895 0.77700001 2
19.033501 1.8185 0.75099999 2
19.0385 1.8435 0.75 2
19.0275 1.8935 0.70300001 2
18.9995 2.0655 0.55699998 2
19.0175 2.1215 0.54100001 2
18.990499 2.0204999 0.56300002 2
19.0175 1.9865 0.53100002 2
18.981501 2.1005001 0.57999998 2
19.025499 2.0574999 0.52700001 2
19.004499 2.0785 0.55199999 2
19.011499 1.9395 0.53299999 2
19.0285 2.0905001 0.52700001 2
19.0035 2.0925 0.55500001 2
19.011499 2.0114999 0.53899997 2
19.0175 2.1115 0.54000002 2
18.9925 2.0875001 0.56599998 2
19.0145 1.9705 0.53200001 2
18.988501 2.0504999 0.56800002 2
19.026501 2.1235001 0.53200001 2
19.001499 2.0604999 0.55400002 2
19.019501 1.9985 0.52899998 2
19.018499 2.0645001 0.53500003 2
19.011499 2.0174999 0.53899997 2
19.0105 2.0155001 0.54100001 2
19.029499 2.0964999 0.52600002 2
18.9895 2.0795 0.56900001 2
18.9825 2.0885 0.57800001 2
19.002501 1.9395 0.54299998 2
18.9785 2.1034999 0.583 2
19.008499 2.1164999 0.551 2
19.0205 2.1115 0.537 2
19.008499 1.9275 0.53600001 2
19.0245 2.1085 0.53299999 2
19.019501 2.0465 0.53299999 2
19.0035 2.0225 0.54900002 2
18.995501 2.0655 0.56099999 2
19.008499 2.0195 0.54299998 2
19.0215 2.0815001 0.53399998 2
19.018499 2.1005001 0.53899997 2
19.0065 2.1125 0.55199999 2
19.0105 2.1164999 0.54799998 2
18.995501 2.0455 0.56 2
19.0065 1.9105 0.53600001 2
18.9925 2.0864999 0.56599998 2
19.036501 2.1164999 0.51999998 2
19.005501 1.9445 0.54000002 2
19.001499 1.9605 0.54500002 2
19.0065 1.9755 0.54100001 2
19.001499 1.9464999 0.54500002 2
19.0245 2.0834999 0.53100002 2
19.005501 1.9955 0.54400003 2
18.988501 2.0725 0.56999999 2
18.995501 2.0204999 0.55800003 2
19.0105 1.9995 0.53899997 2
19.0285 2.1025 0.52700001 2
18.9835 2.0795 0.57599998 2
19.012501 1.9665 0.53500003 2
19.009501 2.0365 0.54400003 2
19.0075 2.0185001 0.54299998 2
18.995501 2.1145 0.565 2
19.004499 2.1215 0.55599999 2
19.0285 2.0994999 0.52700001 2
19.0075 1.9775 0.54000002 2
19.002501 2.0565 0.55199999 2
18.9895 2.0615001 0.56699997 2
19.0035 2.0135 0.54799998 2
19.0105 2.0374999 0.54299998 2
18.995501 2.0095 0.55699998 2
18.9855 2.1215 0.57700002 2
19.0305 2.1224999 0.52700001 2
19.0035 2.0934999 0.55500001 2
18.998501 2.1034999 0.56099999 2
19.0065 1.9425 0.53899997 2
19.0065 1.9785 0.542 2
18.994499 2.1105001 0.56599998 2
19.011499 2.0315001 0.54100001 2
18.9935 2.0795 0.565 2
19.0035 2.0225 0.54900002 2
19.011499 1.9555 0.53399998 2
18.994499 2.0385001 0.56099999 2
19.0105 2.0014999 0.53899997 2
19.019501 2.0014999 0.52899998 2
18.990499 2.0895 0.56900001 2
19.0075 1.9405 0.537 2
18.997499 2.1185 0.56300002 2
19.0305 2.0905001 0.52399999 2
19.0305 2.0875001 0.52399999 2
19.004499 2.0235 0.54699999 2
19.0065 2.0355 0.54699999 2
19.0175 2.0014999 0.53100002 2
19.002501 1.9935 0.54699999 2
18.9965 2.0255001 0.55699998 2
19.011499 2.0955 0.54500002 2
19.0355 2.1224999 0.52100003 2
19.0065 2.0465 0.54799998 2
18.9995 2.0265 0.55400002 2
18.9935 2.1125 0.56699997 2
19.0105 1.9895 0.53899997 2
19.0065 1.9755 0.54100001 2
18.9855 2.1164999 0.57700002 2
19.0145 2.0144999 0.53600001 2
18.997499 2.1034999 0.56199998 2
18.990499 2.0755 0.56800002 2
18.994499 2.0875001 0.56400001 2
18.9865 2.0715001 0.57200003 2
18.990499 2.1264999 0.57099998 2
19.0215 2.1375 0.52999997 2
18.9835 2.1385 0.57300001 2
18.9855 2.1454999 0.56699997 2
18.9935 2.1505001 0.55500001 2
18.990499 2.1524999 0.55800003 2
18.9965 2.1524999 0.55199999 2
18.9865 2.1394999 0.56900001 2
19.0105 2.1515 0.537 2
18.984501 2.1255 0.57800001 2
19.015499 2.1415 0.53500003 2
18.9765 2.1264999 0.58600003 2
19.005501 2.1335001 0.551 2
19.002501 2.1415 0.55000001 2
19.008499 2.1505001 0.53899997 2
19.0165 2.1405001 0.53500003 2
18.987499 2.1565001 0.56 2
19.018499 2.1335001 0.53600001 2
19.0145 2.1345 0.54000002 2
18.9895 2.1394999 0.565 2
19.011499 2.1415 0.54000002 2
19.0065 2.1445 0.54400003 2
19.005501 2.1424999 0.546 2
18.995501 2.1315 0.56199998 2
18.991501 2.1485 0.55900002 2
19.0205 2.1435001 0.52899998 2
19.0445 1.9135 0.50700003 2
19.046499 1.7265 0.52499998 2
19.0075 1.9015 0.53500003 2
19.025499 1.8555 0.52600002 2
19.0165 1.8795 0.52999997 2
19.0455 1.8845 0.509 2
19.0415 1.8705 0.51300001 2
19.039499 1.7925 0.523 2
19.0315 1.8435 0.523 2
19.0215 1.8755 0.52700001 2
19.0345 1.7945 0.52600002 2
19.026501 1.8945 0.52200001 2
19.0175 1.8765 0.52999997 2
19.039499 1.8045 0.52100003 2
19.011499 1.9055001 0.53200001 2
19.0275 1.8155 0.52899998 2
19.0455 1.8695 0.50999999 2
19.0425 1.8415 0.51599997 2
19.0245 1.8555 0.52700001 2
19.043501 1.8065 0.51800001 2
19.0415 1.7474999 0.52600002 2
19.0355 1.8605 0.51899999 2
19.0385 1.8155 0.52100003 2
19.025499 1.8185 0.52999997 2
19.0345 1.8235 0.523 2
19.039499 1.8415 0.51700002 2
19.033501 1.8145 0.52499998 2
19.0245 1.8674999 0.52600002 2
19.036501 1.8685 0.51700002 2
19.043501 1.7875 0.52100003 2
19.039499 1.8695 0.514 2
19.040501 1.8405 0.51700002 2
19.0415 1.8015 0.51999998 2
19.0315 1.8785 0.51999998 2
19.0415 1.7485 0.52600002 2
19.0235 1.8985 0.523 2
19.0285 1.8415 0.52499998 2
19.015499 1.9065 0.52899998 2
19.039499 1.8125 0.52100003 2
19.0425 1.8415 0.51499999 2
19.0285 1.8674999 0.523 2
19.0425 1.8895 0.50999999 2
19.039499 1.8225 0.51999998 2
19.0275 1.8855 0.52200001 2
19.033501 1.7815 0.528 2
19.0345 1.8715 0.51800001 2
19.0355 1.8775001 0.51700002 2
19.0315 1.8535 0.523 2
19.0345 1.9815 0.51599997 2
19.0165 1.9735 0.52999997 2
19.0105 1.9215 0.53299999 2
19.026501 1.9875 0.523 2
19.0235 1.9675 0.52499998 2
19.0445 1.9575 0.50800002 2
19.0385 1.9505 0.51200002 2
19.026501 1.9715 0.523 2
19.012501 1.9275 0.53200001 2
19.0245 1.9715 0.523 2
19.0425 1.9495 0.509 2
19.036501 1.9694999 0.514 2
19.036501 1.9655 0.51499999 2
19.0245 2.0125 0.52499998 2
19.0135 1.9335001 0.53100002 2
19.039499 2.0285001 0.514 2
19.026501 1.9175 0.51999998 2
19.0165 1.9625 0.52999997 2
19.029499 2.0005 0.52100003 2
19.039499 2.0775001 0.51599997 2
19.018499 1.9575 0.528 2
19.0245 1.9705 0.523 2
19.0345 1.9365 0.51499999 2
19.0315 1.9414999 0.51700002 2
19.0375 1.9635 0.51300001 2
19.0275 1.9935 0.52200001 2
19.0285 2.0525 0.52399999 2
19.040501 2.0604999 0.51499999 2
19.022499 1.9485 0.52399999 2
19.0345 2.0085001 0.51800001 2
19.0385 1.9694999 0.51300001 2
19.029499 1.9875 0.52100003 2
19.0375 2.0474999 0.51700002 2
19.0285 2.0455 0.523 2
19.011499 1.9315 0.53200001 2
19.036501 2.0985 0.51899999 2
19.0425 2.0044999 0.51099998 2
19.0175 1.9285001 0.528 2
19.025499 1.9675 0.523 2
19.0315 1.9495 0.51700002 2
19.022499 1.9184999 0.523 2
19.0215 1.9785 0.52600002 2
19.026501 2.0155001 0.52399999 2
19.0425 1.9515001 0.509 2
19.0345 2.0695 0.51999998 2
19.0355 2.1075001 0.51999998 2
19.025499 1.9205 0.52100003 2
19.036501 2.0804999 0.51800001 2
19.025499 1.9455 0.52200001 2
19.018499 1.9735 0.52899998 2
19.025499 1.9325 0.52200001 2
19.0175 1.9105 0.52700001 2
19.0245 1.8164999 0.53100002 2
19.009501 1.8225 0.537 2
19.005501 1.8235 0.53899997 2
19.025499 1.8135 0.53100002 2
19.0165 1.8385 0.53399998 2
19.008499 1.8355 0.537 2
19.0105 1.8185 0.537 2
19.001499 1.8275 0.54000002 2
19.008499 1.8765 0.53500003 2
19.015499 1.8305 0.53399998 2
18.9995 1.8405 0.54000002 2
19.0035 1.8415 0.53899997 2
19.004499 1.8525 0.53799999 2
19.005501 1.8195 0.53899997 2
19.0105 1.8575 0.53500003 2
19.008499 1.8945 0.53500003 2
18.9995 1.8625 0.54000002 2
19.008499 1.8315001 0.537 2
19.008499 1.8775001 0.53500003 2
19.008499 1.8745 0.53500003 2
19.0145 1.8145 0.53500003 2
18.591499 1.8935 0.428 2
18.584499 1.9595 0.44100001 2
18.5865 2.0385001 0.42500001 2
18.599501 1.8935 0.40599999 2
18.595501 1.8085001 0.42500001 2
18.5975 1.8275 0.41999999 2
18.585501 2.0365 0.42699999 2
18.6015 1.8485 0.403 2
18.6005 1.8415 0.40799999 2
18.588499 1.9924999 0.42500001 2
18.5905 1.9694999 0.41999999 2
18.585501 1.9575 0.43799999 2
18.5945 1.9295 0.414 2
18.5935 1.8565 0.42699999 2
18.5895 1.8515 0.43900001 2
18.5905 1.9085 0.43000001 2
18.599501 1.8425 0.41 2
18.5875 1.8115 0.44800001 2
18.5905 1.7875 0.442 2
18.606501 1.8275 0.39199999 2
18.5825 2.0125 0.44 2
18.584499 1.8605 0.45100001 2
18.5905 1.8355 0.43799999 2
18.584499 2.0125 0.435 2
18.5825 2.0325 0.435 2
18.5895 1.8595001 0.43799999 2
18.5865 1.9315 0.43599999 2
18.5865 1.9765 0.43099999 2
18.592501 1.8635 0.43000001 2
18.592501 1.9555 0.417 2
18.591499 1.9924999 0.41600001 2
18.5905 1.9095 0.42899999 2
18.5875 1.9835 0.428 2
18.581499 2.0745001 0.433 2
18.581499 2.0445001 0.43700001 2
18.5975 1.8565 0.414 2
18.584499 1.9875 0.43599999 2
18.5965 1.8455 0.419 2
18.5875 1.9105 0.43599999 2
18.5895 1.9475 0.426 2
18.5905 1.9775 0.41999999 2
18.5875 1.9395 0.43399999 2
18.6035 1.8695 0.398 2
18.5835 2.0204999 0.435 2
18.602501 1.8385 0.403 2
18.599501 1.8375 0.41100001 2
18.5935 1.8135 0.43099999 2
18.5875 2.0204999 0.42300001 2
18.588499 1.8285 0.44299999 2
18.591499 1.8715 0.43000001 2
18.6045 1.8465 0.39700001 2
18.5975 1.9305 0.40700001 2
18.5895 2.0114999 0.419 2
18.588499 1.9245 0.43200001 2
18.5965 1.8405 0.41999999 2
18.5825 2.0035 0.44100001 2
18.5835 2.0685 0.43000001 2
18.5895 1.9365 0.42899999 2
18.5895 2.0105 0.419 2
18.591499 1.7965 0.44 2
18.585501 2.0144999 0.43099999 2
18.595501 1.8825001 0.419 2
18.5975 1.8724999 0.412 2
18.595501 1.8065 0.426 2
18.585501 1.9525 0.43599999 2
18.592501 1.9755 0.41600001 2
18.5875 2.0095 0.42399999 2
18.602501 1.8665 0.39899999 2
18.5895 1.8205 0.44299999 2
18.592501 1.9815 0.41499999 2
18.5945 1.8444999 0.42399999 2
18.5905 1.8815 0.43099999 2
18.585501 2.0385001 0.426 2
18.599501 1.8505 0.41100001 2
18.584499 1.9805 0.43700001 2
18.591499 1.8285 0.43599999 2
18.5935 1.9075 0.421 2
18.585501 1.8655 0.44800001 2
18.591499 1.8565 0.433 2
18.5875 1.8825001 0.43900001 2
18.5935 1.9485 0.41600001 2
18.5895 1.9085 0.43200001 2
18.5905 1.9335001 0.426 2
18.592501 1.9605 0.41499999 2
18.588499 1.9085 0.433 2
18.5935 1.8755 0.42500001 2
18.588499 1.8465 0.442 2
18.592501 1.8954999 0.42399999 2
18.5965 1.8225 0.421 2
18.581499 2.0445001 0.43700001 2
18.5905 1.8125 0.44 2
18.5945 1.8164999 0.42699999 2
18.585501 1.8065 0.45300001 2
18.581499 2.0695 0.43399999 2
18.595501 1.9145 0.414 2
18.595501 1.9245 0.41299999 2
18.581499 2.0825 0.43200001 2
18.588499 1.9355 0.43099999 2
18.5975 1.8545001 0.41499999 2
18.581499 2.0845001 0.433 2
18.5875 1.8995 0.43799999 2
18.5975 1.8735 0.412 2
18.5965 1.9425 0.40900001 2
18.5945 1.9295 0.41499999 2
18.5835 2.0645001 0.42899999 2
18.592501 1.9655 0.417 2
18.5875 1.8435 0.44600001 2
18.5875 1.9715 0.43000001 2
18.5825 2.0534999 0.435 2
18.5865 1.9515001 0.43599999 2
18.585501 1.9414999 0.43900001 2
18.585501 1.9425 0.43900001 2
18.598499 1.8585 0.41299999 2
18.5935 1.9135 0.421 2
18.595501 1.9595 0.40200001 2
18.5835 2.0755 0.42500001 2
18.5875 2.0385001 0.42199999 2
18.581499 2.0945001 0.42899999 2
18.5935 1.9744999 0.405 2
18.595501 1.9585 0.403 2
18.592501 1.9805 0.412 2
18.5875 2.0325 0.41999999 2
18.6005 1.8954999 0.40000001 2
18.592501 1.9935 0.40700001 2
18.591499 2.0035 0.40799999 2
18.5965 1.9405 0.40200001 2
18.602501 1.8765 0.39500001 2
18.6075 1.8245 0.38999999 2
18.5825 2.0895 0.42899999 2
18.595501 1.9615 0.40000001 2
18.5975 1.9355 0.40000001 2
18.599501 1.9075 0.40000001 2
18.599501 1.9095 0.403 2
18.592501 1.9915 0.40400001 2
18.5825 2.0895 0.42199999 2
18.581499 2.0955 0.41800001 2
18.5905 2.0125 0.405 2
18.585501 2.0615001 0.40900001 2
18.5825 2.0855 0.421 2
18.5835 2.0795 0.42199999 2
18.5835 2.0785 0.41800001 2
18.584499 2.0695 0.41499999 2
18.581499 2.0964999 0.42899999 2
18.5825 2.0855 0.41800001 2
18.5895 2.0244999 0.40799999 2
18.581499 2.0915 0.412 2
18.588499 2.0285001 0.403 2
18.6355 1.7355 0.42699999 2
18.592501 1.7745 0.45100001 2
18.6185 1.7645 0.42300001 2
18.6015 1.7654999 0.447 2
18.650499 1.7415 0.398 2
18.6325 1.7465 0.41999999 2
18.6075 1.7665 0.43599999 2
18.623501 1.7365 0.44499999 2
18.622499 1.7515 0.43000001 2
18.640499 1.7295001 0.42699999 2
18.615499 1.7445 0.449 2
18.637501 1.7435 0.41600001 2
18.647499 1.7525001 0.391 2
18.6145 1.7625 0.43099999 2
18.6325 1.7525001 0.414 2
18.643499 1.7525001 0.39700001 2
18.6485 1.7215 0.42199999 2
18.6525 1.7125 0.426 2
18.613501 1.7585 0.43599999 2
18.6145 1.7595 0.43399999 2
18.6485 1.7115 0.433 2
18.6485 1.7415 0.40000001 2
18.643499 1.7465 0.403 2
18.6325 1.7345001 0.433 2
18.6315 1.7335 0.43599999 2
18.630501 1.7445 0.42500001 2
18.6465 1.7415 0.403 2
18.643499 1.7505 0.39899999 2
18.627501 1.7575001 0.417 2
18.6075 1.7625 0.44100001 2
18.6325 1.7545 0.412 2
18.629499 1.7625 0.40799999 2
18.6015 1.7635 0.44999999 2
18.595501 1.7685 0.454 2
