# .PCD v0.7 - Point Cloud Data file format
VERSION 0.7
FIELDS x y z label
SIZE 4 4 4 4
TYPE F F F U
COUNT 1 1 1 1
WIDTH 1653
HEIGHT 1
VIEWPOINT 0 0 0 1 0 0 0
POINTS 1653
DATA ascii
18.9105 2.6475 0.44 2
18.740499 2.6854999 0.463 2
18.7705 2.6965001 0.458 2
18.754499 2.5715001 0.465 2
18.8755 2.6015 0.44600001 2
18.7665 2.5425 0.46399999 2
18.8055 2.6945 0.45300001 2
18.945499 2.6705 0.43399999 2
18.7565 2.5764999 0.465 2
18.8465 2.6925001 0.44800001 2
18.7335 2.7145 0.463 2
18.856501 2.5955 0.449 2
18.7645 2.6594999 0.461 2
18.706499 2.6624999 0.46900001 2
18.8815 2.6815 0.44299999 2
18.7255 2.6505001 0.46700001 2
18.738501 2.6705 0.46399999 2
18.7715 2.5434999 0.46399999 2
18.873501 2.6505001 0.44499999 2
18.7875 2.6695001 0.45699999 2
18.7145 2.6435001 0.46799999 2
18.789499 2.6445 0.45699999 2
18.727501 2.7184999 0.46399999 2
18.886499 2.6765001 0.442 2
18.8335 2.6724999 0.44999999 2
18.727501 2.6405001 0.46700001 2
18.7605 2.5125 0.46599999 2
18.7985 2.6684999 0.45500001 2
18.7075 2.6845 0.46799999 2
18.765499 2.5585001 0.46399999 2
18.7815 2.6824999 0.45699999 2
18.817499 2.6375 0.454 2
18.922501 2.6854999 0.43700001 2
18.8605 2.6665001 0.44600001 2
18.7085 2.6684999 0.46799999 2
18.751499 2.5825 0.465 2
18.7815 2.6995001 0.45699999 2
18.7335 2.7075 0.463 2
18.8895 2.6135001 0.44400001 2
18.818501 2.6815 0.45199999 2
18.783501 2.6605 0.458 2
18.914499 2.6854999 0.43799999 2
18.8395 2.6055 0.45100001 2
18.713499 2.6375 0.46900001 2
18.790501 2.5815001 0.46000001 2
18.762501 2.6294999 0.46200001 2
18.7745 2.5604999 0.463 2
18.7775 2.7075 0.45699999 2
18.8745 2.6754999 0.44400001 2
18.7535 2.5014999 0.46799999 2
18.936501 2.6865001 0.435 2
18.7995 2.6715 0.45500001 2
18.789499 2.5895 0.45899999 2
18.8265 2.6554999 0.45199999 2
18.789499 2.6335001 0.458 2
18.737499 2.6155 0.46599999 2
18.8335 2.6815 0.44999999 2
18.740499 2.6215 0.465 2
18.730499 2.6995001 0.46399999 2
18.8085 2.6015 0.456 2
18.9375 2.6905 0.43399999 2
18.8335 2.5734999 0.45300001 2
18.852501 2.6984999 0.447 2
18.790501 2.6075001 0.45899999 2
18.748501 2.5804999 0.46599999 2
18.897499 2.6454999 0.442 2
18.952499 2.6754999 0.433 2
18.807501 2.6145 0.456 2
18.849501 2.6405001 0.449 2
18.7365 2.7005 0.463 2
18.7745 2.5504999 0.463 2
18.748501 2.5074999 0.46799999 2
18.786501 2.6745 0.45699999 2
18.744499 2.5525 0.46700001 2
18.855499 2.6665001 0.447 2
18.769501 2.5374999 0.46399999 2
18.890499 2.6635001 0.442 2
18.747499 2.6554999 0.463 2
18.8995 2.6435001 0.44100001 2
18.738501 2.6975 0.463 2
18.7925 2.5834999 0.45899999 2
18.782499 2.6875 0.45699999 2
18.9475 2.6654999 0.43399999 2
18.7365 2.4974999 0.47 2
18.7715 2.7025001 0.458 2
18.984501 2.6925001 0.42699999 2
18.870501 2.6675 0.44499999 2
18.873501 2.6115 0.44600001 2
18.831499 2.6615 0.45100001 2
18.818501 2.5945001 0.45500001 2
18.779499 2.6925001 0.45699999 2
18.8955 2.6705 0.44100001 2
18.967501 2.6745 0.43000001 2
18.769501 2.6925001 0.45899999 2
18.9485 2.6784999 0.433 2
18.7885 2.5604999 0.46000001 2
18.7875 2.6815 0.45699999 2
18.789499 2.6264999 0.458 2
18.859501 2.7054999 0.44499999 2
18.709499 2.6454999 0.46900001 2
18.855499 2.7045 0.44600001 2
18.835501 2.6015 0.45199999 2
18.8675 2.6585 0.44600001 2
18.901501 2.6945 0.43900001 2
18.960501 2.6845 0.43099999 2
18.7575 2.5715001 0.465 2
18.814501 2.6465001 0.454 2
18.738501 2.6485 0.465 2
18.8535 2.6585 0.44800001 2
18.769501 2.6045001 0.46200001 2
18.8755 2.7035 0.44299999 2
18.7565 2.6624999 0.46200001 2
18.8405 2.6745 0.449 2
18.9585 2.6754999 0.43200001 2
18.8505 2.5755 0.45100001 2
18.804501 2.6305001 0.456 2
18.7155 2.6775 0.46700001 2
18.884501 2.6865001 0.442 2
18.751499 2.5365 0.46700001 2
18.886499 2.6235001 0.44400001 2
18.790501 2.5595 0.46000001 2
18.953501 2.6925001 0.43200001 2
18.7185 2.6795001 0.46700001 2
18.7325 2.5785 0.46799999 2
18.9165 2.6954999 0.43700001 2
18.7925 2.6185 0.458 2
18.772499 2.6264999 0.461 2
18.845501 2.5985 0.45100001 2
18.7295 2.6264999 0.46700001 2
18.7325 2.5595 0.46900001 2
18.814501 2.6754999 0.45300001 2
18.811501 2.6175001 0.45500001 2
18.744499 2.6145 0.465 2
18.870501 2.6245 0.44600001 2
18.7815 2.5604999 0.46200001 2
18.831499 2.5585001 0.454 2
18.9065 2.6565001 0.44 2
18.8715 2.7025001 0.44400001 2
18.7435 2.5495 0.46700001 2
18.7435 2.6895001 0.463 2
18.776501 2.6965001 0.458 2
18.779499 2.5365 0.463 2
18.8295 2.5994999 0.45300001 2
18.8715 2.5975001 0.447 2
18.7325 2.6995001 0.46399999 2
18.747499 2.5925 0.465 2
18.9105 2.6665001 0.43900001 2
18.7785 2.7105 0.45699999 2
18.8965 2.6684999 0.44100001 2
18.745501 2.5975001 0.465 2
18.848499 2.6665001 0.44800001 2
18.872499 2.6675 0.44499999 2
18.803499 2.6435001 0.45500001 2
18.800501 2.6905 0.454 2
18.752501 2.5095 0.46799999 2
18.807501 2.5465 0.458 2
18.876499 2.6305001 0.44499999 2
18.7145 2.6914999 0.46700001 2
18.8785 2.6125 0.44600001 2
18.7875 2.6175001 0.45899999 2
18.713499 2.6435001 0.46900001 2
18.813499 2.6194999 0.45500001 2
18.734501 2.5795 0.46799999 2
18.7495 2.7075 0.461 2
18.747499 2.5474999 0.46700001 2
18.8165 2.5885 0.456 2
18.936501 2.6865001 0.435 2
18.9335 2.6424999 0.43700001 2
18.7505 2.6815 0.46200001 2
18.855499 2.5785 0.44999999 2
18.779499 2.6594999 0.458 2
18.8545 2.6754999 0.447 2
18.838499 2.5655 0.45300001 2
18.7335 2.7095001 0.463 2
18.8985 2.6815 0.44 2
18.807501 2.5915 0.45699999 2
18.9105 2.6745 0.43900001 2
18.775499 2.5645001 0.46200001 2
18.9135 2.6654999 0.43900001 2
18.751499 2.6194999 0.46399999 2
18.886499 2.6364999 0.44400001 2
18.754499 2.6585 0.46200001 2
18.8575 2.6335001 0.44800001 2
18.856501 2.6624999 0.447 2
18.810499 2.6115 0.456 2
18.786501 2.5915 0.46000001 2
18.8255 2.6605 0.45199999 2
18.7535 2.5165 0.46700001 2
18.7815 2.5875001 0.461 2
18.755501 2.6185 0.463 2
18.772499 2.5335 0.46399999 2
18.730499 2.6765001 0.465 2
18.859501 2.6385 0.447 2
18.963499 2.6665001 0.43099999 2
18.883499 2.6215 0.44499999 2
18.7085 2.7184999 0.46700001 2
18.8585 2.6605 0.447 2
18.8925 2.6435001 0.442 2
18.7115 2.7114999 0.46700001 2
18.7665 2.5775001 0.463 2
18.8395 2.6515 0.44999999 2
18.7185 2.6735001 0.46700001 2
18.793501 2.5545001 0.46000001 2
18.8855 2.6194999 0.44400001 2
18.8375 2.5834999 0.45300001 2
18.876499 2.7065001 0.44299999 2
18.904499 2.6435001 0.44100001 2
18.7355 2.6795001 0.46399999 2
18.814501 2.6245 0.454 2
18.790501 2.5685 0.46000001 2
18.938499 2.6594999 0.435 2
18.7365 2.7145 0.463 2
18.7395 2.6135001 0.46599999 2
18.797501 2.6925001 0.45500001 2
18.7125 2.6975 0.46700001 2
18.7605 2.5495 0.465 2
18.869499 2.6645 0.44499999 2
18.8405 2.6654999 0.449 2
18.758499 2.5415001 0.46599999 2
18.946501 2.6795001 0.433 2
18.848499 2.6355 0.449 2
18.9685 2.6835001 0.43000001 2
18.803499 2.6185 0.456 2
18.9125 2.6905 0.43799999 2
18.841499 2.6094999 0.45100001 2
18.782499 2.5895 0.46000001 2
18.8475 2.6895001 0.447 2
18.8505 2.5785 0.45100001 2
18.8225 2.6155 0.454 2
18.7705 2.6375 0.461 2
18.824499 2.6285 0.45300001 2
18.9485 2.6905 0.433 2
18.734501 2.5265 0.47 2
18.8615 2.6815 0.44600001 2
18.751499 2.6335001 0.463 2
18.752501 2.6984999 0.461 2
18.8985 2.6654999 0.44100001 2
18.852501 2.6435001 0.44800001 2
18.7745 2.6805 0.458 2
18.8195 2.5525 0.456 2
18.7775 2.7065001 0.45699999 2
18.883499 2.6505001 0.44400001 2
18.9375 2.6875 0.43399999 2
18.7435 2.5204999 0.46799999 2
18.820499 2.5625 0.456 2
18.7815 2.5905001 0.461 2
18.928499 2.6684999 0.43599999 2
18.820499 2.5895 0.45500001 2
18.845501 2.6224999 0.44999999 2
18.922501 2.6585 0.43799999 2
18.740499 2.6085 0.46599999 2
18.821501 2.6465001 0.45300001 2
18.7715 2.5595 0.463 2
18.8445 2.6684999 0.449 2
18.800501 2.6575 0.45500001 2
18.7785 2.7045 0.45699999 2
18.8645 2.4315 0.45300001 2
18.838499 2.4015 0.43099999 2
18.8535 2.4224999 0.44600001 2
18.838499 2.3985 0.42899999 2
18.865499 2.4275 0.449 2
18.8675 2.4245 0.447 2
18.8505 2.4115 0.43799999 2
18.849501 2.4054999 0.433 2
18.8515 2.4224999 0.447 2
18.8605 2.4205 0.44400001 2
18.849501 2.4254999 0.44999999 2
18.835501 2.4015 0.43200001 2
18.8515 2.4075 0.435 2
18.8505 2.4205 0.44499999 2
18.9195 2.5804999 0.44600001 2
18.886499 2.5934999 0.44600001 2
18.8435 2.5295 0.458 2
18.9375 2.6294999 0.43799999 2
18.9035 2.5664999 0.449 2
18.8225 2.5285001 0.45899999 2
18.863501 2.4865 0.46200001 2
18.8605 2.5725 0.45100001 2
18.748501 2.4825001 0.47 2
18.931499 2.6125 0.44100001 2
18.827499 2.4665 0.46700001 2
18.863501 2.4725001 0.46399999 2
18.865499 2.5785 0.449 2
18.814501 2.4614999 0.46900001 2
18.8675 2.4625001 0.46599999 2
18.887501 2.6025 0.44499999 2
18.890499 2.5555 0.45100001 2
18.8055 2.5044999 0.463 2
18.8475 2.4985001 0.46200001 2
18.849501 2.4705 0.465 2
18.922501 2.6205001 0.44 2
18.9505 2.6454999 0.435 2
18.8085 2.5285001 0.46000001 2
18.8085 2.5374999 0.458 2
18.8365 2.5465 0.456 2
18.8615 2.4775 0.46399999 2
18.863501 2.5595 0.45199999 2
18.8465 2.5144999 0.45899999 2
18.866501 2.4625001 0.46599999 2
18.9415 2.6015 0.442 2
18.8505 2.5325 0.45699999 2
18.9275 2.6034999 0.442 2
18.790501 2.4725001 0.46900001 2
18.8305 2.4805 0.465 2
18.856501 2.4955001 0.46200001 2
18.862499 2.5295 0.45699999 2
18.945499 2.6055 0.44100001 2
18.870501 2.5815001 0.449 2
18.8715 2.5504999 0.45300001 2
18.8255 2.4765 0.46599999 2
18.9135 2.6025 0.44299999 2
18.8265 2.5255001 0.45899999 2
18.8545 2.5065 0.46000001 2
18.935499 2.6105001 0.44100001 2
18.814501 2.5434999 0.45699999 2
18.908501 2.6164999 0.44100001 2
18.8815 2.5905001 0.447 2
18.9375 2.5955 0.44299999 2
18.9135 2.5734999 0.447 2
18.827499 2.5185001 0.46000001 2
18.8445 2.5675001 0.45199999 2
18.879499 2.5335 0.45500001 2
18.8535 2.4605 0.46700001 2
18.870501 2.5734999 0.44999999 2
18.7505 2.4805 0.47 2
18.943501 2.6355 0.43700001 2
18.9625 2.6375 0.435 2
18.887501 2.5174999 0.45699999 2
18.8915 2.5695 0.449 2
18.8235 2.4705 0.46700001 2
18.9335 2.6335001 0.43799999 2
18.804501 2.5174999 0.46200001 2
18.956499 2.6285 0.43700001 2
18.8535 2.4635 0.46599999 2
18.876499 2.5355 0.45500001 2
18.8615 2.4565001 0.46700001 2
18.900499 2.5915 0.44600001 2
18.852501 2.5244999 0.458 2
18.901501 2.6025 0.44400001 2
18.9205 2.5634999 0.44800001 2
18.8675 2.5804999 0.449 2
18.852501 2.5144999 0.45899999 2
18.862499 2.5074999 0.46000001 2
18.796499 2.4844999 0.46700001 2
18.790501 2.5085001 0.46399999 2
18.796499 2.5035 0.46399999 2
18.8575 2.4614999 0.46599999 2
18.8505 2.5425 0.45500001 2
18.880501 2.4944999 0.46000001 2
18.9065 2.5925 0.44499999 2
18.936501 2.5955 0.44299999 2
18.876499 2.5174999 0.45699999 2
18.842501 2.5065 0.461 2
18.893499 2.5634999 0.44999999 2
18.841499 2.5114999 0.46000001 2
18.779499 2.4895 0.46700001 2
18.8165 2.5225 0.46000001 2
18.8615 2.4575 0.46700001 2
18.8265 2.4895 0.46399999 2
18.886499 2.5915 0.44600001 2
18.8475 2.4925001 0.46200001 2
18.9035 2.5685 0.449 2
18.838499 2.4814999 0.465 2
18.772499 2.4974999 0.46599999 2
18.811501 2.4944999 0.46399999 2
18.8195 2.5125 0.461 2
18.8335 2.5325 0.458 2
18.9105 2.5964999 0.44400001 2
18.820499 2.5095 0.46200001 2
18.8985 2.5574999 0.44999999 2
18.9265 2.6135001 0.44100001 2
18.761499 2.4925001 0.46799999 2
18.943501 2.6385 0.43599999 2
18.8365 2.5415001 0.456 2
18.8685 2.4935 0.461 2
18.890499 2.5315001 0.45500001 2
18.9375 2.6424999 0.43599999 2
18.8675 2.5695 0.45100001 2
18.929501 2.6085 0.44100001 2
18.9545 2.6185 0.43799999 2
18.7745 2.5035 0.465 2
18.907499 2.5994999 0.44400001 2
18.7985 2.4735 0.46799999 2
18.8365 2.4914999 0.463 2
18.943501 2.6394999 0.43599999 2
18.7735 2.5085001 0.465 2
18.9135 2.6085 0.442 2
18.807501 2.5235 0.461 2
18.9445 2.6355 0.43700001 2
18.9645 2.6324999 0.43599999 2
18.8395 2.4614999 0.46700001 2
18.9095 2.6125 0.442 2
18.8365 2.4965 0.463 2
18.842501 2.5335 0.45699999 2
18.9685 2.6394999 0.435 2
18.8255 2.4805 0.46599999 2
18.7885 2.4795001 0.46799999 2
18.911501 2.6034999 0.44299999 2
18.834499 2.5144999 0.46000001 2
18.8125 2.5244999 0.46000001 2
18.803499 2.4825001 0.46700001 2
18.8295 2.4965 0.463 2
18.918501 2.5574999 0.449 2
18.880501 2.4844999 0.46200001 2
18.8895 2.5365 0.454 2
18.9035 2.6125 0.442 2
18.8745 2.5695 0.44999999 2
18.821501 2.4775 0.46599999 2
18.8575 2.5764999 0.44999999 2
18.7775 2.4965 0.46599999 2
18.911501 2.6064999 0.44299999 2
18.835501 2.4914999 0.463 2
18.782499 2.5065 0.46399999 2
18.8165 2.5385001 0.458 2
18.8465 2.5235 0.458 2
18.865499 2.5804999 0.449 2
18.8515 2.4985001 0.461 2
18.8675 2.5304999 0.456 2
18.9135 2.5625 0.449 2
18.942499 2.6475 0.435 2
18.7985 2.4814999 0.46700001 2
18.8365 2.4635 0.46700001 2
18.8435 2.5545001 0.454 2
18.8165 2.4675 0.46799999 2
18.907499 2.5344999 0.45300001 2
18.8085 2.5225 0.461 2
18.7605 2.4855001 0.46900001 2
18.8615 2.5055001 0.46000001 2
18.828501 2.5315001 0.458 2
18.9715 2.6465001 0.433 2
18.797501 2.4735 0.46799999 2
18.859501 2.4614999 0.46599999 2
18.754499 2.4825001 0.46900001 2
18.8465 2.5195 0.45899999 2
18.9585 2.6465001 0.43399999 2
18.821501 2.5125 0.461 2
18.9125 2.6085 0.442 2
18.9415 2.6064999 0.44100001 2
18.8445 2.5065 0.461 2
18.8785 2.5445001 0.45300001 2
18.796499 2.5185001 0.46200001 2
18.811501 2.5044999 0.463 2
18.894501 2.5255001 0.45500001 2
18.8825 2.5925 0.44600001 2
18.8715 2.4855001 0.46200001 2
18.9375 2.6375 0.43700001 2
18.8815 2.4895 0.461 2
18.893499 2.8125 0.456 2
18.8545 2.7105 0.44600001 2
18.9235 2.7915001 0.449 2
18.987499 2.7314999 0.43200001 2
18.970501 2.7644999 0.43900001 2
18.936501 2.7495 0.44100001 2
18.862499 2.7835 0.456 2
18.828501 2.7614999 0.45699999 2
18.883499 2.7335 0.44600001 2
18.974501 2.7585001 0.43799999 2
18.810499 2.7495 0.458 2
18.893499 2.7655001 0.449 2
18.8585 2.7655001 0.454 2
18.869499 2.7915001 0.456 2
18.938499 2.7895 0.447 2
18.859501 2.7235 0.447 2
18.8195 2.7595 0.458 2
18.804501 2.7744999 0.46200001 2
18.8645 2.7865 0.456 2
18.880501 2.7265 0.44499999 2
18.7505 2.7495 0.465 2
18.9695 2.7925 0.44400001 2
18.747499 2.7395 0.46399999 2
18.8535 2.7635 0.454 2
18.963499 2.8234999 0.449 2
18.8265 2.7795 0.46000001 2
18.946501 2.7265 0.43700001 2
18.9405 2.7644999 0.44299999 2
18.9685 2.7365 0.435 2
18.8255 2.7314999 0.45300001 2
18.7635 2.7465 0.463 2
18.9785 2.7255001 0.43200001 2
18.9205 2.8055 0.45199999 2
18.949499 2.8195 0.44999999 2
18.8755 2.7735 0.45300001 2
18.8755 2.7715001 0.45300001 2
18.890499 2.7395 0.44600001 2
18.9475 2.7744999 0.44400001 2
18.7715 2.7375 0.461 2
18.935499 2.7555001 0.442 2
18.710501 2.7235 0.46599999 2
18.9835 2.7715001 0.43900001 2
18.914499 2.7774999 0.44800001 2
18.872499 2.7985001 0.45699999 2
18.9025 2.8125 0.45500001 2
18.848499 2.7595 0.454 2
18.915501 2.7755001 0.44800001 2
18.7465 2.7425001 0.465 2
18.886499 2.7225001 0.44400001 2
18.786501 2.7335 0.458 2
18.9825 2.7605 0.43700001 2
18.886499 2.7585001 0.449 2
18.9445 2.7025001 0.433 2
18.9925 2.7314999 0.43099999 2
18.7715 2.7175 0.458 2
18.8785 2.7495 0.449 2
18.7875 2.7595 0.46200001 2
18.8815 2.7865 0.454 2
18.862499 2.7335 0.449 2
18.7995 2.7184999 0.454 2
18.931499 2.7474999 0.442 2
18.953501 2.8045001 0.447 2
18.9265 2.8295 0.454 2
18.8405 2.7395 0.45199999 2
18.929501 2.7225001 0.43799999 2
18.949499 2.7244999 0.43599999 2
18.842501 2.7265 0.44999999 2
18.845501 2.7425001 0.45199999 2
18.8435 2.7895 0.45899999 2
18.942499 2.7065001 0.43399999 2
18.943501 2.8434999 0.45500001 2
18.870501 2.7865 0.45500001 2
18.9025 2.7435 0.44499999 2
18.9335 2.7695 0.44499999 2
18.970501 2.8534999 0.45199999 2
18.8445 2.7825 0.458 2
18.856501 2.7635 0.454 2
18.928499 2.8125 0.45199999 2
18.7495 2.7395 0.46399999 2
18.8985 2.7335 0.44400001 2
18.831499 2.7365 0.45300001 2
18.9995 2.7054999 0.42699999 2
18.9165 2.8004999 0.45199999 2
18.931499 2.7565 0.44299999 2
18.922501 2.7934999 0.44999999 2
18.960501 2.7365 0.43599999 2
18.884501 2.7314999 0.44499999 2
18.9835 2.7405 0.43399999 2
18.852501 2.7895 0.458 2
18.9235 2.7895 0.449 2
18.9205 2.7565 0.44400001 2
18.9515 2.8255 0.45100001 2
18.9505 2.8464999 0.454 2
18.738501 2.7365 0.465 2
18.8055 2.7614999 0.46000001 2
18.8025 2.7295001 0.45500001 2
18.9265 2.8115001 0.45199999 2
18.7985 2.7305 0.456 2
18.9105 2.7265 0.44100001 2
18.931499 2.7625 0.44400001 2
18.974501 2.8525 0.45199999 2
18.8965 2.7555001 0.447 2
18.9785 2.8395 0.449 2
18.8295 2.7565 0.456 2
18.8335 2.7205 0.44999999 2
18.7435 2.7235 0.46200001 2
18.8915 2.7284999 0.44400001 2
18.814501 2.7755001 0.461 2
18.8755 2.7934999 0.456 2
18.845501 2.7835 0.458 2
18.8645 2.7844999 0.456 2
18.8325 2.7665 0.45699999 2
18.9235 2.7804999 0.44800001 2
18.9165 2.7565 0.44499999 2
18.929501 2.7825 0.447 2
18.938499 2.8415 0.45500001 2
18.8405 2.7695 0.45699999 2
18.8575 2.7985001 0.45899999 2
18.7265 2.7275 0.465 2
18.9545 2.7175 0.43399999 2
18.921499 2.7755001 0.447 2
18.9795 2.7325001 0.433 2
18.990499 2.7305 0.43200001 2
18.7745 2.7365 0.46000001 2
18.981501 2.7005 0.428 2
18.960501 2.7725 0.442 2
18.8715 2.7965 0.45699999 2
18.9235 2.7585001 0.44400001 2
18.9795 2.7005 0.428 2
18.9405 2.7375 0.43900001 2
18.9725 2.8104999 0.44600001 2
18.7435 2.7365 0.46399999 2
18.928499 2.7255001 0.43900001 2
18.953501 2.7855 0.44400001 2
18.9135 2.8304999 0.456 2
18.8575 2.7505 0.45199999 2
18.7945 2.7455001 0.45899999 2
18.973499 2.7655001 0.43900001 2
18.904499 2.7084999 0.43900001 2
18.9475 2.7355001 0.43799999 2
18.988501 2.7365 0.433 2
18.981501 2.7755001 0.44 2
18.9625 2.7314999 0.435 2
18.8685 2.7565 0.45100001 2
18.9475 2.7175 0.435 2
18.9555 2.7555001 0.44 2
18.827499 2.7284999 0.45199999 2
18.9035 2.8055 0.454 2
18.7715 2.7365 0.461 2
18.981501 2.7525001 0.43599999 2
18.8445 2.7815001 0.458 2
18.901501 2.7225001 0.442 2
18.800501 2.7704999 0.46200001 2
18.991501 2.7485001 0.43399999 2
18.855499 2.7145 0.447 2
18.9205 2.7465 0.44299999 2
18.9125 2.7135 0.43900001 2
18.995501 2.7314999 0.43099999 2
18.936501 2.7435 0.44 2
18.8575 2.7435 0.45100001 2
18.970501 2.7284999 0.43399999 2
18.9865 2.7095001 0.42899999 2
18.8435 2.7835 0.458 2
18.9245 2.7265 0.43900001 2
18.859501 2.7655001 0.454 2
18.995501 2.7375 0.43200001 2
18.8815 2.7105 0.44299999 2
18.928499 2.7934999 0.449 2
18.9655 2.8355 0.44999999 2
18.966499 2.7135 0.43200001 2
18.9655 2.8475001 0.45199999 2
18.9445 2.7505 0.44 2
18.946501 2.7435 0.43900001 2
18.8475 2.7835 0.458 2
18.865499 2.7135 0.44499999 2
18.953501 2.7235 0.435 2
18.890499 2.7644999 0.449 2
18.929501 2.8364999 0.45500001 2
18.9695 2.8364999 0.44999999 2
18.782499 2.7214999 0.45699999 2
18.949499 2.7344999 0.43700001 2
18.863501 2.7844999 0.456 2
18.8985 2.7655001 0.449 2
18.9485 2.7895 0.44600001 2
18.775499 2.7585001 0.463 2
18.9615 2.7835 0.44299999 2
18.959499 2.7744999 0.442 2
18.952499 2.7425001 0.43799999 2
18.8925 2.7244999 0.44299999 2
18.8825 2.7075 0.442 2
18.970501 2.7365 0.435 2
18.8055 2.7314999 0.45500001 2
18.911501 2.8065 0.45300001 2
18.970501 2.8215001 0.44800001 2
18.977501 2.7934999 0.44299999 2
18.918501 2.7535 0.44400001 2
18.9825 2.7815001 0.44 2
18.890499 2.8185 0.458 2
18.849501 2.7795 0.45699999 2
18.9265 2.7735 0.44600001 2
18.8755 2.7685001 0.45199999 2
18.9125 2.7474999 0.44400001 2
18.939501 2.7825 0.44600001 2
18.9715 2.7774999 0.44100001 2
18.8825 2.8025 0.456 2
18.7875 2.7425001 0.45899999 2
18.946501 2.7934999 0.447 2
18.9575 2.7474999 0.43799999 2
18.852501 2.7414999 0.45100001 2
18.8605 2.7135 0.44600001 2
18.914499 2.7295001 0.44100001 2
18.9135 2.8055 0.45300001 2
18.824499 2.7674999 0.45899999 2
18.863501 2.7205 0.44600001 2
18.936501 2.7514999 0.442 2
18.9135 2.7614999 0.44600001 2
18.886499 2.7544999 0.44800001 2
18.880501 2.7574999 0.44999999 2
18.9165 2.7995 0.45100001 2
18.8985 2.8225 0.45699999 2
18.915501 2.7614999 0.44600001 2
18.945499 2.7054999 0.43399999 2
18.966499 2.7455001 0.43700001 2
18.981501 2.7744999 0.43900001 2
18.9575 2.7915001 0.44499999 2
18.841499 2.7525001 0.454 2
18.9485 2.7574999 0.44100001 2
18.9265 2.7874999 0.44800001 2
18.963499 2.8405001 0.45100001 2
18.9715 2.8034999 0.44499999 2
18.8755 2.8004999 0.45699999 2
18.943501 2.7295001 0.43700001 2
18.9195 2.7255001 0.44 2
18.8785 2.7704999 0.45199999 2
18.7605 2.7414999 0.463 2
18.7495 2.7325001 0.463 2
18.754499 2.7495 0.465 2
18.856501 2.7614999 0.45300001 2
18.9095 2.8275001 0.456 2
18.9995 2.6965001 0.42500001 2
18.945499 2.8204999 0.45100001 2
18.8535 2.7344999 0.44999999 2
18.879499 2.7295001 0.44600001 2
18.931499 2.7235 0.43799999 2
18.9415 2.7375 0.43900001 2
18.8395 2.7555001 0.45500001 2
18.9685 2.7295001 0.43399999 2
18.918501 2.8245001 0.45500001 2
18.9785 2.8475001 0.45100001 2
18.8335 2.7365 0.45300001 2
18.907499 2.7965 0.45199999 2
18.914499 2.7574999 0.44499999 2
18.8925 2.7065001 0.44100001 2
18.8575 2.7184999 0.447 2
18.8435 2.7945001 0.46000001 2
18.9585 2.7235 0.435 2
18.988501 2.7625 0.43700001 2
18.935499 2.7344999 0.43900001 2
18.7915 2.7385001 0.458 2
18.9795 2.7375 0.43399999 2
18.8125 2.7695 0.46000001 2
18.849501 2.7915001 0.45899999 2
18.8225 2.7165 0.45100001 2
18.900499 2.5174999 0.456 2
19.0035 2.4535 0.465 2
19.0175 2.5495 0.449 2
19.0245 2.6515 0.43200001 2
19.0205 2.5005 0.45699999 2
18.9935 2.5215001 0.454 2
18.9205 2.4665 0.46399999 2
18.994499 2.6224999 0.43700001 2
19.102501 2.5105 0.454 2
18.9695 2.5934999 0.442 2
19.0345 2.5005 0.45699999 2
18.9035 2.5225 0.45500001 2
18.9545 2.5195 0.45500001 2
18.931499 2.4605 0.465 2
19.046499 2.5455 0.449 2
19.043501 2.5474999 0.449 2
19.0215 2.4565001 0.46399999 2
18.9725 2.5025001 0.45699999 2
18.9445 2.5005 0.458 2
19.0315 2.6175001 0.43700001 2
18.943501 2.5655 0.447 2
18.973499 2.5864999 0.44299999 2
18.949499 2.5434999 0.45100001 2
18.9555 2.5905001 0.44299999 2
19.0175 2.6125 0.43799999 2
18.8965 2.4744999 0.463 2
18.9715 2.4795001 0.461 2
18.995501 2.5295 0.45199999 2
19.0425 2.4454999 0.465 2
18.9245 2.5445001 0.45100001 2
18.9445 2.4744999 0.46200001 2
19.025499 2.6475 0.43200001 2
19.061501 2.4725001 0.461 2
18.991501 2.5515001 0.449 2
18.991501 2.4454999 0.46599999 2
19.0305 2.6185 0.43700001 2
18.9765 2.5265 0.45300001 2
18.9765 2.5745001 0.44499999 2
19.002501 2.6264999 0.43599999 2
18.942499 2.5834999 0.44400001 2
18.995501 2.5975001 0.44100001 2
19.060499 2.5804999 0.44299999 2
19.032499 2.4645 0.463 2
18.963499 2.5495 0.44999999 2
19.0075 2.4865 0.45899999 2
18.9415 2.4844999 0.461 2
19.106501 2.4944999 0.456 2
18.9645 2.6005001 0.44100001 2
19.0275 2.5745001 0.44400001 2
18.998501 2.5815001 0.44400001 2
18.9265 2.4825001 0.461 2
18.995501 2.5415001 0.44999999 2
19.009501 2.4575 0.46399999 2
19.002501 2.5845001 0.44299999 2
19.0345 2.5185001 0.454 2
18.9785 2.5304999 0.45199999 2
18.9475 2.4705 0.463 2
18.8995 2.4875 0.461 2
18.939501 2.4914999 0.46000001 2
18.8785 2.4495001 0.46700001 2
19.050501 2.5085001 0.45500001 2
18.8985 2.4765 0.463 2
18.9625 2.4495001 0.46599999 2
18.884501 2.4584999 0.46599999 2
19.0275 2.4454999 0.46599999 2
19.068501 2.5144999 0.454 2
19.0105 2.5725 0.44499999 2
19.0285 2.5295 0.45199999 2
18.9265 2.5215001 0.45500001 2
19.0035 2.5515001 0.449 2
18.998501 2.5985 0.44100001 2
19.032499 2.6175001 0.43700001 2
19.012501 2.4695001 0.46200001 2
18.9965 2.6545 0.43200001 2
18.8785 2.4655001 0.465 2
19.039499 2.5795 0.44299999 2
18.8925 2.4985001 0.45899999 2
19.070499 2.4974999 0.456 2
19.0835 2.4965 0.456 2
18.911501 2.4925001 0.46000001 2
18.9265 2.5645001 0.44800001 2
19.0655 2.4575 0.463 2
18.8885 2.4925001 0.46000001 2
18.9785 2.6494999 0.433 2
18.9825 2.6085 0.44 2
19.046499 2.4714999 0.461 2
19.0285 2.5355 0.45100001 2
19.053499 2.4605 0.463 2
19.0585 2.4855001 0.45899999 2
18.9125 2.4855001 0.461 2
19.036501 2.5114999 0.45500001 2
19.0765 2.4955001 0.45699999 2
18.995501 2.5474999 0.449 2
19.061501 2.5095 0.45500001 2
19.025499 2.5734999 0.44499999 2
18.9135 2.4835 0.461 2
19.036501 2.4525001 0.46399999 2
18.990499 2.4614999 0.46399999 2
18.970501 2.4955001 0.458 2
19.0805 2.5355 0.44999999 2
18.8925 2.4895 0.461 2
19.1015 2.4675 0.461 2
18.9825 2.6085 0.44 2
19.001499 2.4495001 0.46599999 2
19.0345 2.4895 0.458 2
19.0345 2.5315001 0.45100001 2
18.973499 2.5725 0.44600001 2
19.0495 2.4855001 0.45899999 2
18.997499 2.6475 0.433 2
18.953501 2.5604999 0.44800001 2
18.9375 2.4675 0.46399999 2
19.002501 2.5014999 0.45699999 2
18.9685 2.5964999 0.442 2
19.056499 2.5044999 0.456 2
18.981501 2.6535001 0.43200001 2
19.1045 2.4484999 0.46399999 2
18.949499 2.5504999 0.44999999 2
19.0165 2.5534999 0.44800001 2
19.0035 2.6884999 0.426 2
18.9135 2.4944999 0.46000001 2
19.019501 2.6175001 0.43700001 2
18.9755 2.5365 0.45199999 2
18.9585 2.5404999 0.45100001 2
18.966499 2.6345 0.435 2
19.085501 2.4895 0.458 2
18.974501 2.5515001 0.449 2
19.0235 2.6205001 0.43700001 2
19.029499 2.6185 0.43700001 2
18.995501 2.5485001 0.449 2
18.995501 2.5144999 0.45500001 2
18.995501 2.5285001 0.45300001 2
18.8965 2.4675 0.46399999 2
18.952499 2.5604999 0.44800001 2
18.9095 2.4885001 0.461 2
19.1015 2.5035 0.45500001 2
19.0655 2.5105 0.454 2
19.0175 2.6435001 0.433 2
18.987499 2.5625 0.447 2
19.0165 2.4495001 0.465 2
19.018499 2.6255 0.43599999 2
18.9645 2.6164999 0.43900001 2
18.945499 2.5864999 0.44400001 2
19.078501 2.4995 0.456 2
18.952499 2.5625 0.44800001 2
18.9485 2.5044999 0.45699999 2
19.0695 2.5085001 0.45500001 2
19.1015 2.4484999 0.46399999 2
19.032499 2.4775 0.46000001 2
19.0075 2.6315 0.435 2
18.8955 2.4755001 0.463 2
18.998501 2.4995 0.45699999 2
19.0735 2.5395 0.44999999 2
19.0315 2.4445 0.46599999 2
18.9695 2.6194999 0.43799999 2
19.106501 2.4475 0.46399999 2
19.0245 2.4775 0.461 2
19.009501 2.5295 0.45199999 2
19.0425 2.5834999 0.44299999 2
19.025499 2.6285 0.43599999 2
18.9405 2.4635 0.46399999 2
19.0035 2.4635 0.463 2
19.018499 2.6224999 0.43700001 2
19.050501 2.4435 0.46599999 2
19.061501 2.4625001 0.463 2
18.9965 2.4885001 0.45899999 2
18.9995 2.4465001 0.46599999 2
18.9925 2.6185 0.43799999 2
19.002501 2.5025001 0.45699999 2
18.9865 2.5395 0.45100001 2
18.967501 2.5395 0.45100001 2
19.056499 2.4925001 0.458 2
18.956499 2.6064999 0.44 2
18.8965 2.4584999 0.46599999 2
18.953501 2.5905001 0.44299999 2
18.9105 2.5095 0.45699999 2
18.907499 2.4595001 0.465 2
18.987499 2.6535001 0.43200001 2
18.901501 2.5185001 0.456 2
19.033501 2.6294999 0.435 2
18.936501 2.5545001 0.449 2
18.9095 2.5335 0.45300001 2
19.026501 2.5585001 0.447 2
19.004499 2.4575 0.46399999 2
19.026501 2.4995 0.45699999 2
19.0515 2.5555 0.447 2
18.966499 2.6175001 0.43799999 2
18.9715 2.4545 0.465 2
19.0905 2.5265 0.45100001 2
18.970501 2.5365 0.45199999 2
19.0135 2.5244999 0.45300001 2
19.0375 2.5465 0.449 2
18.8915 2.4995 0.45899999 2
18.9475 2.5615001 0.44800001 2
18.870501 2.4525001 0.46700001 2
19.050501 2.4914999 0.458 2
19.040501 2.5585001 0.447 2
18.880501 2.4545 0.46700001 2
18.911501 2.5335 0.45300001 2
18.995501 2.5065 0.456 2
19.005501 2.5885 0.442 2
18.966499 2.4825001 0.461 2
18.9685 2.4605 0.46399999 2
19.0355 2.6305001 0.435 2
18.943501 2.5455 0.45100001 2
19.008499 2.6545 0.43099999 2
18.9895 2.6335001 0.435 2
18.866501 2.4505 0.46700001 2
19.0695 2.4865 0.458 2
18.9655 2.6275001 0.43700001 2
18.973499 2.4705 0.463 2
19.009501 2.6545 0.43099999 2
18.991501 2.6094999 0.43900001 2
18.994499 2.5195 0.454 2
19.0315 2.5385001 0.44999999 2
18.887501 2.4814999 0.46200001 2
19.0005 2.5945001 0.442 2
19.040501 2.6145 0.43799999 2
18.9965 2.6415 0.43399999 2
19.092501 2.4475 0.46399999 2
18.922501 2.5525 0.44999999 2
19.0105 2.5044999 0.456 2
18.9025 2.4484999 0.46700001 2
18.997499 2.4805 0.46000001 2
19.0625 2.5845001 0.442 2
18.936501 2.5695 0.447 2
19.106501 2.4425001 0.465 2
18.9245 2.4905 0.46000001 2
18.915501 2.4655001 0.46399999 2
18.9755 2.6224999 0.43700001 2
19.009501 2.6745 0.428 2
18.870501 2.4584999 0.46599999 2
19.0555 2.5625 0.44600001 2
19.0905 2.5255001 0.45100001 2
19.0375 2.6294999 0.435 2
19.0285 2.4655001 0.463 2
19.1255 2.4714999 0.46000001 2
18.9615 2.5485001 0.44999999 2
18.9835 2.6064999 0.44 2
19.040501 2.4545 0.46399999 2
19.032499 2.5925 0.44100001 2
18.915501 2.5204999 0.45500001 2
18.9275 2.4495001 0.46700001 2
19.061501 2.5365 0.44999999 2
18.9895 2.6235001 0.43700001 2
19.019501 2.6494999 0.43200001 2
19.0725 2.5344999 0.44999999 2
19.064501 2.5655 0.44499999 2
19.019501 2.5704999 0.44499999 2
18.966499 2.4944999 0.45899999 2
19.0355 2.5295 0.45199999 2
19.047501 2.4655001 0.46200001 2
18.942499 2.5415001 0.45100001 2
19.0865 2.4675 0.461 2
18.9835 2.6324999 0.43599999 2
18.967501 2.4895 0.46000001 2
18.994499 2.4684999 0.463 2
18.9655 2.6115 0.43900001 2
18.9555 2.5174999 0.45500001 2
18.9625 2.6224999 0.43799999 2
18.967501 2.4844999 0.46000001 2
19.012501 2.5985 0.44100001 2
18.946501 2.4575 0.465 2
18.9965 2.4765 0.461 2
19.0795 2.5395 0.449 2
18.9895 2.6324999 0.435 2
18.9765 2.4705 0.46200001 2
18.953501 2.5465 0.44999999 2
18.980499 2.6424999 0.43399999 2
19.0105 2.5295 0.45199999 2
18.967501 2.5174999 0.45500001 2
18.9695 2.5985 0.44100001 2
19.012501 2.5315001 0.45199999 2
19.036501 2.5525 0.44800001 2
19.1005 2.4895 0.45699999 2
18.952499 2.4484999 0.46599999 2
18.8815 2.4844999 0.46200001 2
19.0135 2.4935 0.458 2
18.9645 2.4895 0.45899999 2
19.005501 2.6145 0.43799999 2
19.0235 2.5915 0.442 2
18.9505 2.5474999 0.44999999 2
19.001499 2.5745001 0.44499999 2
18.893499 2.4914999 0.46000001 2
19.019501 2.4495001 0.465 2
18.9275 2.5325 0.45300001 2
18.9025 2.5005 0.45899999 2
18.9265 2.4554999 0.46599999 2
18.997499 2.6345 0.435 2
19.119499 2.4765 0.45899999 2
19.005501 2.5504999 0.449 2
18.9925 2.5664999 0.44600001 2
19.067499 2.4605 0.463 2
18.943501 2.5845001 0.44400001 2
19.018499 2.6465001 0.433 2
18.8885 2.4784999 0.463 2
19.0145 2.4835 0.46000001 2
18.990499 2.5604999 0.447 2
19.0105 2.4584999 0.46399999 2
18.987499 2.5525 0.449 2
18.9725 2.5425 0.45100001 2
18.931499 2.5215001 0.45500001 2
18.893499 2.4655001 0.465 2
18.9235 2.5534999 0.44999999 2
18.914499 2.4965 0.45899999 2
18.9615 2.6224999 0.43700001 2
18.897499 2.4995 0.45899999 2
19.0005 2.5934999 0.442 2
18.9575 2.5074999 0.45699999 2
19.0165 2.4865 0.45899999 2
19.056499 2.4495001 0.465 2
19.0375 2.4795001 0.46000001 2
19.106501 2.5035 0.45500001 2
19.002501 2.4765 0.461 2
19.0035 2.6754999 0.428 2
18.9765 2.5014999 0.45699999 2
19.0515 2.5734999 0.44400001 2
19.026501 2.5465 0.449 2
18.9995 2.5655 0.44600001 2
19.0305 2.5195 0.45300001 2
18.9415 2.4545 0.46599999 2
18.9895 2.5795 0.44400001 2
19.064501 2.5804999 0.44299999 2
18.990499 2.6665001 0.43000001 2
18.988501 2.4525001 0.465 2
18.990499 2.5775001 0.44400001 2
18.9935 2.5625 0.447 2
18.9615 2.5975001 0.442 2
18.9065 2.5035 0.458 2
19.068501 2.4495001 0.46399999 2
19.012501 2.4495001 0.465 2
18.9505 2.5025001 0.458 2
19.018499 2.5304999 0.45199999 2
18.9715 2.4944999 0.45899999 2
19.0895 2.4885001 0.458 2
18.9405 2.5374999 0.45199999 2
19.0275 2.6085 0.43900001 2
19.0625 2.4825001 0.45899999 2
18.9695 2.6355 0.435 2
19.0375 2.6245 0.43599999 2
19.0695 2.4814999 0.45899999 2
19.009501 2.4995 0.45699999 2
19.018499 2.5934999 0.44100001 2
19.019501 2.5225 0.45300001 2
19.0035 2.5825 0.44299999 2
18.939501 2.5265 0.454 2
19.0965 2.4784999 0.45899999 2
18.981501 2.4935 0.45899999 2
18.9585 2.6085 0.44 2
18.963499 2.4505 0.46599999 2
19.0005 2.5244999 0.45300001 2
18.973499 2.5785 0.44499999 2
18.945499 2.5174999 0.45500001 2
18.959499 2.6055 0.44 2
18.9965 2.6754999 0.428 2
19.0555 2.5185001 0.45300001 2
18.921499 2.5485001 0.44999999 2
18.9785 2.5515001 0.449 2
19.1005 2.7205 0.45300001 2
19.099501 2.6285 0.45300001 2
19.1115 2.6795001 0.456 2
19.0235 2.6675 0.43099999 2
19.0735 2.6735001 0.44499999 2
19.119499 2.5114999 0.458 2
19.091499 2.5675001 0.44999999 2
19.116501 2.6364999 0.458 2
19.109501 2.6645 0.456 2
19.068501 2.7135 0.44400001 2
19.0765 2.6505001 0.44600001 2
19.1175 2.6705 0.458 2
19.134501 2.5085001 0.463 2
19.1245 2.6565001 0.46000001 2
19.112499 2.6975 0.45699999 2
19.1185 2.6545 0.458 2
19.084499 2.7284999 0.449 2
19.053499 2.6215 0.44 2
19.1255 2.4895 0.46000001 2
19.0755 2.7225001 0.44600001 2
19.0585 2.7084999 0.44100001 2
19.057501 2.7165 0.44100001 2
19.056499 2.6565001 0.44100001 2
19.0945 2.6355 0.45100001 2
19.091499 2.5855 0.45100001 2
19.0825 2.7075 0.44800001 2
19.036501 2.6905 0.435 2
19.120501 2.7084999 0.45899999 2
19.0865 2.6505001 0.449 2
19.105499 2.5785 0.454 2
19.0805 2.5764999 0.447 2
19.112499 2.6494999 0.45699999 2
19.070499 2.6695001 0.44499999 2
19.116501 2.5834999 0.458 2
19.102501 2.7414999 0.454 2
19.113501 2.5055001 0.45699999 2
19.095501 2.7344999 0.45199999 2
19.106501 2.6465001 0.45500001 2
19.0495 2.6194999 0.43799999 2
19.122499 2.5285001 0.45899999 2
19.105499 2.5295 0.454 2
19.0515 2.6305001 0.43900001 2
19.1105 2.5174999 0.456 2
19.1215 2.6364999 0.45899999 2
19.0355 2.7105 0.435 2
19.095501 2.6665001 0.45199999 2
19.106501 2.5455 0.45500001 2
19.113501 2.7195001 0.45699999 2
19.0975 2.7425001 0.45199999 2
19.0315 2.6745 0.43399999 2
19.1115 2.5005 0.456 2
19.0245 2.6645 0.43200001 2
19.063499 2.5905001 0.442 2
19.0585 2.6765001 0.44100001 2
19.0555 2.6865001 0.44 2
19.025499 2.6835001 0.43200001 2
19.1075 2.5675001 0.45500001 2
19.1185 2.5834999 0.458 2
19.113501 2.5734999 0.45699999 2
19.1175 2.5695 0.458 2
19.1385 2.4635 0.46399999 2
19.106501 2.5945001 0.45500001 2
19.0515 2.6765001 0.43900001 2
19.0945 2.7365 0.45100001 2
19.050501 2.6935 0.43900001 2
19.1285 2.4885001 0.461 2
19.1185 2.7175 0.458 2
19.0825 2.5664999 0.44800001 2
19.033501 2.6695001 0.43399999 2
19.1045 2.7135 0.454 2
19.0945 2.5655 0.45100001 2
19.063499 2.6445 0.442 2
19.071501 2.5885 0.44499999 2
19.054501 2.7005 0.44 2
19.0875 2.5704999 0.449 2
19.0695 2.7275 0.44400001 2
19.112499 2.5994999 0.456 2
19.088499 2.6155 0.44999999 2
19.0825 2.6585 0.44800001 2
19.091499 2.6784999 0.45100001 2
19.040501 2.6854999 0.43599999 2
19.019501 2.6754999 0.43000001 2
19.098499 2.7165 0.45300001 2
19.113501 2.5985 0.45699999 2
19.074499 2.6935 0.44600001 2
19.112499 2.6745 0.45699999 2
19.0655 2.6245 0.44299999 2
19.070499 2.6285 0.44400001 2
19.064501 2.6224999 0.44299999 2
19.061501 2.6715 0.442 2
19.1175 2.6215 0.458 2
19.0515 2.7095001 0.43900001 2
19.077499 2.6055 0.447 2
19.1015 2.6075001 0.45300001 2
19.0515 2.6055 0.43900001 2
19.0905 2.5675001 0.44999999 2
19.077499 2.6394999 0.44600001 2
19.1075 2.5934999 0.45500001 2
19.0735 2.6615 0.44499999 2
19.106501 2.6675 0.45500001 2
19.0755 2.6275001 0.44600001 2
19.0895 2.6954999 0.44999999 2
19.1215 2.5165 0.45899999 2
19.1415 2.4535 0.465 2
19.0965 2.6765001 0.45199999 2
19.036501 2.7054999 0.435 2
19.0235 2.6884999 0.43099999 2
19.081499 2.6605 0.44800001 2
19.0455 2.6884999 0.43700001 2
19.0795 2.6175001 0.447 2
19.081499 2.6034999 0.44800001 2
19.122499 2.6675 0.45899999 2
19.0655 2.6164999 0.44299999 2
19.115499 2.5645001 0.45699999 2
19.0895 2.5775001 0.44999999 2
19.1015 2.6335001 0.45300001 2
19.116501 2.5445001 0.458 2
19.1005 2.5565 0.45300001 2
19.1315 2.5044999 0.46200001 2
19.0245 2.6705 0.43200001 2
19.0945 2.6085 0.45100001 2
19.1085 2.5725 0.45500001 2
19.0865 2.5445001 0.449 2
19.116501 2.7184999 0.458 2
19.120501 2.6805 0.45899999 2
19.0945 2.6724999 0.45100001 2
19.033501 2.6675 0.43399999 2
19.1185 2.6715 0.458 2
19.1115 2.5285001 0.456 2
19.119499 2.7514999 0.45899999 2
19.0865 2.6055 0.449 2
19.0945 2.5664999 0.45100001 2
19.0205 2.6865001 0.43099999 2
19.061501 2.5905001 0.442 2
19.133499 2.4575 0.46200001 2
19.092501 2.6085 0.45100001 2
19.0695 2.5755 0.44400001 2
19.140499 2.4495001 0.46399999 2
19.0735 2.5964999 0.44499999 2
19.0865 2.6524999 0.449 2
19.1105 2.5755 0.456 2
19.115499 2.6554999 0.45699999 2
19.0795 2.6554999 0.447 2
19.127501 2.5504999 0.461 2
19.1045 2.5655 0.454 2
19.116501 2.4944999 0.45699999 2
19.0905 2.6995001 0.44999999 2
19.068501 2.5764999 0.44400001 2
19.0695 2.7084999 0.44400001 2
19.116501 2.6984999 0.458 2
19.0305 2.6765001 0.433 2
19.0595 2.6264999 0.44100001 2
19.123501 2.6815 0.46000001 2
19.029499 2.6575 0.433 2
19.036501 2.6505001 0.435 2
19.032499 2.6724999 0.43399999 2
19.113501 2.5775001 0.45699999 2
19.1085 2.6824999 0.45500001 2
19.102501 2.7095001 0.454 2
19.078501 2.7065001 0.447 2
19.0345 2.6815 0.43399999 2
19.109501 2.5664999 0.456 2
19.056499 2.6235001 0.44100001 2
19.1185 2.5265 0.458 2
19.040501 2.6565001 0.43599999 2
19.068501 2.5845001 0.44400001 2
19.081499 2.6355 0.44800001 2
19.032499 2.6905 0.43399999 2
19.0865 2.6385 0.449 2
19.1105 2.7365 0.456 2
19.033501 2.6925001 0.43399999 2
19.130501 2.5964999 0.461 2
19.0755 2.7155001 0.44600001 2
19.0665 2.6654999 0.44299999 2
19.063499 2.6294999 0.44299999 2
19.070499 2.6505001 0.44499999 2
19.0625 2.6815 0.442 2
19.1075 2.5474999 0.45500001 2
19.116501 2.6145 0.458 2
19.112499 2.5315001 0.456 2
19.0485 2.7125001 0.43799999 2
19.050501 2.6315 0.43900001 2
19.1185 2.6125 0.458 2
19.053499 2.6554999 0.44 2
19.0795 2.6435001 0.447 2
19.126499 2.5695 0.46000001 2
19.1115 2.6294999 0.456 2
19.054501 2.6914999 0.44 2
19.0965 2.5315001 0.45199999 2
19.095501 2.6554999 0.45199999 2
19.0665 2.6575 0.44299999 2
19.1085 2.5634999 0.45500001 2
19.1315 2.5804999 0.46200001 2
19.077499 2.6064999 0.44600001 2
19.068501 2.7214999 0.44400001 2
19.0245 2.7054999 0.43200001 2
19.105499 2.5165 0.454 2
19.1115 2.6754999 0.456 2
19.029499 2.6895001 0.433 2
19.1115 2.6175001 0.456 2
19.019501 2.7385001 0.43700001 2
19.0525 2.7785001 0.45100001 2
18.997499 2.7444999 0.43399999 2
19.012501 2.7525001 0.43799999 2
19.077499 2.7544999 0.45100001 2
18.987499 2.8134999 0.44499999 2
19.078501 2.7874999 0.45699999 2
18.9895 2.8085001 0.44400001 2
19.0215 2.7795 0.44499999 2
19.1045 2.7525001 0.45500001 2
19.056499 2.7844999 0.45300001 2
19.056499 2.7474999 0.44499999 2
19.061501 2.7525001 0.447 2
19.011499 2.7444999 0.43599999 2
18.9995 2.7265 0.43000001 2
19.074499 2.7414999 0.44800001 2
18.987499 2.8355 0.449 2
19.053499 2.7544999 0.44600001 2
19.0725 2.7674999 0.45199999 2
19.0215 2.7244999 0.43399999 2
19.0165 2.7544999 0.43900001 2
19.022499 2.7544999 0.44 2
19.0515 2.7885001 0.45199999 2
19.0135 2.7765 0.44299999 2
19.008499 2.7974999 0.44600001 2
19.009501 2.7184999 0.43099999 2
19.019501 2.7295001 0.435 2
18.9935 2.8545001 0.454 2
19.095501 2.7574999 0.45500001 2
19.0835 2.7614999 0.45300001 2
19.0355 2.8215001 0.45500001 2
19.064501 2.7765 0.45199999 2
19.0135 2.7895 0.44499999 2
19.0735 2.7895 0.45699999 2
19.077499 2.7375 0.447 2
19.084499 2.7655001 0.454 2
19.001499 2.7774999 0.44100001 2
19.053499 2.7425001 0.44400001 2
19.026501 2.8055 0.45100001 2
19.0035 2.8175001 0.449 2
19.0215 2.7874999 0.44600001 2
19.0425 2.8065 0.454 2
19.008499 2.7225001 0.43099999 2
19.070499 2.7665 0.45199999 2
19.0035 2.7835 0.442 2
19.0175 2.7365 0.43599999 2
19.0305 2.8034999 0.45100001 2
19.004499 2.7355001 0.433 2
19.029499 2.8045001 0.45100001 2
19.0235 2.8055 0.44999999 2
19.061501 2.7344999 0.44400001 2
19.0735 2.7825 0.45500001 2
19.053499 2.7704999 0.449 2
19.0665 2.7635 0.44999999 2
19.022499 2.7505 0.44 2
19.0205 2.7895 0.447 2
19.0625 2.7365 0.44400001 2
19.0415 2.8004999 0.45300001 2
19.002501 2.7915001 0.44400001 2
19.0425 2.7855 0.44999999 2
19.008499 2.7865 0.44400001 2
19.040501 2.7785001 0.44800001 2
19.0345 2.7785001 0.447 2
19.047501 2.7685001 0.44800001 2
19.043501 2.7855 0.44999999 2
18.987499 2.8085001 0.44400001 2
19.0005 2.7744999 0.44 2
18.988501 2.8434999 0.45100001 2
19.060499 2.7425001 0.44499999 2
19.0515 2.8055 0.45500001 2
19.067499 2.7425001 0.44600001 2
19.0725 2.7455001 0.44800001 2
18.988501 2.7974999 0.442 2
19.091499 2.7595 0.454 2
19.009501 2.8364999 0.454 2
19.0245 2.8015001 0.44999999 2
18.9965 2.7375 0.43200001 2
19.032499 2.8185 0.45500001 2
19.074499 2.7344999 0.44600001 2
18.994499 2.8355 0.44999999 2
19.0665 2.7395 0.44600001 2
19.0275 2.7715001 0.44499999 2
19.0075 2.7695 0.44 2
19.0065 2.8355 0.45300001 2
19.0905 2.7474999 0.45199999 2
18.997499 2.8034999 0.44499999 2
19.039499 2.7555001 0.44400001 2
18.9995 2.7344999 0.43200001 2
19.0215 2.7795 0.44499999 2
19.060499 2.7774999 0.45199999 2
19.0875 2.7695 0.45500001 2
19.1035 2.7605 0.45699999 2
19.0005 2.7965 0.44400001 2
19.0825 2.7405 0.449 2
19.105499 2.7485001 0.45500001 2
19.0945 2.7644999 0.456 2
18.9995 2.8275001 0.44999999 2
19.061501 2.7865 0.454 2
19.0145 2.8295 0.45300001 2
19.088499 2.7655001 0.45500001 2
19.029499 2.7855 0.44800001 2
19.0585 2.7444999 0.44499999 2
19.022499 2.7365 0.43700001 2
19.029499 2.7155001 0.43399999 2
19.0175 2.7165 0.43200001 2
18.9925 2.8245001 0.44800001 2
19.0655 2.7474999 0.447 2
19.019501 2.7565 0.44 2
19.036501 2.7155001 0.435 2
19.018499 2.7844999 0.44499999 2
19.0585 2.7665 0.449 2
19.025499 2.8004999 0.44999999 2
19.1035 2.7825 0.456 2
19.0345 2.8635001 0.45100001 2
18.9925 2.8594999 0.454 2
19.0285 2.8605001 0.45199999 2
19.0945 2.8594999 0.44800001 2
19.1085 2.8605001 0.44800001 2
19.0825 2.8615 0.449 2
19.119499 2.8264999 0.45100001 2
19.0975 2.8055 0.454 2
18.9995 2.8575001 0.45300001 2
19.0245 2.8594999 0.45199999 2
18.990499 2.8635001 0.45300001 2
19.1115 2.7885001 0.45500001 2
19.0445 2.8185 0.45500001 2
19.0585 2.8445001 0.45199999 2
19.091499 2.8315001 0.45199999 2
19.039499 2.8694999 0.44999999 2
18.994499 2.8585 0.454 2
19.0315 2.8285 0.45500001 2
19.0415 2.8494999 0.45199999 2
19.0975 2.8485 0.449 2
19.1045 2.7945001 0.45500001 2
19.0865 2.8425 0.45100001 2
19.074499 2.7965 0.456 2
19.099501 2.8315001 0.45100001 2
19.098499 2.8724999 0.447 2
19.033501 2.8405001 0.454 2
19.085501 2.8245001 0.45300001 2
19.091499 2.8364999 0.45100001 2
19.1215 2.7844999 0.45500001 2
19.1255 2.8434999 0.449 2
19.098499 2.7934999 0.456 2
19.119499 2.7985001 0.454 2
19.095501 2.8545001 0.449 2
19.0965 2.7765 0.45699999 2
19.0495 2.8505001 0.45199999 2
19.116501 2.8334999 0.44999999 2
19.0355 2.8605001 0.45100001 2
19.1115 2.8385 0.44999999 2
19.0825 2.8525 0.44999999 2
19.0935 2.7925 0.456 2
19.088499 2.8045001 0.45500001 2
18.9965 2.8645 0.45300001 2
19.0865 2.7904999 0.456 2
19.0145 2.8415 0.454 2
19.0975 2.8425 0.44999999 2
19.1085 2.8715 0.447 2
19.1185 2.8724999 0.44600001 2
19.050501 2.8325 0.454 2
19.025499 2.8564999 0.45199999 2
19.116501 2.7895 0.45500001 2
19.0315 2.8345001 0.454 2
19.0825 2.8115001 0.454 2
19.074499 2.8295 0.45300001 2
19.116501 2.8065 0.45300001 2
19.113501 2.8575001 0.44800001 2
19.0825 2.8425 0.45100001 2
19.088499 2.8375001 0.45100001 2
19.0375 2.8625 0.45100001 2
19.1115 2.7715001 0.45699999 2
19.098499 2.8234999 0.45199999 2
19.077499 2.8015001 0.456 2
19.053499 2.8195 0.45500001 2
19.1115 2.8415 0.44999999 2
19.126499 2.8434999 0.449 2
19.130501 2.8375001 0.449 2
19.0965 2.8364999 0.45100001 2
19.113501 2.7704999 0.45699999 2
19.0825 2.8564999 0.449 2
19.1075 2.7735 0.45699999 2
19.0065 2.8455 0.454 2
19.1075 2.7985001 0.454 2
19.039499 2.8605001 0.45100001 2
19.098499 2.8115001 0.45300001 2
19.0075 2.8655 0.45199999 2
19.0415 2.8555 0.45199999 2
19.0175 2.8364999 0.45500001 2
19.0945 2.8534999 0.449 2
19.106501 2.8625 0.44800001 2
19.1255 2.8125 0.45199999 2
19.0175 2.8415 0.454 2
19.0755 2.8375001 0.45199999 2
19.0735 2.7974999 0.456 2
19.1115 2.8145001 0.45300001 2
19.053499 2.8594999 0.45100001 2
19.0945 2.8155 0.45300001 2
19.026501 2.8464999 0.45300001 2
19.0525 2.8705001 0.449 2
19.1255 2.8764999 0.44499999 2
19.063499 2.8615 0.44999999 2
19.0595 2.8385 0.45300001 2
19.0175 2.8605001 0.45199999 2
19.009501 2.8555 0.45300001 2
19.0865 2.8705001 0.44800001 2
19.123501 2.8264999 0.45100001 2
19.1185 2.8375001 0.44999999 2
19.0485 2.8594999 0.45100001 2
19.1455 2.4835 0.46000001 2
19.1555 2.4885001 0.45300001 2
19.1355 2.5485001 0.46200001 2
19.1425 2.5704999 0.456 2
19.144501 2.5485001 0.456 2
19.147499 2.5095 0.45699999 2
19.1425 2.5555 0.45699999 2
19.144501 2.5745001 0.45500001 2
19.150499 2.5785 0.44999999 2
19.157499 2.4865 0.45199999 2
19.1455 2.4545 0.46200001 2
19.1425 2.5685 0.45699999 2
19.123501 2.7235 0.458 2
19.1465 2.4844999 0.45899999 2
19.1485 2.5734999 0.45199999 2
19.123501 2.7145 0.45899999 2
19.147499 2.5165 0.45699999 2
19.143499 2.4805 0.461 2
19.143499 2.6105001 0.45300001 2
19.144501 2.4795001 0.461 2
19.136499 2.5574999 0.461 2
19.134501 2.5695 0.461 2
19.126499 2.7105 0.45699999 2
19.1565 2.5455 0.449 2
19.1495 2.5135 0.45500001 2
19.147499 2.5144999 0.45699999 2
19.143499 2.5574999 0.456 2
19.1325 2.5825 0.46200001 2
19.1355 2.5655 0.461 2
19.129499 2.6594999 0.458 2
19.1415 2.5485001 0.45899999 2
19.1605 2.5135 0.449 2
19.1285 2.6445 0.46000001 2
19.143499 2.5655 0.456 2
19.143499 2.4714999 0.46200001 2
19.1455 2.5905001 0.45300001 2
19.129499 2.6155 0.461 2
19.1355 2.5545001 0.46200001 2
19.1465 2.4865 0.45899999 2
19.1415 2.4885001 0.46200001 2
19.1565 2.5304999 0.44999999 2
19.1245 2.7255001 0.458 2
19.1395 2.5615001 0.45899999 2
19.1595 2.4805 0.45100001 2
19.1455 2.5074999 0.45899999 2
19.123501 2.7065001 0.45899999 2
19.1465 2.5664999 0.454 2
19.151501 2.4755001 0.45699999 2
19.127501 2.6775 0.45899999 2
19.1415 2.4974999 0.46200001 2
19.150499 2.5755 0.44999999 2
19.1555 2.4965 0.45300001 2
19.1595 2.7155001 0.44800001 2
19.164499 2.8315001 0.447 2
19.144501 2.7125001 0.45199999 2
19.151501 2.6145 0.44999999 2
19.161501 2.5895 0.447 2
19.130501 2.7155001 0.456 2
19.133499 2.6824999 0.45500001 2
19.1555 2.8104999 0.44999999 2
19.1605 2.7735 0.44800001 2
19.137501 2.7795 0.454 2
19.134501 2.6715 0.45500001 2
19.137501 2.6695001 0.454 2
19.1635 2.7065001 0.447 2
19.157499 2.7265 0.449 2
19.137501 2.7005 0.454 2
19.143499 2.6775 0.45199999 2
19.1565 2.6545 0.449 2
19.1245 2.7375 0.45699999 2
19.143499 2.6845 0.45199999 2
19.154499 2.6454999 0.449 2
19.1535 2.7985001 0.44999999 2
19.161501 2.5244999 0.447 2
19.133499 2.7225001 0.45500001 2
19.1625 2.7925 0.44800001 2
19.165501 2.5135 0.44600001 2
19.134501 2.7005 0.45500001 2
19.161501 2.5905001 0.447 2
19.1325 2.7195001 0.45500001 2
19.1595 2.5615001 0.44800001 2
19.1565 2.5534999 0.449 2
19.161501 2.7735 0.44800001 2
19.161501 2.5545001 0.447 2
19.133499 2.7075 0.45500001 2
19.1285 2.7635 0.456 2
19.1665 2.7904999 0.447 2
19.1675 2.6705 0.44600001 2
19.157499 2.7535 0.449 2
19.1625 2.7565 0.44800001 2
19.1565 2.6145 0.449 2
19.134501 2.7295001 0.45500001 2
19.164499 2.5875001 0.447 2
19.158501 2.7555001 0.449 2
19.157499 2.6875 0.449 2
19.1675 2.7844999 0.44600001 2
19.147499 2.6665001 0.45100001 2
19.144501 2.7965 0.45199999 2
19.154499 2.5945001 0.449 2
19.137501 2.7365 0.454 2
19.165501 2.6954999 0.447 2
19.129499 2.7244999 0.456 2
19.130501 2.7695 0.456 2
19.157499 2.7514999 0.449 2
19.1315 2.7125001 0.456 2
19.161501 2.5425 0.447 2
19.1355 2.7135 0.454 2
19.1625 2.6205001 0.447 2
19.1625 2.7084999 0.447 2
19.147499 2.7535 0.45100001 2
19.147499 2.7025001 0.45100001 2
19.140499 2.6895001 0.45300001 2
19.1245 2.7365 0.45699999 2
19.1525 2.6724999 0.44999999 2
19.1555 2.7974999 0.44999999 2
19.1535 2.7014999 0.44999999 2
19.137501 2.7765 0.454 2
19.1495 2.7815001 0.45100001 2
19.1625 2.5215001 0.447 2
19.1535 2.7605 0.44999999 2
19.147499 2.7145 0.45100001 2
19.151501 2.7765 0.45100001 2
19.158501 2.7165 0.44800001 2
19.1285 2.7075 0.456 2
19.1485 2.6914999 0.45100001 2
19.147499 2.7614999 0.45199999 2
19.1605 2.5855 0.44800001 2
19.1605 2.8074999 0.44800001 2
19.144501 2.6385 0.45199999 2
19.1595 2.7135 0.44800001 2
19.1635 2.7565 0.447 2
19.140499 2.6854999 0.45300001 2
19.1535 2.5734999 0.449 2
19.1395 2.7474999 0.454 2
19.143499 2.6465001 0.45199999 2
19.1555 2.6715 0.449 2
19.1605 2.6795001 0.44800001 2
19.161501 2.7755001 0.44800001 2
19.1595 2.6645 0.44800001 2
19.1605 2.8395 0.447 2
19.144501 2.8275001 0.449 2
19.157499 2.8304999 0.44800001 2
19.140499 2.8215001 0.44999999 2
19.1455 2.8415 0.44800001 2
19.1415 2.8685 0.44499999 2
19.1245 2.7795 0.456 2
19.143499 2.8475001 0.447 2
19.1555 2.8405001 0.447 2
19.1325 2.7825 0.45500001 2
19.1415 2.8255 0.44999999 2
19.134501 2.8664999 0.44600001 2
19.1415 2.8134999 0.45100001 2
19.1255 2.7695 0.45699999 2
19.140499 2.8315001 0.449 2
19.1465 2.8264999 0.449 2
19.1465 2.8155 0.45100001 2
19.154499 2.8164999 0.44999999 2
19.1425 2.8575001 0.44600001 2
19.1415 2.8115001 0.45100001 2
19.1595 2.8264999 0.449 2
19.1355 2.8004999 0.45300001 2
18.6835 2.5795 0.405 2
18.682501 2.7874999 0.39300001 2
18.681499 2.6305001 0.421 2
18.6835 2.6645 0.39899999 2
18.681499 2.6654999 0.41299999 2
18.6835 2.6305001 0.39899999 2
18.6835 2.6025 0.40400001 2
18.681499 2.6375 0.419 2
18.6845 2.5125 0.39899999 2
18.6845 2.5165 0.40200001 2
18.6835 2.5415001 0.40799999 2
18.6835 2.5934999 0.403 2
18.681499 2.6695001 0.417 2
18.681499 2.6754999 0.41499999 2
18.6835 2.6914999 0.39700001 2
18.682501 2.5374999 0.41600001 2
