# .PCD v0.7 - Point Cloud Data file format
VERSION 0.7
FIELDS x y z label
SIZE 4 4 4 4
TYPE F F F U
COUNT 1 1 1 1
WIDTH 1650
HEIGHT 1
VIEWPOINT 0 0 0 1 0 0 0
POINTS 1650
DATA ascii
14.9085 4.3965001 0.43200001 2
14.9205 4.4045 0.43000001 2
14.9655 4.4384999 0.38999999 2
14.9135 4.4004998 0.42199999 2
14.9205 4.4045 0.42500001 2
14.9725 4.4404998 0.40900001 2
14.9135 4.3994999 0.43399999 2
14.9415 4.4194999 0.42399999 2
14.9655 4.4345002 0.42699999 2
14.9355 4.4175 0.40099999 2
14.9345 4.4165001 0.40599999 2
14.9725 4.4435 0.389 2
14.9455 4.4235001 0.40900001 2
14.9795 4.4425001 0.43599999 2
14.9745 4.4404998 0.41800001 2
14.9355 4.4175 0.40000001 2
14.9645 4.4355001 0.40599999 2
14.9605 4.4315 0.42500001 2
14.9235 4.4085002 0.412 2
14.9345 4.4145002 0.428 2
14.9055 4.3955002 0.42199999 2
14.9765 4.4475002 0.373 2
14.9765 4.4404998 0.43700001 2
14.9495 4.4225001 0.43700001 2
14.9655 4.4334998 0.428 2
14.9845 4.4464998 0.42500001 2
14.9385 4.4155002 0.435 2
14.9855 4.4475002 0.41999999 2
14.9155 4.4035001 0.412 2
14.9605 4.4334998 0.39899999 2
14.9655 4.4365001 0.40700001 2
14.9515 4.4245 0.428 2
14.9155 4.4035001 0.412 2
14.9275 4.4105 0.412 2
15.0205 4.7354999 0.583 2
15.0235 4.7424998 0.58899999 2
15.0245 4.7484999 0.59200001 2
15.0215 4.7414999 0.574 2
15.0215 4.6774998 0.58099997 2
15.0195 4.6975002 0.57999998 2
15.0215 4.6605 0.57800001 2
15.0205 4.6564999 0.57599998 2
15.0215 4.7185001 0.58499998 2
15.0245 4.6925001 0.58700001 2
15.0215 4.7145 0.58499998 2
15.0225 4.7305002 0.588 2
15.0245 4.7005 0.58700001 2
15.0235 4.7294998 0.58899999 2
15.0235 4.6995001 0.58600003 2
15.0225 4.6595001 0.57999998 2
15.0085 4.7814999 0.61299998 2
14.9915 4.7824998 0.61199999 2
15.0235 4.7855 0.61500001 2
15.0105 4.7874999 0.61500001 2
14.9905 4.7985001 0.616 2
14.9975 4.7754998 0.611 2
14.9945 4.7665 0.60900003 2
15.0175 4.7814999 0.61400002 2
14.9955 4.7845001 0.61299998 2
15.0035 4.7104998 0.61299998 2
15.0045 4.6985002 0.61400002 2
15.0175 4.7705002 0.61400002 2
15.0035 4.7445002 0.61199999 2
15.0045 4.6795001 0.61500001 2
14.9995 4.6774998 0.61400002 2
15.0145 4.7154999 0.61500001 2
15.0245 4.7754998 0.61500001 2
15.0235 4.7795 0.61500001 2
14.9935 4.7185001 0.611 2
14.9985 4.7505002 0.611 2
15.0035 4.6485 0.616 2
15.0195 4.7715001 0.61400002 2
15.0085 4.7585001 0.61299998 2
14.9915 4.7585001 0.60900003 2
15.0125 4.7245002 0.61500001 2
14.9945 4.7325001 0.611 2
14.9975 4.7305002 0.61199999 2
15.0095 4.7395 0.61299998 2
15.0005 4.7694998 0.611 2
15.0175 4.7484999 0.61500001 2
15.0105 4.7284999 0.61400002 2
15.0085 4.6795001 0.616 2
15.0015 4.7175002 0.61299998 2
14.9975 4.7535 0.611 2
15.0105 4.7375002 0.61400002 2
14.9995 4.7595 0.611 2
14.9995 4.6485 0.61500001 2
14.9985 4.6694999 0.61400002 2
14.5385 4.4565001 0.44 2
14.4715 4.4745002 0.41999999 2
14.4665 4.4745002 0.41800001 2
14.5305 4.4514999 0.433 2
14.5285 4.4204998 0.41 2
14.5375 4.4064999 0.405 2
14.5005 4.4794998 0.43799999 2
14.5345 4.4835 0.456 2
14.4835 4.4664998 0.421 2
14.5275 4.4835 0.45300001 2
14.5335 4.4794998 0.45300001 2
14.5005 4.4384999 0.41 2
14.5175 4.4445 0.42199999 2
14.5405 4.4565001 0.44 2
14.5315 4.4204998 0.412 2
14.4955 4.4445 0.41100001 2
14.5335 4.4295001 0.419 2
14.5365 4.4794998 0.454 2
14.4815 4.4784999 0.428 2
14.5145 4.4305 0.41 2
14.5165 4.4475002 0.42300001 2
14.5325 4.4805002 0.454 2
14.5175 4.4584999 0.43099999 2
14.5215 4.4854999 0.45199999 2
14.4985 4.4464998 0.414 2
14.5315 4.4524999 0.43399999 2
14.5155 4.4534998 0.42699999 2
14.4815 4.4625001 0.417 2
14.5405 4.4695001 0.449 2
14.5085 4.4415002 0.41499999 2
14.5095 4.4495001 0.421 2
14.4945 4.4664998 0.426 2
14.5305 4.4184999 0.41 2
14.5355 4.4105 0.40700001 2
14.4965 4.4815001 0.43700001 2
14.5255 4.4295001 0.41499999 2
14.4705 4.4664998 0.41499999 2
14.4805 4.4545002 0.41100001 2
14.5015 4.4495001 0.417 2
14.5405 4.4095001 0.40900001 2
14.5335 4.4514999 0.43399999 2
14.4925 4.4765 0.43200001 2
14.5385 4.4064999 0.405 2
14.5375 4.4835 0.458 2
14.5005 4.4745002 0.435 2
14.5415 4.4864998 0.46200001 2
14.5395 4.4505 0.43599999 2
14.5285 4.4685001 0.44299999 2
14.5115 4.4584999 0.428 2
14.4845 4.4524999 0.412 2
14.4845 4.4695001 0.42300001 2
14.5065 4.4755001 0.43799999 2
14.5165 4.4235001 0.40700001 2
14.5185 4.4435 0.421 2
14.5215 4.5155001 0.449 2
14.4725 4.5015001 0.42399999 2
14.5155 4.5124998 0.44600001 2
14.4995 4.5145001 0.43700001 2
14.4805 4.5005002 0.428 2
14.5125 4.4974999 0.44600001 2
14.5225 4.5035 0.45100001 2
14.5035 4.5265002 0.43799999 2
14.5115 4.5025001 0.44499999 2
14.4705 4.4914999 0.42399999 2
14.5295 4.4974999 0.45500001 2
14.5105 4.5285001 0.442 2
14.4805 4.4895 0.43000001 2
14.5005 4.5155001 0.43799999 2
14.5205 4.5225 0.44800001 2
14.4995 4.5145001 0.43700001 2
14.4945 4.4965 0.43700001 2
14.4685 4.4885001 0.42300001 2
14.5305 4.4924998 0.456 2
14.5335 4.4994998 0.45699999 2
14.5025 4.4864998 0.442 2
14.4985 4.4914999 0.43900001 2
14.5035 4.5145001 0.43900001 2
14.4645 4.4875002 0.421 2
14.5135 4.4895 0.447 2
14.5095 4.4935002 0.44499999 2
14.4825 4.4955001 0.43000001 2
14.5115 4.5265002 0.44299999 2
14.4845 4.5015001 0.43000001 2
14.5365 4.5964999 0.456 2
14.5205 4.6174998 0.44499999 2
14.5405 4.6624999 0.45699999 2
14.5405 4.5964999 0.45899999 2
14.5375 4.6504998 0.45500001 2
14.5325 4.5885 0.454 2
14.5365 4.7395 0.45199999 2
14.5335 4.7195001 0.44999999 2
14.5385 4.7435002 0.45300001 2
14.5305 4.5415001 0.454 2
14.5325 4.5345001 0.45500001 2
14.5355 4.7005 0.45199999 2
14.5315 4.7034998 0.44999999 2
14.5245 4.5914998 0.44800001 2
14.5335 4.6995001 0.45100001 2
14.5345 4.6785002 0.45300001 2
14.5315 4.5774999 0.45300001 2
14.5395 4.6875 0.456 2
14.5415 4.7934999 0.45300001 2
14.5295 4.6434999 0.44999999 2
14.5395 4.6314998 0.45699999 2
14.5225 4.5805001 0.447 2
14.5175 4.5984998 0.44299999 2
14.5385 4.5005002 0.46000001 2
14.5385 4.5485001 0.45899999 2
14.5385 4.6684999 0.45500001 2
14.5305 4.6715002 0.44999999 2
14.5365 4.6834998 0.454 2
14.5335 4.7674999 0.449 2
14.5355 4.7525001 0.45100001 2
14.5365 4.7484999 0.45100001 2
14.5325 4.6675 0.45100001 2
14.5355 4.5415001 0.45699999 2
14.5355 4.5545001 0.456 2
14.5295 4.6475 0.44999999 2
14.5285 4.5574999 0.45199999 2
14.5285 4.5194998 0.45300001 2
14.5195 4.5935001 0.44499999 2
14.5375 4.5584998 0.458 2
14.5405 4.6624999 0.45699999 2
14.5345 4.5784998 0.45500001 2
14.5405 4.4974999 0.461 2
14.5135 4.5434999 0.442 2
14.5305 4.7084999 0.449 2
14.5445 4.5524998 0.46200001 2
14.5285 4.6195002 0.44999999 2
14.5455 4.5194998 0.46399999 2
14.5365 4.7925 0.44999999 2
14.5325 4.6314998 0.45199999 2
14.5345 4.6114998 0.454 2
14.5345 4.6884999 0.45199999 2
14.5275 4.6485 0.449 2
14.5235 4.6164999 0.447 2
14.5375 4.8035002 0.44999999 2
14.5355 4.5704999 0.456 2
14.5445 4.5595002 0.46200001 2
14.5395 4.6545 0.456 2
14.5215 4.5784998 0.447 2
14.5415 4.5625 0.46000001 2
14.5415 4.5085001 0.46200001 2
14.5205 4.6185002 0.44499999 2
14.5135 4.5545001 0.442 2
14.5435 4.6044998 0.461 2
14.5435 4.5395002 0.46200001 2
14.5425 4.6455002 0.458 2
14.5285 4.6865001 0.44800001 2
14.5225 4.5695 0.44800001 2
14.5385 4.6694999 0.45500001 2
14.5355 4.7655001 0.44999999 2
14.5345 4.8225002 0.64700001 2
14.5295 4.8055 0.60299999 2
14.5625 4.8065 0.63200003 2
14.5335 4.8175001 0.63300002 2
14.5325 4.8195 0.63800001 2
14.5255 4.8004999 0.59100002 2
14.5795 4.8115001 0.65600002 2
14.5825 4.8115001 0.65799999 2
14.5705 4.8115001 0.64899999 2
14.5555 4.8125 0.639 2
14.5645 4.8165002 0.65600002 2
14.5335 4.8245001 0.64999998 2
14.5415 4.8035002 0.60799998 2
14.5245 4.8055 0.60100001 2
14.5565 4.8165002 0.64999998 2
14.5575 4.8154998 0.648 2
14.5575 4.8204999 0.65799999 2
14.5545 4.8125 0.63800001 2
14.5695 4.8204999 0.667 2
14.5635 4.8165002 0.65399998 2
14.5785 4.8165002 0.66600001 2
14.5315 4.8144999 0.62599999 2
14.5395 4.8175001 0.63999999 2
14.5335 4.8035002 0.602 2
14.5575 4.8195 0.65700001 2
14.5345 4.8014998 0.597 2
14.5515 4.8185 0.64899999 2
14.5415 4.8195 0.64499998 2
14.5295 4.8175001 0.63099998 2
14.5335 4.8245001 0.64999998 2
14.5815 4.8225002 0.69 2
14.5665 4.8235002 0.67699999 2
14.5525 4.8315001 0.69499999 2
14.5575 4.8235002 0.66500002 2
14.5745 4.8274999 0.70499998 2
14.5465 4.8435001 0.73500001 2
14.5395 4.8375001 0.70200002 2
14.5705 4.8264999 0.69499999 2
14.5635 4.8325 0.70899999 2
14.5725 4.8284998 0.70300001 2
14.5695 4.8255 0.68900001 2
14.5605 4.8305001 0.69999999 2
14.5475 4.8334999 0.69700003 2
14.5455 4.8295002 0.67500001 2
14.5435 4.8395 0.71399999 2
14.5635 4.8225002 0.671 2
14.5615 4.8305001 0.69999999 2
14.5535 4.8315001 0.69300002 2
14.5515 4.8404999 0.73199999 2
14.5885 4.8175001 0.68099999 2
14.5595 4.8274999 0.68699998 2
14.5655 4.8305001 0.70300001 2
14.5605 4.8354998 0.72000003 2
14.5795 4.8225002 0.69 2
14.5415 4.8425002 0.727 2
14.5775 4.8235002 0.69 2
14.5655 4.8305001 0.704 2
14.5945 4.8144999 0.67500001 2
14.5565 4.8344998 0.71100003 2
14.5845 4.8175001 0.67500001 2
14.5945 4.8144999 0.67500001 2
14.5665 4.8284998 0.69800001 2
14.5405 4.8414998 0.72299999 2
14.5775 4.8264999 0.70200002 2
14.5825 4.4305 0.433 2
14.5455 4.4095001 0.41 2
14.5935 4.3955002 0.41100001 2
14.5725 4.4514999 0.44499999 2
14.5805 4.4254999 0.42899999 2
14.5725 4.4204998 0.42399999 2
14.5565 4.4425001 0.43599999 2
14.6015 4.3874998 0.40700001 2
14.5885 4.4295001 0.43399999 2
14.5965 4.4194999 0.428 2
14.6055 4.3975 0.41499999 2
14.5465 4.4345002 0.42699999 2
14.5845 4.3994999 0.412 2
14.5845 4.4295001 0.433 2
14.5595 4.4225001 0.42199999 2
14.5575 4.4124999 0.414 2
14.6015 4.3934999 0.41100001 2
14.5475 4.4714999 0.454 2
14.5495 4.4575 0.44499999 2
14.5635 4.4404998 0.43599999 2
14.5865 4.4295001 0.433 2
14.5535 4.4054999 0.40900001 2
14.5825 4.4064999 0.41600001 2
14.5555 4.4204998 0.41999999 2
14.5645 4.4615002 0.45100001 2
14.5455 4.4505 0.43900001 2
14.5615 4.4045 0.41 2
14.5475 4.4235001 0.41999999 2
14.5565 4.4324999 0.428 2
14.5455 4.4355001 0.428 2
14.5785 4.4165001 0.42300001 2
14.5655 4.4225001 0.42300001 2
14.5445 4.4235001 0.41999999 2
14.5725 4.4365001 0.435 2
14.5725 4.4375 0.435 2
14.6165 4.3915 0.41299999 2
14.5805 4.4225001 0.42699999 2
14.5745 4.3975 0.40799999 2
14.5695 4.4445 0.44 2
14.5545 4.4015002 0.40599999 2
14.5575 4.4334998 0.43000001 2
14.5435 4.4045 0.40599999 2
14.5595 4.4124999 0.41499999 2
14.5525 4.4664998 0.45199999 2
14.5635 4.4194999 0.421 2
14.5755 4.8045001 0.54799998 2
14.5605 4.8035002 0.56400001 2
14.5475 4.8024998 0.57800001 2
14.5675 4.8045001 0.56199998 2
14.5425 4.8014998 0.56599998 2
14.6275 4.8115001 0.55500001 2
14.5965 4.8074999 0.55299997 2
14.5955 4.8074999 0.56800002 2
14.6635 4.8165002 0.55299997 2
14.6395 4.8134999 0.55699998 2
14.6305 4.8125 0.55199999 2
14.5265 4.7985001 0.54699999 2
14.5305 4.7995 0.56699997 2
14.5265 4.7985001 0.55699998 2
14.6635 4.8165002 0.54900002 2
14.6125 4.8095002 0.54799998 2
14.6005 4.8084998 0.56099999 2
14.5725 4.8045001 0.546 2
14.5765 4.8055 0.54799998 2
14.6355 4.8125 0.55699998 2
14.5775 4.8055 0.57200003 2
14.6175 4.8105001 0.55599999 2
14.5915 4.8074999 0.54900002 2
14.5515 4.8024998 0.56699997 2
14.5785 4.8055 0.56599998 2
14.5685 4.8035002 0.54100001 2
14.5605 4.8024998 0.53799999 2
14.5585 4.8035002 0.55699998 2
14.6005 4.8084998 0.54900002 2
14.6025 4.8084998 0.542 2
14.5845 4.8065 0.56999999 2
14.5475 4.8014998 0.57499999 2
14.5315 4.8004999 0.57999998 2
14.6205 4.8105001 0.54799998 2
14.5445 4.8014998 0.55400002 2
14.6505 4.8144999 0.55599999 2
14.6015 4.8084998 0.56699997 2
14.6075 4.8095002 0.551 2
14.6045 4.8084998 0.546 2
14.6325 4.8125 0.56 2
14.5245 4.7985001 0.55699998 2
14.6355 4.8125 0.54799998 2
14.6365 4.8144999 0.61500001 2
14.6245 4.8125 0.597 2
14.5405 4.8014998 0.59600002 2
14.6245 4.8134999 0.62199998 2
14.6355 4.8144999 0.61299998 2
14.5935 4.8084998 0.588 2
14.6005 4.8115001 0.63999999 2
14.6565 4.8165002 0.58999997 2
14.5985 4.8115001 0.64899999 2
14.6685 4.8175001 0.56099999 2
14.6105 4.8115001 0.602 2
14.6435 4.8144999 0.57300001 2
14.6465 4.8144999 0.55800003 2
14.6385 4.8154998 0.61199999 2
14.6085 4.8125 0.648 2
14.6245 4.8144999 0.63700002 2
14.6105 4.8115001 0.60500002 2
14.5635 4.8055 0.61000001 2
14.6355 4.8134999 0.56300002 2
14.6005 4.8125 0.66399997 2
14.6055 4.8125 0.662 2
14.6865 4.8195 0.551 2
14.5735 4.8055 0.57700002 2
14.5835 4.8074999 0.597 2
14.5805 4.8074999 0.60000002 2
14.5445 4.8014998 0.58399999 2
14.6145 4.8105001 0.57300001 2
14.6405 4.8154998 0.61500001 2
14.6775 4.8185 0.55599999 2
14.5915 4.8084998 0.60399997 2
14.6335 4.8134999 0.59100002 2
14.6485 4.8154998 0.57700002 2
14.6595 4.8165002 0.58200002 2
14.5765 4.8074999 0.63099998 2
14.5845 4.8095002 0.64600003 2
14.6365 4.8144999 0.60500002 2
14.6345 4.8134999 0.58600003 2
14.5745 4.8055 0.57700002 2
14.5765 4.8055 0.57700002 2
14.6145 4.8125 0.61900002 2
14.5905 4.8074999 0.574 2
14.6345 4.8154998 0.62699997 2
14.5565 4.8045001 0.60299999 2
14.6405 4.8154998 0.60299999 2
14.5945 4.8074999 0.57099998 2
14.5815 4.8074999 0.597 2
14.5615 4.8055 0.62599999 2
14.6255 4.8144999 0.63999999 2
14.6355 4.8125 0.56099999 2
14.5965 4.8115001 0.66799998 2
14.6805 4.8185 0.55699998 2
14.5965 4.8084998 0.57200003 2
14.5945 4.8105001 0.63099998 2
14.6015 4.8125 0.66799998 2
14.6655 4.8165002 0.56400001 2
14.6485 4.8154998 0.58600003 2
14.6625 4.8165002 0.56199998 2
14.6285 4.8134999 0.61500001 2
14.5785 4.8074999 0.61699998 2
14.6625 4.8165002 0.57099998 2
14.6405 4.8144999 0.60000002 2
14.5785 4.8074999 0.61199999 2
14.5785 4.8074999 0.62800002 2
14.6255 4.8115001 0.56800002 2
14.5675 4.8055 0.60500002 2
14.6555 4.8165002 0.59399998 2
14.5625 4.8055 0.61000001 2
14.5645 4.8045001 0.58999997 2
14.6005 4.8115001 0.648 2
14.5785 4.8074999 0.63099998 2
14.6325 4.8144999 0.61000001 2
14.5435 4.8014998 0.58200002 2
14.6525 4.8165002 0.58899999 2
14.6035 4.8095002 0.58099997 2
14.5515 4.8035002 0.60600001 2
14.6555 4.8165002 0.58499998 2
14.6305 4.8125 0.57499999 2
14.6265 4.8125 0.58600003 2
14.5355 4.8004999 0.58999997 2
14.6865 4.8195 0.55000001 2
14.6055 4.8095002 0.57099998 2
14.6305 4.8144999 0.62599999 2
14.5965 4.8115001 0.65200001 2
14.6265 4.8125 0.57300001 2
14.6215 4.8115001 0.565 2
14.6255 4.8125 0.58700001 2
14.6175 4.8125 0.625 2
14.6345 4.8134999 0.58999997 2
14.6035 4.8105001 0.61299998 2
14.6235 4.8115001 0.56599998 2
14.5525 4.5095 0.463 2
14.6965 4.7275 0.43000001 2
14.5435 4.8284998 0.45100001 2
14.5535 4.6715002 0.456 2
14.6975 4.7094998 0.43000001 2
14.5825 4.7674999 0.447 2
14.5585 4.5615001 0.46000001 2
14.6365 4.7895002 0.43700001 2
14.6015 4.7985001 0.44299999 2
14.6015 4.5565 0.45300001 2
14.6685 4.7435002 0.43399999 2
14.6615 4.7164998 0.43599999 2
14.6565 4.6224999 0.44100001 2
14.6255 4.5945001 0.447 2
14.6325 4.5914998 0.44600001 2
14.5655 4.8055 0.44800001 2
14.5915 4.7595 0.44600001 2
14.6725 4.7465 0.433 2
14.5675 4.5714998 0.458 2
14.5685 4.7424998 0.44999999 2
14.5795 4.7364998 0.449 2
14.6695 4.7325001 0.43399999 2
14.7355 4.7265 0.42300001 2
14.6185 4.5875001 0.449 2
14.5825 4.7195001 0.449 2
14.5635 4.8154998 0.44800001 2
14.7145 4.7335 0.42699999 2
14.5495 4.6675 0.45699999 2
14.5755 4.7684999 0.44800001 2
14.5995 4.7115002 0.447 2
14.6835 4.7494998 0.43099999 2
14.6715 4.6624999 0.43700001 2
14.5685 4.7205 0.45100001 2
14.5495 4.5135002 0.46399999 2
14.6235 4.6894999 0.44400001 2
14.5615 4.8065 0.449 2
14.6185 4.7505002 0.442 2
14.5475 4.5615001 0.46200001 2
14.6385 4.7694998 0.43799999 2
14.5945 4.6915002 0.44800001 2
14.6235 4.6545 0.44499999 2
14.6845 4.7325001 0.43099999 2
14.5685 4.5304999 0.46000001 2
14.5885 4.5574999 0.45500001 2
14.6305 4.6205001 0.44499999 2
14.5525 4.5755 0.46000001 2
14.5965 4.7414999 0.44600001 2
14.6485 4.6215 0.442 2
14.6715 4.7395 0.433 2
14.6335 4.7484999 0.43900001 2
14.5665 4.7605 0.44999999 2
14.7075 4.7325001 0.428 2
14.6405 4.6995001 0.44 2
14.5725 4.5324998 0.45899999 2
14.6195 4.6065001 0.44800001 2
14.6635 4.7494998 0.43399999 2
14.6565 4.6405001 0.44 2
14.6075 4.7905002 0.442 2
14.6015 4.6805 0.44800001 2
14.6735 4.6545 0.43700001 2
14.5575 4.6725001 0.45500001 2
14.6695 4.6795001 0.43599999 2
14.6455 4.7824998 0.43599999 2
14.6155 4.6294999 0.44800001 2
14.5735 4.8095002 0.447 2
14.6445 4.7424998 0.43799999 2
14.7035 4.6684999 0.43099999 2
14.6145 4.6434999 0.447 2
14.7005 4.7564998 0.428 2
14.5885 4.6645002 0.44999999 2
14.6205 4.6215 0.447 2
14.6345 4.7145 0.44100001 2
14.6705 4.7465 0.433 2
14.6155 4.7294998 0.44299999 2
14.5565 4.6455002 0.45699999 2
14.6485 4.7505002 0.43700001 2
14.6915 4.7375002 0.43000001 2
14.6355 4.6684999 0.44299999 2
14.6265 4.6345 0.44600001 2
14.6925 4.7535 0.42899999 2
14.5535 4.5725002 0.46000001 2
14.6205 4.6185002 0.447 2
14.5455 4.7905002 0.45199999 2
14.6335 4.7694998 0.43799999 2
14.5775 4.6395001 0.45300001 2
14.6005 4.7375002 0.44499999 2
14.6335 4.7554998 0.43900001 2
14.5515 4.6964998 0.45500001 2
14.5725 4.7915001 0.44800001 2
14.5615 4.6405001 0.456 2
14.6265 4.7234998 0.442 2
14.5425 4.7735 0.454 2
14.6015 4.6504998 0.449 2
14.6175 4.6735001 0.44499999 2
14.6465 4.7354999 0.43799999 2
14.6265 4.7895002 0.43900001 2
14.5455 4.7765002 0.45300001 2
14.5905 4.6554999 0.45100001 2
14.6445 4.6795001 0.44100001 2
14.6795 4.6785002 0.435 2
14.6175 4.6044998 0.44800001 2
14.5485 4.5735002 0.461 2
14.6065 4.7125001 0.44499999 2
14.5465 4.5914998 0.461 2
14.6135 4.6415 0.447 2
14.5675 4.5345001 0.46000001 2
14.6285 4.7094998 0.442 2
14.5845 4.6164999 0.45300001 2
14.6245 4.7325001 0.442 2
14.5925 4.7414999 0.447 2
14.6165 4.6945 0.44400001 2
14.6405 4.6975002 0.44100001 2
14.5525 4.5514998 0.461 2
14.6815 4.7164998 0.433 2
14.5695 4.6395001 0.45500001 2
14.5815 4.5345001 0.45699999 2
14.5705 4.5465002 0.45899999 2
14.7025 4.7065001 0.43000001 2
14.6615 4.7655001 0.43399999 2
14.7125 4.7034998 0.428 2
14.5885 4.5875001 0.454 2
14.7265 4.7065001 0.426 2
14.5505 4.6415 0.458 2
14.5415 4.8095002 0.45199999 2
14.5605 4.5155001 0.46200001 2
14.6585 4.7694998 0.43399999 2
14.6055 4.7084999 0.44600001 2
14.5855 4.7364998 0.44800001 2
14.6565 4.7424998 0.43599999 2
14.6345 4.7305002 0.44 2
14.7095 4.7424998 0.42699999 2
14.5535 4.6634998 0.456 2
14.5975 4.6255002 0.45100001 2
14.6395 4.7624998 0.43799999 2
14.6615 4.7195001 0.43599999 2
14.7475 4.7344999 0.421 2
14.5565 4.6525002 0.456 2
14.5555 4.6875 0.45500001 2
14.7215 4.6915002 0.42699999 2
14.5565 4.8255 0.449 2
14.6465 4.6675 0.44100001 2
14.5515 4.8154998 0.44999999 2
14.5875 4.7705002 0.44600001 2
14.6225 4.6135001 0.447 2
14.7105 4.7405 0.42699999 2
14.6085 4.6665001 0.447 2
14.5955 4.6785002 0.449 2
14.5465 4.5194998 0.46399999 2
14.5435 4.6345 0.45899999 2
14.5885 4.7795 0.44600001 2
14.5755 4.7515001 0.449 2
14.5675 4.5854998 0.458 2
14.5845 4.7865 0.44600001 2
14.5735 4.7005 0.45100001 2
14.6115 4.5764999 0.45100001 2
14.6975 4.7494998 0.42899999 2
14.6695 4.7255001 0.43399999 2
14.7035 4.7135 0.42899999 2
14.5875 4.6995001 0.449 2
14.5925 4.6945 0.449 2
14.6455 4.7505002 0.43700001 2
14.5945 4.7965002 0.44400001 2
14.7025 4.7265 0.42899999 2
14.6975 4.6805 0.43200001 2
14.5865 4.7614999 0.447 2
14.5745 4.5995002 0.456 2
14.6615 4.6395001 0.43900001 2
14.7055 4.7275 0.428 2
14.5805 4.6795001 0.45100001 2
14.5535 4.6234999 0.458 2
14.5965 4.5834999 0.45300001 2
14.5595 4.7385001 0.45199999 2
14.5525 4.6745 0.456 2
14.6065 4.7874999 0.442 2
14.6425 4.6234999 0.44299999 2
14.5715 4.6894999 0.45199999 2
14.6295 4.7484999 0.44 2
14.7185 4.6945 0.428 2
14.6075 4.6285 0.449 2
14.6595 4.6215 0.44100001 2
14.6015 4.5615001 0.45300001 2
14.6625 4.7715001 0.43399999 2
14.6105 4.7814999 0.442 2
14.5955 4.7154999 0.447 2
14.5585 4.7595 0.45100001 2
14.7485 4.7224998 0.421 2
14.5875 4.6055002 0.45300001 2
14.6765 4.6824999 0.435 2
14.6065 4.7385001 0.44400001 2
14.7155 4.7034998 0.428 2
14.7205 4.7154999 0.426 2
14.5985 4.5825 0.45199999 2
14.5465 4.5064998 0.46399999 2
14.5805 4.5815001 0.45500001 2
14.5615 4.5265002 0.461 2
14.6815 4.7465 0.43200001 2
14.6115 4.5685 0.45100001 2
14.5565 4.5025001 0.463 2
14.5715 4.6605 0.454 2
14.5745 4.7614999 0.449 2
14.6835 4.6704998 0.43399999 2
14.5865 4.7474999 0.447 2
14.6365 4.6824999 0.442 2
14.6515 4.6434999 0.44100001 2
14.5795 4.5784998 0.456 2
14.6625 4.6915002 0.43700001 2
14.6125 4.6434999 0.447 2
14.7105 4.6754999 0.43000001 2
14.5635 4.5704999 0.45899999 2
14.6465 4.6615 0.44100001 2
14.5895 4.6405001 0.45100001 2
14.5645 4.6715002 0.454 2
14.6275 4.6455002 0.44499999 2
14.5725 4.7405 0.44999999 2
14.6655 4.7344999 0.435 2
14.6075 4.6884999 0.44600001 2
14.5725 4.7115002 0.45100001 2
14.6095 4.6155 0.449 2
14.6645 4.6325002 0.43900001 2
14.6895 4.7014999 0.43200001 2
14.5815 4.7674999 0.447 2
14.5965 4.5475001 0.454 2
14.5765 4.5324998 0.458 2
14.5845 4.7455001 0.44800001 2
14.7075 4.7405 0.42699999 2
14.6815 4.6865001 0.43399999 2
14.5645 4.5935001 0.458 2
14.5585 4.8024998 0.44999999 2
14.6975 4.7465 0.42899999 2
14.5875 4.6875 0.44999999 2
14.6745 4.7154999 0.43399999 2
14.6215 4.6774998 0.44499999 2
14.5615 4.5805001 0.45899999 2
14.5905 4.5805001 0.454 2
14.6575 4.6975002 0.43799999 2
14.6255 4.7655001 0.44 2
14.5685 4.6034999 0.45699999 2
14.5805 4.6745 0.45100001 2
14.5575 4.7214999 0.45300001 2
14.6815 4.6715002 0.435 2
14.5615 4.6025 0.458 2
14.7285 4.6975002 0.426 2
14.5575 4.6355 0.45699999 2
14.6735 4.7045002 0.435 2
14.7265 4.7305002 0.42500001 2
14.5465 4.5665002 0.46200001 2
14.5905 4.7865 0.44499999 2
14.5855 4.5925002 0.454 2
14.5685 4.6195002 0.456 2
14.6925 4.6694999 0.433 2
14.5695 4.6125002 0.456 2
14.5865 4.5844998 0.454 2
14.6355 4.6055002 0.44499999 2
14.6765 4.7055001 0.43399999 2
14.6275 4.6725001 0.44400001 2
14.6665 4.7605 0.433 2
14.6885 4.7424998 0.43000001 2
14.5445 4.6125002 0.46000001 2
14.5945 4.6915002 0.44800001 2
14.5725 4.6795001 0.45300001 2
14.5585 4.6155 0.458 2
14.5665 4.7405 0.45100001 2
14.5535 4.6865001 0.45500001 2
14.6635 4.6224999 0.44 2
14.5695 4.5545001 0.45899999 2
14.6265 4.7185001 0.442 2
14.5935 4.7255001 0.447 2
14.5485 4.6515002 0.458 2
14.7105 4.7435002 0.42699999 2
14.5835 4.6345 0.45300001 2
14.6315 4.7915001 0.43799999 2
14.7235 4.7084999 0.426 2
14.6595 4.7694998 0.43399999 2
14.6165 4.6845002 0.44499999 2
14.6705 4.7484999 0.433 2
14.5615 4.5995002 0.458 2
14.6195 4.6255002 0.447 2
14.7095 4.7424998 0.42699999 2
14.5655 4.5935001 0.45699999 2
14.6305 4.7395 0.44 2
14.5705 4.5345001 0.45899999 2
14.7405 4.7275 0.42199999 2
14.6075 4.6975002 0.44600001 2
14.5655 4.5215001 0.461 2
14.5455 4.6364999 0.45899999 2
14.6405 4.7474999 0.43799999 2
14.5555 4.5434999 0.461 2
14.6095 4.6624999 0.447 2
14.6275 4.7265 0.44100001 2
14.5655 4.7224998 0.45199999 2
14.6455 4.6694999 0.44100001 2
14.5985 4.7905002 0.44400001 2
14.5485 4.7705002 0.45300001 2
14.5645 4.7765002 0.44999999 2
14.5935 4.7614999 0.44499999 2
14.5565 4.6904998 0.45500001 2
14.6215 4.7865 0.44 2
14.5735 4.5685 0.45699999 2
14.5465 4.5605001 0.46200001 2
14.6515 4.6995001 0.43900001 2
14.5875 4.6395001 0.45199999 2
14.6205 4.7975001 0.44 2
14.5425 4.8334999 0.45100001 2
14.5565 4.5215001 0.46200001 2
14.6675 4.6655002 0.43700001 2
14.7015 4.7375002 0.42899999 2
14.6705 4.7564998 0.433 2
14.5795 4.7265 0.449 2
14.5795 4.7605 0.44800001 2
14.7365 4.7164998 0.42399999 2
14.6805 4.6855001 0.43399999 2
14.5815 4.6185002 0.454 2
14.6025 4.6795001 0.447 2
14.7005 4.7154999 0.43000001 2
14.6515 4.7405 0.43700001 2
14.6455 4.6044998 0.44400001 2
14.5625 4.7494998 0.45100001 2
14.6995 4.6704998 0.43200001 2
14.5955 4.7614999 0.44499999 2
14.5765 4.6395001 0.454 2
14.6445 4.6244998 0.44299999 2
14.5845 4.7395 0.44800001 2
14.7285 4.7325001 0.42399999 2
14.7075 4.7175002 0.428 2
14.5785 4.6025 0.45500001 2
14.5945 4.7765002 0.44499999 2
14.6455 4.6915002 0.44 2
14.5925 4.8065 0.44400001 2
14.6645 4.6195002 0.44 2
14.5705 4.6754999 0.45300001 2
14.7415 4.7154999 0.42300001 2
14.5795 4.6314998 0.45300001 2
14.5905 4.6244998 0.45199999 2
14.5975 4.6494999 0.44999999 2
14.6645 4.6694999 0.43799999 2
14.6285 4.7785001 0.43900001 2
14.6815 4.6704998 0.435 2
14.5455 4.6774998 0.45699999 2
14.6295 4.6615 0.44400001 2
14.6955 4.6655002 0.433 2
14.5615 4.6795001 0.454 2
14.5865 4.7824998 0.44600001 2
14.5975 4.5875001 0.45199999 2
14.7165 4.7414999 0.426 2
14.6965 4.7564998 0.42899999 2
14.6025 4.6145 0.44999999 2
14.6075 4.7645001 0.44299999 2
14.7195 4.6995001 0.42699999 2
14.5825 4.7375002 0.44800001 2
14.6155 4.7224998 0.44299999 2
14.5535 4.5324998 0.46200001 2
14.6915 4.6855001 0.43200001 2
14.5615 4.5714998 0.45899999 2
14.7455 4.7145 0.42199999 2
14.5725 4.6114998 0.45500001 2
14.5635 4.6605 0.45500001 2
14.6005 4.5735002 0.45199999 2
14.5595 4.6694999 0.45500001 2
14.5625 4.7395 0.45199999 2
14.7265 4.7154999 0.42500001 2
14.5465 4.5235 0.46399999 2
14.5465 4.6094999 0.46000001 2
14.5825 4.7205 0.449 2
14.5865 4.7995 0.44499999 2
14.5455 4.5485001 0.463 2
14.5505 4.5355 0.46200001 2
14.6055 4.5865002 0.45100001 2
14.6245 4.5784998 0.44800001 2
14.6225 4.6325002 0.44600001 2
14.5895 4.7474999 0.447 2
14.7125 4.7465 0.426 2
14.5425 4.6925001 0.45699999 2
14.5835 4.7655001 0.447 2
14.6505 4.7424998 0.43700001 2
14.6235 4.7195001 0.442 2
14.6785 4.6964998 0.43399999 2
14.6575 4.7505002 0.435 2
14.7265 4.7005 0.426 2
14.6545 4.7544999 0.43599999 2
14.6355 4.7795 0.43799999 2
14.5905 4.7544999 0.44600001 2
14.5665 4.6855001 0.45300001 2
14.7115 4.6725001 0.43000001 2
14.5795 4.7614999 0.44800001 2
14.6885 4.6995001 0.43200001 2
14.6975 4.7164998 0.43000001 2
14.5775 4.7185001 0.44999999 2
14.5955 4.7544999 0.44600001 2
14.5445 4.7175002 0.456 2
14.6305 4.6065001 0.44600001 2
14.6325 4.7554998 0.43900001 2
14.5765 4.8464999 0.44999999 2
14.6825 4.8645 0.44800001 2
14.5585 4.8474998 0.449 2
14.6575 4.8585 0.449 2
14.5995 4.8664999 0.44600001 2
14.7225 4.8655 0.449 2
14.5555 4.8484998 0.449 2
14.6045 4.8635001 0.44600001 2
14.5795 4.8555002 0.44800001 2
14.6825 4.8674998 0.44800001 2
14.5935 4.8484998 0.44999999 2
14.6175 4.8544998 0.449 2
14.6375 4.8655 0.447 2
14.5745 4.8495002 0.449 2
14.5565 4.8464999 0.449 2
14.6655 4.8635001 0.44800001 2
14.6525 4.8575001 0.449 2
14.5775 4.8495002 0.449 2
14.6595 4.8625002 0.44800001 2
14.5605 4.8464999 0.449 2
14.5785 4.8515 0.449 2
14.6775 4.8614998 0.449 2
14.5905 4.8585 0.447 2
14.6855 4.8645 0.44800001 2
14.5775 4.8635001 0.44499999 2
14.5815 4.8565001 0.447 2
14.5955 4.8515 0.449 2
14.6405 4.8625002 0.44800001 2
14.6395 4.8325 0.44600001 2
14.7105 4.8045001 0.43700001 2
14.6975 4.8185 0.44100001 2
14.7055 4.8185 0.44100001 2
14.7165 4.7934999 0.435 2
14.6635 4.8144999 0.44100001 2
14.6915 4.8515 0.44800001 2
14.7475 4.8065 0.43599999 2
14.7465 4.7515001 0.42500001 2
14.7585 4.7855 0.43099999 2
14.7405 4.8024998 0.43599999 2
14.6705 4.8185 0.442 2
14.6665 4.7915001 0.43599999 2
14.7425 4.8505001 0.44600001 2
14.7525 4.7515001 0.42399999 2
14.6945 4.7725 0.43099999 2
14.7225 4.8385 0.44400001 2
14.6425 4.8455 0.449 2
14.6735 4.8375001 0.44600001 2
14.6195 4.8284998 0.44600001 2
14.6615 4.8115001 0.44100001 2
14.7315 4.7515001 0.42500001 2
14.6335 4.8084998 0.44100001 2
14.6665 4.8004999 0.43799999 2
14.6095 4.8425002 0.449 2
14.6425 4.8325 0.44600001 2
14.7185 4.7855 0.433 2
14.7375 4.8505001 0.44600001 2
14.7455 4.8315001 0.442 2
14.6835 4.8144999 0.44100001 2
14.6285 4.8055 0.44100001 2
14.6695 4.8474998 0.44800001 2
14.7345 4.8614998 0.44800001 2
14.6915 4.8264999 0.44299999 2
14.6445 4.8344998 0.44600001 2
14.6135 4.8204999 0.44499999 2
14.7445 4.8305001 0.44100001 2
14.6255 4.8185 0.44400001 2
14.6895 4.8525 0.44800001 2
14.5875 4.8185 0.44499999 2
14.7255 4.7544999 0.426 2
14.7345 4.8544998 0.447 2
14.6925 4.7684999 0.43000001 2
14.6995 4.7855 0.43399999 2
14.5905 4.8255 0.447 2
14.7555 4.8255 0.44 2
14.7415 4.7665 0.428 2
14.6945 4.8134999 0.44 2
14.7465 4.7494998 0.42399999 2
14.7135 4.7965002 0.43599999 2
14.7085 4.8395 0.44499999 2
14.7475 4.7975001 0.43399999 2
14.7085 4.7564998 0.42699999 2
14.7095 4.8074999 0.43799999 2
14.7225 4.8425002 0.44499999 2
14.6605 4.8525 0.44999999 2
14.6475 4.8344998 0.44600001 2
14.7305 4.7874999 0.433 2
14.6075 4.8134999 0.44400001 2
14.6475 4.8095002 0.44100001 2
14.7575 4.7765002 0.42899999 2
14.7435 4.8144999 0.43799999 2
14.7185 4.7544999 0.426 2
14.6575 4.7905002 0.43599999 2
14.7475 4.8055 0.43599999 2
14.7505 4.7494998 0.42399999 2
14.6855 4.7804999 0.433 2
14.6895 4.8095002 0.43900001 2
14.7315 4.7884998 0.433 2
14.6115 4.8185 0.44400001 2
14.6075 4.8134999 0.44299999 2
14.7395 4.7965002 0.43399999 2
14.7075 4.8035002 0.43700001 2
14.6765 4.7965002 0.43700001 2
14.6585 4.8204999 0.44299999 2
14.7055 4.8165002 0.44 2
14.6635 4.8495002 0.449 2
14.7545 4.7804999 0.43000001 2
14.7175 4.8084998 0.43799999 2
14.6575 4.8004999 0.43900001 2
14.7565 4.8134999 0.43700001 2
14.7545 4.7965002 0.43399999 2
14.5675 4.8315001 0.449 2
14.6705 4.8274999 0.44400001 2
14.7515 4.7614999 0.42699999 2
14.7475 4.8315001 0.442 2
14.7175 4.8084998 0.43799999 2
14.7405 4.8354998 0.44299999 2
14.6545 4.8084998 0.44100001 2
14.6465 4.8325 0.44600001 2
14.6965 4.8365002 0.44499999 2
14.5585 4.8315001 0.449 2
14.7385 4.8165002 0.43900001 2
14.6925 4.8175001 0.44100001 2
14.7405 4.7395 0.42199999 2
14.6125 4.8334999 0.44800001 2
14.6415 4.8445001 0.449 2
14.6855 4.8024998 0.43799999 2
14.7535 4.7614999 0.426 2
14.7575 4.8095002 0.43599999 2
14.7095 4.7614999 0.428 2
14.6765 4.8575001 0.44999999 2
14.6895 4.8305001 0.44400001 2
14.6835 4.7865 0.435 2
14.7315 4.8365002 0.44299999 2
14.6395 4.8115001 0.442 2
14.6675 4.7874999 0.43599999 2
14.5815 4.8264999 0.447 2
14.6535 4.8004999 0.43900001 2
14.6005 4.8264999 0.44600001 2
14.6525 4.8264999 0.44400001 2
14.7195 4.7645001 0.428 2
14.6325 4.8255 0.44499999 2
14.7305 4.7554998 0.426 2
14.6825 4.8255 0.44299999 2
14.7045 4.8344998 0.44400001 2
14.7575 4.7804999 0.43000001 2
14.7465 4.7725 0.42899999 2
14.6955 4.8375001 0.44499999 2
14.5815 4.8245001 0.447 2
14.6155 4.8055 0.44100001 2
14.5915 4.8125 0.44400001 2
14.7275 4.7995 0.43599999 2
14.6775 4.8175001 0.44100001 2
14.6505 4.8105001 0.44100001 2
14.6985 4.8214998 0.44100001 2
14.7165 4.8614998 0.449 2
14.7405 4.8375001 0.44299999 2
14.7105 4.8045001 0.43700001 2
14.7255 4.7855 0.433 2
14.7035 4.8014998 0.43700001 2
14.7205 4.7705002 0.43000001 2
14.7135 4.8594999 0.449 2
14.7375 4.7855 0.43200001 2
14.7115 4.8455 0.44600001 2
14.6755 4.8014998 0.43799999 2
14.7245 4.8464999 0.44600001 2
14.6225 4.8095002 0.442 2
14.6005 4.8225002 0.44600001 2
14.7225 4.7835002 0.43200001 2
14.6365 4.8084998 0.44100001 2
14.6405 4.8344998 0.44600001 2
14.7425 4.7744999 0.43000001 2
14.6095 4.8055 0.442 2
14.6785 4.8035002 0.43799999 2
14.7165 4.8225002 0.44100001 2
14.7335 4.7934999 0.43399999 2
14.6685 4.8125 0.44100001 2
14.6955 4.8395 0.44499999 2
14.5845 4.8375001 0.44999999 2
14.6865 4.8204999 0.442 2
14.7455 4.8664999 0.449 2
14.7505 4.7754998 0.43000001 2
14.6505 4.8225002 0.44400001 2
14.5665 4.8325 0.449 2
14.7285 4.8214998 0.597 2
14.6515 4.8165002 0.60900003 2
14.6705 4.8175001 0.63999999 2
14.6875 4.8185 0.64200002 2
14.6465 4.8154998 0.63 2
14.6365 4.8154998 0.66399997 2
14.6895 4.8195 0.59600002 2
14.7705 4.8245001 0.62 2
14.6935 4.8195 0.57999998 2
14.6895 4.8185 0.63700002 2
14.7435 4.8225002 0.62199998 2
14.6935 4.8195 0.59299999 2
14.6995 4.8195 0.59799999 2
14.6485 4.8154998 0.64399999 2
14.6925 4.8195 0.60799998 2
14.6475 4.8154998 0.63300002 2
14.7285 4.8214998 0.63700002 2
14.7055 4.8204999 0.58399999 2
14.6405 4.8154998 0.63200003 2
14.7745 4.8245001 0.625 2
14.6795 4.8185 0.60699999 2
14.7195 4.8204999 0.64499998 2
14.6815 4.8185 0.57599998 2
14.6895 4.8185 0.63300002 2
14.6745 4.8185 0.59100002 2
14.6565 4.8165002 0.639 2
14.6315 4.8144999 0.64099997 2
14.6275 4.8144999 0.667 2
14.7155 4.8204999 0.63599998 2
14.6455 4.8154998 0.662 2
14.6155 4.8134999 0.65700001 2
14.7545 4.8235002 0.62099999 2
14.6655 4.8175001 0.60500002 2
14.7485 4.8225002 0.634 2
14.6675 4.8175001 0.63800001 2
14.6975 4.8195 0.62199998 2
14.6945 4.8195 0.63599998 2
14.7025 4.8195 0.60600001 2
14.6755 4.8175001 0.62 2
14.7125 4.8204999 0.63800001 2
14.6775 4.8185 0.63 2
14.6495 4.8165002 0.61299998 2
14.7185 4.8214998 0.58899999 2
14.6655 4.8175001 0.639 2
14.6695 4.8175001 0.625 2
14.7185 4.8204999 0.61900002 2
14.6845 4.8185 0.653 2
14.7335 4.8214998 0.62800002 2
14.6785 4.8185 0.57099998 2
14.7105 4.8204999 0.60799998 2
14.7445 4.8225002 0.60799998 2
14.6565 4.8165002 0.65499997 2
14.7575 4.8235002 0.61000001 2
14.6875 4.8195 0.55400002 2
14.6865 4.8185 0.65100002 2
14.6735 4.8175001 0.60900003 2
14.6985 4.8195 0.60299999 2
14.7295 4.8214998 0.63599998 2
14.6775 4.8175001 0.63599998 2
14.6845 4.8185 0.58499998 2
14.6875 4.8185 0.62699997 2
14.6705 4.8185 0.58499998 2
14.6535 4.8165002 0.62300003 2
14.7225 4.8214998 0.61900002 2
14.6735 4.8175001 0.61199999 2
14.6965 4.8195 0.65399998 2
14.6665 4.8175001 0.625 2
14.6825 4.8185 0.62400001 2
14.6905 4.8195 0.54900002 2
14.7605 4.8235002 0.62199998 2
14.7465 4.8225002 0.625 2
14.7435 4.8225002 0.59500003 2
14.7675 4.8235002 0.62900001 2
14.7315 4.8214998 0.63200003 2
14.6615 4.8165002 0.63 2
14.7055 4.8204999 0.59100002 2
14.6425 4.8154998 0.63099998 2
14.6135 4.8134999 0.66900003 2
14.7225 4.8214998 0.62099999 2
14.7545 4.8235002 0.63099998 2
14.7175 4.8214998 0.59100002 2
14.7655 4.8235002 0.62800002 2
14.7175 4.8204999 0.63800001 2
14.6635 4.8175001 0.61000001 2
14.6455 4.8154998 0.64899999 2
14.6725 4.8175001 0.63 2
14.6605 4.8175001 0.602 2
14.6795 4.8185 0.60500002 2
14.7535 4.8235002 0.63 2
14.6065 4.8125 0.671 2
14.6575 4.8165002 0.63499999 2
14.7325 4.8214998 0.64200002 2
14.7255 4.8214998 0.58200002 2
14.6875 4.8195 0.58200002 2
14.6705 4.8175001 0.60900003 2
14.7345 4.8214998 0.611 2
14.6555 4.8165002 0.648 2
14.7255 4.8214998 0.616 2
14.6925 4.8185 0.634 2
14.7015 4.8204999 0.58099997 2
14.6965 4.8195 0.58200002 2
14.7395 4.8225002 0.61900002 2
14.7155 4.4175 0.44 2
14.7065 4.4425001 0.45500001 2
14.7395 4.4375 0.45500001 2
14.7335 4.4235001 0.447 2
14.5825 4.4594998 0.45199999 2
14.6355 4.4115 0.428 2
14.6495 4.4485002 0.45199999 2
14.6975 4.4204998 0.44100001 2
14.6915 4.4475002 0.456 2
14.7925 4.4345002 0.46000001 2
14.7685 4.4315 0.45500001 2
14.7675 4.4435 0.46200001 2
14.7305 4.4415002 0.45699999 2
14.6995 4.4355001 0.44999999 2
14.7365 4.4404998 0.45699999 2
14.6015 4.4695001 0.46000001 2
14.7885 4.4334998 0.45899999 2
14.6175 4.4625001 0.45699999 2
14.6545 4.4204998 0.43599999 2
14.6405 4.4584999 0.458 2
14.7585 4.4425001 0.461 2
14.6485 4.4324999 0.44299999 2
14.6885 4.4145002 0.43599999 2
14.5955 4.4664998 0.45699999 2
14.8085 4.4324999 0.46000001 2
14.6865 4.4175 0.43700001 2
14.6685 4.4184999 0.43599999 2
14.6285 4.4524999 0.45300001 2
14.6685 4.4225001 0.43799999 2
14.6005 4.4485002 0.447 2
14.6045 4.4745002 0.46399999 2
14.6425 4.3934999 0.41800001 2
14.7795 4.4375 0.46000001 2
14.6125 4.4175 0.42899999 2
14.6975 4.4435 0.45500001 2
14.7275 4.4295001 0.449 2
14.5605 4.4805002 0.46200001 2
14.6585 4.3975 0.42199999 2
14.5575 4.4815001 0.46200001 2
14.6925 4.4064999 0.43200001 2
14.6575 4.4004998 0.42399999 2
14.6385 4.4604998 0.45899999 2
14.6225 4.3874998 0.412 2
14.7485 4.4464998 0.46200001 2
14.5695 4.4714999 0.458 2
14.7545 4.4165001 0.44400001 2
14.6755 4.4365001 0.44800001 2
14.6365 4.4175 0.43200001 2
14.5625 4.4685001 0.45500001 2
14.6445 4.4375 0.44499999 2
14.6055 4.4604998 0.45500001 2
14.6605 4.4045 0.42699999 2
14.6335 4.3885002 0.414 2
14.6745 4.4604998 0.46200001 2
14.5925 4.4604998 0.45300001 2
14.6025 4.4215002 0.43099999 2
14.6385 4.4264998 0.43799999 2
14.6565 4.4015002 0.42399999 2
14.7855 4.4245 0.45300001 2
14.5575 4.4765 0.45899999 2
14.7275 4.4345002 0.45199999 2
14.7015 4.4045 0.43099999 2
14.6145 4.4015002 0.41999999 2
14.6245 4.4524999 0.45199999 2
14.6865 4.4295001 0.44499999 2
14.6905 4.4495001 0.458 2
14.6065 4.4074998 0.42199999 2
14.6095 4.4085002 0.42300001 2
14.6235 4.4435 0.44600001 2
14.6045 4.4225001 0.43099999 2
14.6605 4.3915 0.41800001 2
14.6405 4.4435 0.44800001 2
14.7205 4.4115 0.43799999 2
14.7085 4.4404998 0.454 2
14.6315 4.4415002 0.44600001 2
14.5805 4.4425001 0.44100001 2
14.6275 4.4134998 0.42899999 2
14.7215 4.4425001 0.45699999 2
14.6365 4.3885002 0.414 2
14.6635 4.4095001 0.43000001 2
14.6865 4.4435 0.45300001 2
14.7855 4.4334998 0.458 2
14.6215 4.4025002 0.421 2
14.6825 4.4324999 0.44600001 2
14.6425 4.4204998 0.435 2
14.6865 4.4105 0.433 2
14.6335 4.4404998 0.44600001 2
14.6365 4.3915 0.41600001 2
14.6675 4.4514999 0.456 2
14.6225 4.4675002 0.461 2
14.6665 4.4074998 0.42899999 2
14.5835 4.4775 0.463 2
14.6635 4.4305 0.44299999 2
14.6865 4.4475002 0.456 2
14.7455 4.4274998 0.44999999 2
14.6345 4.4475002 0.44999999 2
14.7185 4.4105 0.43700001 2
14.6405 4.4514999 0.45300001 2
14.6565 4.4475002 0.45300001 2
14.6315 4.4365001 0.44299999 2
14.6625 4.4524999 0.456 2
14.7165 4.4445 0.45699999 2
14.7555 4.4315 0.454 2
14.6135 4.4654999 0.45899999 2
14.6405 4.4215002 0.435 2
14.6885 4.4375 0.44999999 2
14.6465 4.4074998 0.42699999 2
14.6235 4.4025002 0.421 2
14.6835 4.4064999 0.43000001 2
14.6425 4.4625001 0.46000001 2
14.6145 4.4025002 0.41999999 2
14.6915 4.4105 0.43399999 2
14.6505 4.4524999 0.45500001 2
14.6125 4.4365001 0.44100001 2
14.6835 4.4514999 0.458 2
14.6435 4.4485002 0.45199999 2
14.6635 4.4295001 0.442 2
14.6415 4.4184999 0.433 2
14.6735 4.4345002 0.44600001 2
14.7315 4.4355001 0.454 2
14.7365 4.4225001 0.44600001 2
14.6635 4.4645 0.46399999 2
14.6425 4.4285002 0.43900001 2
14.6515 4.4394999 0.447 2
14.7035 4.4134998 0.43700001 2
14.6475 4.4015002 0.42300001 2
14.7725 4.4375 0.45899999 2
14.6995 4.4305 0.447 2
14.5835 4.4794998 0.46399999 2
14.7015 4.4524999 0.461 2
14.7485 4.4254999 0.449 2
14.6255 4.4545002 0.45300001 2
14.6345 4.4685001 0.463 2
14.6445 4.4124999 0.43000001 2
14.7495 4.4295001 0.45199999 2
14.7055 4.4134998 0.43700001 2
14.6885 4.4524999 0.45899999 2
14.6525 4.4555001 0.45699999 2
14.7605 4.4404998 0.46000001 2
14.5855 4.4784999 0.46399999 2
14.6455 4.4134998 0.43099999 2
14.6545 4.3965001 0.421 2
14.6845 4.3985 0.426 2
14.7045 4.4315 0.44800001 2
14.7025 4.4454999 0.456 2
14.6305 4.4464998 0.449 2
14.6185 4.3994999 0.419 2
14.6165 4.4124999 0.426 2
14.5935 4.4485002 0.44600001 2
14.7185 4.8235002 0.653 2
14.6645 4.8195 0.66500002 2
14.6305 4.8395 0.708 2
14.6955 4.8295002 0.671 2
14.6715 4.8264999 0.67400002 2
14.6615 4.8284998 0.68000001 2
14.6275 4.8195 0.67699999 2
14.6415 4.8365002 0.69800001 2
14.6305 4.8154998 0.67000002 2
14.7105 4.8255 0.65899998 2
14.6385 4.8204999 0.676 2
14.6835 4.8295002 0.67400002 2
14.7215 4.8274999 0.65899998 2
14.7335 4.8274999 0.65499997 2
14.6985 4.8255 0.66399997 2
14.5915 4.8214998 0.69199997 2
14.5915 4.8315001 0.708 2
14.6185 4.8154998 0.67400002 2
14.6385 4.8354998 0.69800001 2
14.5905 4.8435001 0.72600001 2
14.6045 4.8185 0.68300003 2
14.6615 4.8344998 0.68900001 2
14.6765 4.8344998 0.68400002 2
14.5555 4.8414998 0.73400003 2
14.7565 4.8245001 0.64300001 2
14.5655 4.8464999 0.73799998 2
14.7465 4.8295002 0.65399998 2
14.6245 4.8334999 0.69999999 2
14.6695 4.8305001 0.68000001 2
14.5745 4.8455 0.73500001 2
14.6805 4.8185 0.65799999 2
14.6265 4.8365002 0.704 2
14.6525 4.8185 0.667 2
14.6755 4.8325 0.68099999 2
14.6305 4.8185 0.67500001 2
14.5785 4.8305001 0.70999998 2
14.5725 4.8334999 0.71600002 2
14.7135 4.8295002 0.66500002 2
14.6365 4.8225002 0.67900002 2
14.6685 4.8245001 0.67199999 2
14.7555 4.8264999 0.64700001 2
14.6055 4.8334999 0.70599997 2
14.6495 4.8354998 0.69499999 2
14.6155 4.8214998 0.68400002 2
14.6635 4.8225002 0.67000002 2
14.6825 4.8315001 0.67799997 2
14.5825 4.8375001 0.71899998 2
14.5845 4.8305001 0.708 2
14.6255 4.8284998 0.69199997 2
14.5995 4.8414998 0.72100002 2
14.6235 4.8235002 0.685 2
14.6035 4.8344998 0.708 2
14.5955 4.8274999 0.69999999 2
14.7445 4.8255 0.648 2
14.6465 4.8344998 0.69400001 2
14.6235 4.8264999 0.68900001 2
14.6175 4.8354998 0.704 2
14.5585 4.8455 0.73900002 2
14.6535 4.8334999 0.69 2
14.5795 4.8445001 0.73100001 2
14.6645 4.8245001 0.67299998 2
14.6005 4.8214998 0.68900001 2
14.5965 4.8195 0.68699998 2
14.6455 4.8204999 0.67299998 2
14.7035 4.8264999 0.66399997 2
14.6205 4.8185 0.67799997 2
14.6135 4.8154998 0.67500001 2
14.5665 4.8334999 0.71899998 2
14.6515 4.8185 0.66799998 2
14.6175 4.8214998 0.68300003 2
14.5975 4.8414998 0.72100002 2
14.7115 4.8495002 0.71799999 2
14.8455 4.8565001 0.71100003 2
14.6825 4.8544998 0.74000001 2
14.8845 4.8785 0.76700002 2
14.8115 4.8544998 0.713 2
14.7225 4.8534999 0.727 2
14.7815 4.8575001 0.72799999 2
14.6895 4.8365002 0.68699998 2
14.7635 4.8614998 0.74299997 2
14.7165 4.8325 0.66900003 2
14.7175 4.8425002 0.69599998 2
14.8625 4.8835001 0.78600001 2
14.7755 4.8674998 0.75700003 2
14.7695 4.8585 0.73299998 2
14.6685 4.8585 0.75199997 2
14.6455 4.8404999 0.70599997 2
14.7275 4.8445001 0.699 2
14.7135 4.8455 0.70700002 2
14.7065 4.8544998 0.73299998 2
14.6725 4.8464999 0.71700001 2
14.7935 4.8724999 0.76899999 2
14.8685 4.8825002 0.78200001 2
14.8625 4.8655 0.73400003 2
14.8355 4.8825002 0.78899997 2
14.7575 4.8315001 0.65700001 2
14.7805 4.8565001 0.72600001 2
14.7805 4.8635001 0.74400002 2
14.8335 4.8575001 0.71700001 2
14.7585 4.8484998 0.70499998 2
14.8185 4.8685002 0.75199997 2
14.8175 4.8594999 0.72399998 2
14.7655 4.8614998 0.74199998 2
14.8195 4.8744998 0.76800001 2
14.6415 4.8585 0.75800002 2
14.6405 4.8534999 0.74299997 2
14.5605 4.8495002 0.74900001 2
14.8475 4.8734999 0.759 2
14.7995 4.8794999 0.787 2
14.7225 4.8375001 0.68300003 2
14.7765 4.8315001 0.653 2
14.6155 4.8555002 0.75599998 2
14.8415 4.8555002 0.70999998 2
14.6015 4.8534999 0.75199997 2
14.7435 4.8534999 0.72399998 2
14.8705 4.8835001 0.78299999 2
14.7865 4.8765001 0.78100002 2
14.8205 4.8734999 0.764 2
14.8235 4.8715 0.75999999 2
14.7995 4.8555002 0.71899998 2
14.8425 4.8755002 0.76599997 2
14.7735 4.8734999 0.77399999 2
14.6405 4.8585 0.75800002 2
14.7425 4.8414998 0.69 2
14.7415 4.8575001 0.736 2
14.8225 4.8544998 0.70999998 2
14.6425 4.8505001 0.736 2
14.8025 4.8445001 0.68699998 2
14.8035 4.8425002 0.68099999 2
14.7365 4.8664999 0.76300001 2
14.8065 4.8404999 0.67199999 2
14.7835 4.8685002 0.759 2
14.7675 4.8414998 0.68300003 2
14.6385 4.8435001 0.71499997 2
14.6125 4.8505001 0.741 2
14.8045 4.8804998 0.78899997 2
14.7105 4.8585 0.745 2
14.8805 4.8785 0.76700002 2
14.8885 4.8874998 0.79100001 2
14.8045 4.8695002 0.75800002 2
14.7665 4.8674998 0.75800002 2
14.7075 4.8484998 0.71700001 2
14.7795 4.8604999 0.736 2
14.8045 4.8555002 0.71700001 2
14.7225 4.8315001 0.66600001 2
14.7195 4.8365002 0.67799997 2
14.7155 4.8695002 0.77600002 2
14.7375 4.8664999 0.76300001 2
14.8415 4.8614998 0.72500002 2
14.7595 4.8534999 0.72000003 2
14.5895 4.8534999 0.75300002 2
14.8565 4.8734999 0.759 2
14.7155 4.8334999 0.67000002 2
14.7235 4.8705001 0.77700001 2
14.7665 4.8715 0.76999998 2
14.8045 4.8344998 0.65600002 2
14.6605 4.8525 0.736 2
14.7535 4.8375001 0.676 2
14.6115 4.8544998 0.75199997 2
14.6635 4.8435001 0.71200001 2
14.7765 4.8604999 0.73699999 2
14.7325 4.8474998 0.70899999 2
14.7645 4.8585 0.73500001 2
14.8785 4.8885002 0.79799998 2
14.7235 4.8375001 0.68300003 2
14.7695 4.8385 0.676 2
14.7705 4.8594999 0.73400003 2
14.8375 4.8565001 0.71200001 2
14.8065 4.8625002 0.73699999 2
14.6025 4.8534999 0.75199997 2
14.7865 4.8775001 0.78399998 2
14.6465 4.8515 0.73699999 2
14.7295 4.8594999 0.74299997 2
14.6655 4.8435001 0.71100003 2
14.7125 4.8395 0.68800002 2
14.7065 4.8354998 0.67799997 2
14.7985 4.8484998 0.69800001 2
14.7075 4.8414998 0.69700003 2
14.7905 4.8534999 0.713 2
14.7185 4.8544998 0.73299998 2
14.8005 4.8664999 0.75099999 2
14.7905 4.8525 0.71200001 2
14.8335 4.8794999 0.77999997 2
14.6875 4.8455 0.71100003 2
14.8235 4.8515 0.70300001 2
14.8125 4.8755002 0.77399999 2
14.7015 4.8365002 0.68199998 2
14.8815 4.8785 0.76700002 2
14.7725 4.8534999 0.71799999 2
14.7995 4.8645 0.74299997 2
14.8445 4.8814998 0.78399998 2
14.7275 4.8315001 0.66500002 2
14.6895 4.8445001 0.70899999 2
14.6675 4.8515 0.73199999 2
14.6385 4.8525 0.74199998 2
14.6505 4.8565001 0.75099999 2
14.7535 4.8655 0.75599998 2
14.8365 4.8794999 0.77999997 2
14.7555 4.8755002 0.78399998 2
14.7705 4.8325 0.65899998 2
14.7325 4.8365002 0.67699999 2
14.8965 4.8895001 0.796 2
14.7725 4.8755002 0.78200001 2
14.7565 4.8455 0.699 2
14.7325 4.8645 0.75599998 2
14.6195 4.8464999 0.72799999 2
14.7705 4.8325 0.65799999 2
14.7995 4.8395 0.671 2
14.7255 4.8635001 0.75599998 2
14.7885 4.8604999 0.73400003 2
14.7955 4.8375001 0.667 2
14.7685 4.8604999 0.73799998 2
14.8145 4.8594999 0.72500002 2
14.6755 4.8585 0.75300002 2
14.7945 4.8585 0.727 2
14.7125 4.8604999 0.75 2
14.8365 4.8635001 0.73400003 2
14.8115 4.8585 0.72500002 2
14.6375 4.8565001 0.755 2
14.6365 4.8455 0.72100002 2
14.7655 4.8365002 0.671 2
14.6605 4.8625002 0.76800001 2
14.8155 4.8455 0.685 2
14.5925 4.8484998 0.73799998 2
14.6615 4.8385 0.69599998 2
14.7335 4.8455 0.70200002 2
14.7565 4.8365002 0.671 2
14.6425 4.8555002 0.74900001 2
14.6635 4.8404999 0.70300001 2
14.8425 4.8555002 0.70899999 2
14.8225 4.8455 0.685 2
14.7915 4.8404999 0.67500001 2
14.6705 4.8645 0.77100003 2
14.6465 4.8604999 0.764 2
14.7785 4.8755002 0.77999997 2
14.8455 4.8705001 0.75199997 2
14.7545 4.8544998 0.72399998 2
14.8075 4.8705001 0.759 2
14.6775 4.8365002 0.68800002 2
14.8185 4.8744998 0.76800001 2
14.8935 4.8874998 0.792 2
14.7145 4.8414998 0.69499999 2
14.6535 4.8555002 0.74699998 2
14.6765 4.8555002 0.74299997 2
14.6485 4.8565001 0.75 2
14.7875 4.8715 0.76499999 2
14.7805 4.8445001 0.68900001 2
14.6745 4.8484998 0.72399998 2
14.6215 4.8505001 0.73799998 2
14.6855 4.8365002 0.68699998 2
14.8245 4.8674998 0.74900001 2
14.7795 4.8315001 0.65399998 2
14.8435 4.8594999 0.72000003 2
14.8795 4.8874998 0.79400003 2
14.8935 4.8835001 0.77899998 2
14.6945 4.8414998 0.69999999 2
14.8065 4.8344998 0.65700001 2
14.7855 4.8425002 0.68199998 2
14.6325 4.8585 0.75999999 2
14.8055 4.8555002 0.71799999 2
14.8805 4.8864999 0.792 2
14.7715 4.8274999 0.64300001 2
14.8505 4.8814998 0.78399998 2
14.6555 4.8565001 0.75 2
14.7515 4.8705001 0.77200001 2
14.6485 4.8575001 0.755 2
14.7145 4.8555002 0.73500001 2
14.7695 4.8505001 0.70899999 2
14.8705 4.8825002 0.78100002 2
14.5945 4.8495002 0.74299997 2
14.7265 4.8354998 0.67500001 2
14.7475 4.8614998 0.745 2
14.8675 4.8874998 0.796 2
14.7085 4.8375001 0.68300003 2
14.7235 4.8565001 0.73699999 2
14.7885 4.8604999 0.73299998 2
14.7085 4.8674998 0.76999998 2
14.7395 4.8594999 0.74199998 2
14.7575 4.8295002 0.65200001 2
14.8805 4.8905001 0.801 2
14.8545 4.8715 0.75300002 2
14.7035 4.8365002 0.68300003 2
14.7725 4.8544998 0.72100002 2
14.7305 4.8354998 0.67299998 2
14.7165 4.8474998 0.71100003 2
14.6645 4.8555002 0.745 2
14.6305 4.8425002 0.71499997 2
14.6875 4.8625002 0.76099998 2
14.6115 4.8484998 0.73699999 2
14.7935 4.8695002 0.75999999 2
14.7205 4.8414998 0.69199997 2
14.6725 4.8365002 0.69 2
14.7805 4.8655 0.75 2
14.6485 4.8414998 0.70899999 2
14.7365 4.8715 0.778 2
14.7625 4.8695002 0.76700002 2
14.7005 4.8565001 0.74199998 2
14.8105 4.8404999 0.671 2
14.7905 4.8674998 0.755 2
14.7335 4.8365002 0.676 2
14.8395 4.8825002 0.787 2
14.7235 4.8365002 0.67900002 2
14.6905 4.8495002 0.72299999 2
14.7485 4.8685002 0.76499999 2
14.8055 4.8344998 0.65700001 2
14.8635 4.8874998 0.79699999 2
14.7795 4.8464999 0.69700003 2
14.7625 4.8385 0.676 2
14.7875 4.8544998 0.71799999 2
14.6995 4.8474998 0.71499997 2
14.7315 4.8695002 0.77100003 2
14.6975 4.8674998 0.77200001 2
14.7495 4.8495002 0.71200001 2
14.8195 4.8734999 0.764 2
14.7725 4.8325 0.65799999 2
14.8775 4.8755002 0.76099998 2
14.7205 4.8635001 0.75599998 2
14.7715 4.8295002 0.648 2
14.6455 4.8395 0.70099998 2
14.8725 4.8835001 0.78399998 2
14.6745 4.8525 0.73500001 2
14.7205 4.8645 0.759 2
14.7965 4.8404999 0.676 2
14.6535 4.8525 0.73900002 2
14.8325 4.8575001 0.71799999 2
14.6665 4.8585 0.75199997 2
14.7645 4.8655 0.75400001 2
14.8815 4.8885002 0.796 2
14.6615 4.8575001 0.75099999 2
14.8545 4.8765001 0.76800001 2
14.6075 4.8484998 0.73699999 2
14.7755 4.8455 0.69400001 2
14.7995 4.8305001 0.64600003 2
14.7775 4.8315001 0.653 2
14.8385 4.8575001 0.71700001 2
14.7945 4.8705001 0.76200002 2
14.5635 4.8495002 0.74800003 2
14.7115 4.8344998 0.67699999 2
14.7495 4.8565001 0.73199999 2
14.7045 4.8474998 0.71499997 2
14.7625 4.8375001 0.67400002 2
14.6485 4.8515 0.73799998 2
14.5875 4.8505001 0.745 2
14.6845 4.8365002 0.68800002 2
