# .PCD v0.7 - Point Cloud Data file format
VERSION 0.7
FIELDS x y z label
SIZE 4 4 4 4
TYPE F F F U
COUNT 1 1 1 1
WIDTH 1643
HEIGHT 1
VIEWPOINT 0 0 0 1 0 0 0
POINTS 1643
DATA ascii
14.8135 5.2065001 0.44 2
14.8445 5.2544999 0.442 2
14.8975 5.2414999 0.43000001 2
14.8125 5.2505002 0.44800001 2
14.8055 5.2655001 0.45100001 2
14.8245 5.2865 0.45100001 2
14.8795 5.2465 0.435 2
14.8175 5.2385001 0.44499999 2
14.7925 5.2294998 0.44800001 2
14.8545 5.3055 0.449 2
14.8345 5.1964998 0.435 2
14.8495 5.1964998 0.43200001 2
14.8455 5.2564998 0.44299999 2
14.8455 5.2104998 0.435 2
14.7835 5.1875 0.44299999 2
14.8455 5.2294998 0.43799999 2
14.8715 5.2965002 0.44400001 2
14.8775 5.2525001 0.43599999 2
14.7335 5.1855001 0.45199999 2
14.7365 5.1894999 0.45199999 2
14.8405 5.1975002 0.43399999 2
14.8275 5.2855 0.44999999 2
14.7795 5.2065001 0.447 2
14.8275 5.2385001 0.44299999 2
14.8145 5.2214999 0.44299999 2
14.8615 5.2635002 0.44100001 2
14.8325 5.2275 0.44 2
14.8825 5.2775002 0.43900001 2
14.9085 5.2265 0.426 2
14.8995 5.2315001 0.428 2
14.8595 5.2905002 0.44499999 2
14.9315 5.2234998 0.421 2
14.7925 5.2494998 0.45100001 2
14.7765 5.2175002 0.449 2
14.8105 5.2655001 0.44999999 2
14.8935 5.2605 0.43399999 2
14.8915 4.8744998 0.454 2
14.9135 4.8635001 0.45300001 2
14.9415 4.8744998 0.45500001 2
14.9555 4.8555002 0.45300001 2
14.9375 4.8734999 0.45500001 2
14.9395 4.8794999 0.456 2
14.9285 4.8794999 0.45500001 2
14.9105 4.8794999 0.45500001 2
14.9465 4.8585 0.45300001 2
14.9485 4.8845 0.456 2
14.9535 4.8705001 0.45500001 2
14.9385 4.8664999 0.454 2
14.9585 4.8495002 0.45300001 2
14.9095 4.8664999 0.45300001 2
14.9405 4.8585 0.45300001 2
14.9175 4.8625002 0.45300001 2
14.9335 4.8715 0.45500001 2
14.9135 4.8705001 0.454 2
14.8765 4.8785 0.454 2
14.9295 4.8705001 0.454 2
14.9445 4.8555002 0.45300001 2
14.9475 4.8695002 0.45500001 2
14.8395 4.9464998 0.45300001 2
14.8945 4.8975 0.44999999 2
14.8645 4.9235001 0.45199999 2
14.9005 4.9054999 0.45300001 2
14.8365 4.9445 0.45300001 2
14.8665 4.9555001 0.46000001 2
14.8435 4.8874998 0.44 2
14.9115 4.9124999 0.456 2
14.8375 4.8934999 0.44100001 2
14.8615 4.9045 0.447 2
14.8555 4.9045 0.44600001 2
14.8635 4.9454999 0.45699999 2
14.8375 4.9305 0.449 2
14.9205 4.9074998 0.456 2
14.8575 4.8905001 0.44299999 2
14.8875 4.9004998 0.44999999 2
14.8485 4.9225001 0.449 2
14.8555 4.9615002 0.45899999 2
14.8945 4.8895001 0.44800001 2
14.8445 4.9454999 0.454 2
14.8685 4.9035001 0.44800001 2
14.8795 4.9454999 0.45899999 2
14.8775 4.8985 0.44800001 2
14.8575 4.8985 0.44499999 2
14.8585 4.9285002 0.45199999 2
14.8325 4.9204998 0.44600001 2
14.9455 4.8905001 0.456 2
14.8345 4.9134998 0.44499999 2
14.8455 4.9724998 0.46000001 2
14.8775 4.9165001 0.45199999 2
14.8985 4.8985 0.45100001 2
14.8555 4.9404998 0.454 2
14.9495 4.8895001 0.45699999 2
14.8735 4.9425001 0.45699999 2
14.9215 4.9134998 0.458 2
14.8665 4.9435 0.45699999 2
14.9165 4.9115 0.45699999 2
14.8455 4.9705 0.46000001 2
14.8675 4.9435 0.45699999 2
14.8615 4.8944998 0.44400001 2
14.8745 4.9105 0.44999999 2
14.8385 4.9015002 0.44299999 2
14.9185 4.9045 0.45500001 2
14.9165 4.9155002 0.458 2
14.9285 4.8885002 0.45300001 2
14.8585 4.8845 0.442 2
14.8565 4.9225001 0.44999999 2
14.8765 4.9035001 0.449 2
14.8905 4.9305 0.45699999 2
14.8515 4.9524999 0.45699999 2
14.8455 4.8885002 0.44100001 2
14.8825 4.8895001 0.44600001 2
14.8625 4.9225001 0.45100001 2
14.8795 4.8905001 0.44600001 2
14.9315 4.8895001 0.454 2
14.9025 4.8845 0.44800001 2
14.8715 4.9384999 0.456 2
14.8885 4.8855 0.44600001 2
14.8455 4.9724998 0.46000001 2
14.8855 4.8864999 0.44600001 2
14.8355 4.9074998 0.44400001 2
14.8385 4.9485002 0.454 2
14.8905 4.9124999 0.45300001 2
14.8445 4.8915 0.44100001 2
14.9455 5.3315001 0.53299999 2
14.9825 5.3315001 0.53399998 2
14.9415 5.3165002 0.602 2
14.9695 5.3225002 0.57800001 2
14.9335 5.3245001 0.56300002 2
14.9335 5.3235002 0.56999999 2
14.9405 5.3325 0.52499998 2
14.9525 5.3225002 0.57300001 2
14.9625 5.3305001 0.53799999 2
14.9335 5.3305001 0.53500003 2
14.9425 5.3214998 0.57800001 2
14.9465 5.3195 0.58999997 2
14.9285 5.3245001 0.56199998 2
14.9325 5.3274999 0.551 2
14.9475 5.3274999 0.54900002 2
14.9585 5.3195 0.59100002 2
14.9435 5.3365002 0.50800002 2
14.9405 5.3175001 0.59500003 2
14.9365 5.3235002 0.56800002 2
14.9455 5.3295002 0.54000002 2
14.9695 5.3325 0.53100002 2
14.9425 5.3175001 0.59799999 2
14.9505 5.3235002 0.57200003 2
14.9315 5.3245001 0.56300002 2
14.9845 5.3245001 0.56800002 2
14.9185 5.3175001 0.59399998 2
14.9375 5.3274999 0.551 2
14.9495 5.3295002 0.54100001 2
14.9645 5.3264999 0.55900002 2
14.9955 5.3284998 0.55400002 2
14.9405 5.3225002 0.57499999 2
14.9225 5.3125 0.62099999 2
14.9165 5.3125 0.616 2
14.9405 5.3295002 0.542 2
14.9835 5.3245001 0.56999999 2
14.9475 5.3365002 0.50800002 2
14.9495 5.3354998 0.51499999 2
14.9095 5.3095002 0.634 2
14.9875 5.3305001 0.54000002 2
14.9815 5.3245001 0.56900001 2
14.9365 5.3235002 0.56999999 2
14.9195 5.3165002 0.597 2
14.9375 5.3325 0.52499998 2
14.9385 5.3295002 0.53799999 2
14.9445 5.3334999 0.523 2
14.9315 5.3235002 0.56699997 2
14.9325 5.3274999 0.55000001 2
14.9525 5.3305001 0.53799999 2
14.9505 5.3185 0.59299999 2
14.9825 5.3284998 0.54900002 2
14.9395 5.3264999 0.55299997 2
14.9585 5.3245001 0.56699997 2
14.9185 5.3144999 0.611 2
14.9445 5.3295002 0.54299998 2
14.9625 5.3305001 0.53799999 2
14.9475 5.3214998 0.57700002 2
14.9285 5.3185 0.59200001 2
14.9035 5.0885 0.43700001 2
14.9205 5.1044998 0.433 2
14.9005 5.0304999 0.44499999 2
14.8865 5.0015001 0.45100001 2
14.9455 5.0335002 0.43900001 2
14.8815 4.9734998 0.45500001 2
14.9365 4.9854999 0.447 2
14.8765 4.9534998 0.45899999 2
14.9515 5.0064998 0.442 2
14.9445 5.0135002 0.442 2
14.9065 4.9324999 0.45699999 2
14.9495 4.9765 0.44600001 2
14.9245 5.1465001 0.42699999 2
14.9525 5.0044999 0.442 2
14.9485 5.1845002 0.41800001 2
14.9015 5.0665002 0.44 2
14.9465 5.1564999 0.42199999 2
14.9135 5.0634999 0.43900001 2
14.8685 4.9935002 0.45500001 2
14.8925 5.0405002 0.44499999 2
14.9375 5.0755 0.43399999 2
14.9195 5.1025 0.433 2
14.9315 5.0054998 0.44400001 2
14.9465 5.1634998 0.42199999 2
14.8825 5.0475001 0.44600001 2
14.9115 5.0324998 0.44400001 2
14.9325 4.9334998 0.454 2
14.9375 4.9524999 0.45100001 2
14.9385 4.9074998 0.456 2
14.9515 5.1244998 0.426 2
14.9065 5.0914998 0.43599999 2
14.9385 5.0974998 0.43099999 2
14.9165 5.0825 0.43599999 2
14.9315 4.9765 0.44800001 2
14.9085 4.9534998 0.454 2
14.8905 5.0574999 0.44299999 2
14.9515 5.1075001 0.428 2
14.9135 5.0135002 0.44600001 2
14.9045 5.0174999 0.447 2
14.8825 5.0135002 0.44999999 2
14.8955 5.0415001 0.44400001 2
14.8765 5.0254998 0.449 2
14.9355 5.1325002 0.42699999 2
14.9185 4.9924998 0.44800001 2
14.9415 4.9165001 0.45500001 2
14.9425 4.8985 0.45699999 2
14.8925 4.9784999 0.45300001 2
14.9075 5.0114999 0.447 2
14.9485 5.0145001 0.44100001 2
14.9285 5.1554999 0.42500001 2
14.9285 4.9345002 0.454 2
14.9285 4.9815001 0.44800001 2
14.9445 4.9475002 0.44999999 2
14.9515 5.0114999 0.44100001 2
14.8775 4.9615002 0.458 2
14.9495 5.0625 0.43399999 2
14.8975 4.9984999 0.44999999 2
14.8635 4.9924998 0.456 2
14.9265 5.0075002 0.44499999 2
14.9485 4.9545002 0.449 2
14.8815 4.9805002 0.454 2
14.9465 5.1884999 0.41800001 2
14.9425 5.0644999 0.435 2
14.9455 5.1255002 0.42699999 2
14.9205 4.9905 0.44800001 2
14.9215 4.9604998 0.45199999 2
14.9295 4.9095001 0.45699999 2
14.9415 5.0395002 0.43900001 2
14.9095 5.0444999 0.442 2
14.8965 5.0815001 0.43900001 2
14.8855 5.0345001 0.447 2
14.8615 4.9935002 0.45500001 2
14.8495 4.9835 0.45899999 2
14.9395 5.1475 0.42500001 2
14.8945 5.0615001 0.442 2
14.9465 4.9235001 0.45300001 2
14.9305 4.9264998 0.45500001 2
14.9165 4.9675002 0.45199999 2
14.9115 5.0254998 0.44499999 2
14.9295 5.1265001 0.42899999 2
14.8935 5.0584998 0.44299999 2
14.9465 5.0475001 0.43700001 2
14.9095 4.9584999 0.454 2
14.9345 5.1485 0.42500001 2
14.9045 5.0194998 0.44600001 2
14.9215 5.0695 0.43700001 2
14.8995 5.0865002 0.43799999 2
14.9475 4.9045 0.456 2
14.8895 5.0485001 0.44499999 2
14.9385 5.1104999 0.43000001 2
14.8745 5.0015001 0.45300001 2
14.9115 4.9485002 0.45500001 2
14.9195 5.0595002 0.43900001 2
14.9435 4.9485002 0.44999999 2
14.9065 4.9514999 0.45500001 2
14.9215 4.9295001 0.456 2
14.9285 4.9215002 0.456 2
14.9425 5.0454998 0.43799999 2
14.9275 4.9584999 0.45100001 2
14.9445 5.0365 0.43900001 2
14.8695 4.9854999 0.456 2
14.9255 5.0885 0.43399999 2
14.9265 4.9315 0.45500001 2
14.9255 5.1114998 0.43099999 2
14.9205 4.9875002 0.44800001 2
14.9485 4.8994999 0.456 2
14.9475 5.0215001 0.44 2
14.9265 5.0974998 0.433 2
14.9075 4.9384999 0.45699999 2
14.9425 4.9815001 0.44600001 2
14.9305 4.9435 0.45300001 2
14.9385 4.9555001 0.44999999 2
14.8635 4.9784999 0.45699999 2
14.9385 5.0415001 0.43900001 2
14.9315 4.9805002 0.44800001 2
14.8985 5.0524998 0.44299999 2
14.9215 4.9914999 0.44800001 2
14.9425 4.9175 0.45500001 2
14.9145 4.9594998 0.45300001 2
14.8785 4.9625001 0.45699999 2
14.9425 5.0784998 0.433 2
14.9435 5.1515002 0.42300001 2
14.9265 4.9545002 0.45199999 2
14.9445 4.9714999 0.447 2
14.9275 5.0095 0.44499999 2
14.9125 5.0405002 0.442 2
14.9355 4.9875002 0.44600001 2
14.9395 5.0314999 0.44 2
14.9015 4.9935002 0.44999999 2
14.9015 5.0015001 0.449 2
14.9505 4.9315 0.45199999 2
14.9365 4.9264998 0.454 2
14.8785 5.0194998 0.44999999 2
14.9325 4.9155002 0.456 2
14.9355 4.9475002 0.45199999 2
14.9345 5.0615001 0.43700001 2
14.8925 5.0675001 0.442 2
14.8985 4.9514999 0.456 2
14.9415 5.0265002 0.44 2
14.8775 4.9745002 0.456 2
14.9285 5.0085001 0.44400001 2
14.9085 4.9994998 0.44800001 2
14.9095 5.0745001 0.43799999 2
14.9355 5.1605 0.42300001 2
14.9265 4.9784999 0.449 2
14.9325 5.1325002 0.428 2
14.8465 4.9745002 0.46000001 2
14.9325 5.1595001 0.42399999 2
14.8655 5.0095 0.45300001 2
14.9215 5.0955 0.43399999 2
14.9385 5.0685 0.435 2
14.9035 5.0535002 0.442 2
14.9485 5.1754999 0.41999999 2
14.9215 5.0675001 0.43799999 2
14.9145 5.0454998 0.44100001 2
14.9325 5.0955 0.43200001 2
14.8945 4.9394999 0.458 2
14.9145 4.9285002 0.45699999 2
14.9285 5.0665002 0.43700001 2
14.8895 4.9594998 0.456 2
14.9465 5.1725001 0.41999999 2
14.9455 5.0235 0.44 2
14.9105 4.9454999 0.45500001 2
14.8705 4.9755001 0.45699999 2
14.9215 4.9635 0.45100001 2
14.8995 4.9815001 0.45199999 2
14.8895 4.9705 0.45500001 2
14.9165 5.1265001 0.43000001 2
14.8925 5.0145001 0.449 2
14.9105 4.9945002 0.449 2
14.9265 5.0415001 0.44 2
14.8965 4.9664998 0.454 2
14.9315 4.9635 0.44999999 2
14.9525 5.0475001 0.43599999 2
14.9345 5.0514998 0.43799999 2
14.9395 5.1535001 0.42399999 2
14.9185 5.0964999 0.43399999 2
15.0065 5.3895001 0.45300001 2
14.9935 5.3845 0.45300001 2
14.9935 5.3864999 0.454 2
15.0195 5.3915 0.45100001 2
15.0495 5.3994999 0.449 2
15.0045 5.3855 0.45100001 2
15.0415 5.3955002 0.44800001 2
15.0525 5.4015002 0.449 2
14.9865 5.3775001 0.45100001 2
14.9985 5.3645 0.50099999 2
15.0055 5.3344998 0.54299998 2
14.9675 5.3375001 0.514 2
15.0155 5.3484998 0.53100002 2
14.9505 5.3425002 0.49599999 2
14.9835 5.3474998 0.51200002 2
14.9675 5.3445001 0.50599998 2
15.0075 5.3575001 0.51499999 2
15.0145 5.3614998 0.514 2
14.9845 5.3334999 0.53100002 2
14.9725 5.3484998 0.50300002 2
15.0055 5.3614998 0.509 2
14.9595 5.3395 0.50700003 2
14.9915 5.3484998 0.51700002 2
14.9715 5.3354998 0.51999998 2
15.0065 5.3474998 0.52700001 2
15.0115 5.3695002 0.50199997 2
15.0245 5.3744998 0.50400001 2
14.9535 5.3385 0.50400001 2
15.0015 5.3315001 0.54400003 2
15.0015 5.3544998 0.51499999 2
14.9655 5.3455 0.50300002 2
15.0095 5.3505001 0.52499998 2
14.9785 5.3395 0.51899999 2
14.9975 5.3315001 0.54100001 2
15.0195 5.3625002 0.51599997 2
14.9765 5.3525 0.50099999 2
15.0235 5.3755002 0.50300002 2
15.0205 5.3594999 0.52100003 2
14.9865 5.3425002 0.52100003 2
15.0225 5.3664999 0.51300001 2
14.9985 5.3344998 0.53899997 2
14.9715 5.3295002 0.66399997 2
14.9695 5.3305001 0.66600001 2
14.9075 5.3095002 0.64200002 2
14.9625 5.3425002 0.70599997 2
14.9565 5.3495002 0.727 2
14.9245 5.3154998 0.65100002 2
14.9025 5.3305001 0.70599997 2
14.8605 5.3474998 0.77700001 2
14.8825 5.3395 0.741 2
15.0295 5.3534999 0.69599998 2
14.9065 5.3225002 0.68099999 2
14.9305 5.3245001 0.67299998 2
14.8705 5.3414998 0.755 2
15.0885 5.3604999 0.68199998 2
15.0305 5.3445001 0.67000002 2
15.0305 5.3505001 0.68699998 2
14.9385 5.3204999 0.65700001 2
14.9705 5.3264999 0.65600002 2
14.9405 5.3425002 0.71700001 2
14.8875 5.3484998 0.76499999 2
15.0055 5.3474998 0.69300002 2
14.9025 5.3495002 0.75800002 2
14.9005 5.3325 0.71100003 2
14.9655 5.3505001 0.72600001 2
14.9285 5.3225002 0.667 2
14.9245 5.3235002 0.67299998 2
14.9735 5.3455 0.70599997 2
14.9775 5.3365002 0.67900002 2
14.9965 5.3515 0.71100003 2
14.9295 5.3185 0.65600002 2
14.8995 5.3214998 0.68000001 2
14.9815 5.3334999 0.66900003 2
15.0945 5.3614998 0.68099999 2
15.0505 5.3544998 0.68900001 2
14.9785 5.3464999 0.70700002 2
14.9415 5.3385 0.70599997 2
14.9025 5.3195 0.67400002 2
14.8925 5.3214998 0.68400002 2
14.9565 5.3225002 0.65200001 2
14.9765 5.3505001 0.71899998 2
15.0295 5.3474998 0.67900002 2
14.9475 5.3385 0.70099998 2
15.0245 5.3544998 0.70200002 2
14.9315 5.3404999 0.71499997 2
15.0235 5.3474998 0.68300003 2
14.9685 5.3525 0.73000002 2
14.9325 5.3295002 0.68599999 2
14.9655 5.3474998 0.71700001 2
14.9455 5.3435001 0.71600002 2
15.0275 5.3544998 0.70099998 2
14.9875 5.3414998 0.68599999 2
15.0675 5.3555002 0.68000001 2
14.9265 5.3295002 0.68800002 2
14.9865 5.3474998 0.70499998 2
14.9455 5.3464999 0.72500002 2
15.0325 5.3455 0.67400002 2
14.9865 5.3354998 0.67000002 2
14.9455 5.3214998 0.65600002 2
15.0215 5.3575001 0.713 2
15.0655 5.3534999 0.676 2
14.9655 5.3245001 0.653 2
14.9095 5.3125 0.64899999 2
14.8975 5.3435001 0.74400002 2
14.8945 5.3404999 0.73699999 2
14.8885 5.3325 0.71899998 2
14.9155 5.3354998 0.71100003 2
14.9635 5.3425002 0.704 2
15.0605 5.3534999 0.67799997 2
14.9745 5.3354998 0.67900002 2
14.9575 5.3474998 0.72100002 2
14.9915 5.3375001 0.67400002 2
14.9525 5.3305001 0.67500001 2
14.9785 5.3385 0.685 2
15.0175 5.3505001 0.69599998 2
14.9315 5.3495002 0.74299997 2
15.0235 5.3455 0.676 2
14.9425 5.3474998 0.73000002 2
14.8545 5.3445001 0.77100003 2
14.9765 5.3534999 0.72799999 2
14.9315 5.3284998 0.68199998 2
14.9145 5.3175001 0.66299999 2
14.9385 5.3484998 0.736 2
14.8855 5.3274999 0.708 2
14.9675 5.3315001 0.66900003 2
14.9455 5.3295002 0.67699999 2
15.0435 5.3534999 0.69 2
14.8725 5.3344998 0.73400003 2
14.9945 5.3325 0.65899998 2
14.9395 5.3305001 0.68400002 2
14.9555 5.3425002 0.70899999 2
14.9815 5.3395 0.685 2
14.8905 5.3255 0.69800001 2
15.0065 5.3425002 0.68000001 2
14.9025 5.3425002 0.74000001 2
14.8765 5.3484998 0.76999998 2
14.9815 5.3445001 0.69999999 2
14.9265 5.3255 0.67699999 2
15.0055 5.3555002 0.71700001 2
14.8795 5.3315001 0.72100002 2
14.9155 5.3365002 0.71499997 2
14.9965 5.3525 0.71399999 2
14.9025 5.3235002 0.68599999 2
14.9365 5.3334999 0.69400001 2
14.9775 5.3425002 0.69499999 2
14.9705 5.3354998 0.68000001 2
14.9195 5.3274999 0.68800002 2
14.9305 5.3474998 0.736 2
15.0785 5.3604999 0.68800002 2
14.8795 5.3445001 0.75700003 2
15.0315 5.3495002 0.68400002 2
14.9475 5.3505001 0.73400003 2
14.9215 5.3195 0.66299999 2
14.9265 5.3375001 0.71200001 2
14.9905 5.3445001 0.69400001 2
14.8995 5.3235002 0.68599999 2
15.0235 5.3484998 0.68800002 2
14.9675 5.3334999 0.67500001 2
15.0295 5.3435001 0.67000002 2
14.8835 5.3344998 0.727 2
15.0635 5.3585 0.69099998 2
14.9715 5.3325 0.671 2
14.9575 5.3284998 0.667 2
15.0245 5.3495002 0.69 2
14.9645 5.3455 0.71200001 2
14.9735 5.3295002 0.66299999 2
15.0595 5.3575001 0.69099998 2
14.9055 5.3115001 0.64899999 2
14.9845 5.3455 0.69999999 2
14.9335 5.3255 0.67199999 2
14.9685 5.3325 0.67400002 2
14.9135 5.3305001 0.699 2
14.9895 5.3464999 0.69999999 2
14.8875 5.3484998 0.76599997 2
14.9085 5.3134999 0.65399998 2
15.0025 5.3515 0.708 2
14.9775 5.3404999 0.69 2
14.9365 5.3195 0.65499997 2
14.8815 5.3235002 0.69599998 2
14.8695 5.3395 0.74900001 2
15.0405 5.3505001 0.68099999 2
14.9965 5.3555002 0.722 2
14.9655 5.3354998 0.68300003 2
15.0045 5.3555002 0.71600002 2
15.0465 5.3505001 0.67900002 2
14.9505 5.3525 0.741 2
14.9615 5.3315001 0.67299998 2
14.9025 5.3484998 0.75599998 2
14.8935 5.3495002 0.76300001 2
14.9765 5.3354998 0.676 2
14.9045 5.3435001 0.73900002 2
14.8835 5.3245001 0.69999999 2
14.9295 5.3315001 0.69300002 2
15.0175 5.3474998 0.68699998 2
14.8895 5.3455 0.75599998 2
14.9495 5.3235002 0.66000003 2
14.8965 5.3365002 0.72500002 2
14.9135 5.3305001 0.69800001 2
15.0175 5.3474998 0.68699998 2
14.8645 5.3365002 0.74299997 2
15.0635 5.3594999 0.69499999 2
15.0285 5.3425002 0.66600001 2
14.9295 5.3325 0.69599998 2
14.9345 5.3334999 0.69499999 2
15.0245 5.3474998 0.68199998 2
14.9225 5.3505001 0.74900001 2
14.9605 5.3464999 0.71700001 2
14.8475 5.3435001 0.773 2
14.9485 5.3264999 0.66799998 2
14.8745 5.3344998 0.73100001 2
15.0025 5.3924999 0.45300001 2
15.0185 5.4074998 0.45100001 2
15.0205 5.3955002 0.45199999 2
15.0365 5.4115 0.449 2
15.0445 5.4035001 0.44999999 2
14.9925 5.3905001 0.454 2
15.0035 5.3965001 0.45300001 2
15.0195 5.4025002 0.45100001 2
14.9915 5.3885002 0.45500001 2
15.0065 5.3975 0.45300001 2
14.8885 5.2975001 0.44299999 2
14.9725 5.2585001 0.43200001 2
15.0985 5.2835002 0.44299999 2
14.9785 5.3115001 0.44999999 2
14.9455 5.2375002 0.42500001 2
14.9825 5.2424998 0.42699999 2
14.9375 5.3115001 0.449 2
14.9545 5.2354999 0.42399999 2
15.0655 5.2674999 0.43700001 2
14.9795 5.2674999 0.435 2
14.9405 5.3024998 0.44600001 2
14.9395 5.2505002 0.42899999 2
14.9565 5.2884998 0.442 2
15.1235 5.2965002 0.44800001 2
14.9745 5.2455001 0.428 2
14.9375 5.3065 0.447 2
14.9745 5.3115001 0.449 2
14.9755 5.2765002 0.43799999 2
14.8765 5.3084998 0.44600001 2
14.9215 5.3134999 0.449 2
14.9565 5.2995 0.44499999 2
14.9935 5.3095002 0.449 2
14.9845 5.2925 0.44400001 2
15.0605 5.2744999 0.43900001 2
14.8935 5.2975001 0.44299999 2
15.0255 5.2884998 0.44299999 2
14.8865 5.3204999 0.45100001 2
15.0695 5.3024998 0.449 2
14.9375 5.2544999 0.43000001 2
15.0035 5.2674999 0.43599999 2
14.9545 5.3084998 0.44800001 2
14.9005 5.2835002 0.43900001 2
15.0155 5.2635002 0.435 2
14.8755 5.3045001 0.44499999 2
15.0065 5.2694998 0.43700001 2
15.0585 5.2855 0.44299999 2
14.9325 5.3065 0.447 2
14.9345 5.2535 0.42899999 2
15.0715 5.2954998 0.44600001 2
15.0515 5.2865 0.44299999 2
15.0475 5.2744999 0.43900001 2
15.0165 5.2525001 0.43099999 2
15.0095 5.3065 0.449 2
15.0405 5.2934999 0.44499999 2
15.0015 5.2884998 0.44299999 2
14.9565 5.2655001 0.43399999 2
14.9545 5.3125 0.449 2
15.0185 5.2804999 0.44 2
14.8965 5.3084998 0.447 2
14.8865 5.3105001 0.447 2
14.9925 5.2965002 0.44499999 2
14.9665 5.2995 0.44499999 2
15.0025 5.2995 0.44600001 2
15.0165 5.2814999 0.44 2
15.0395 5.2515001 0.43099999 2
14.9275 5.2564998 0.43099999 2
14.8995 5.2765002 0.43599999 2
14.8985 5.2934999 0.442 2
14.9935 5.2804999 0.44 2
15.0495 5.2775002 0.44 2
14.9255 5.3055 0.44600001 2
15.0025 5.2965002 0.44499999 2
14.9645 5.2214999 0.41999999 2
14.9865 5.2884998 0.442 2
14.8855 5.3175001 0.44999999 2
15.1135 5.2944999 0.447 2
14.9805 5.2265 0.42199999 2
14.9965 5.2684999 0.43599999 2
14.9475 5.2294998 0.42199999 2
15.0345 5.2505002 0.43099999 2
15.0615 5.2674999 0.43700001 2
14.9215 5.2795 0.43799999 2
15.0555 5.2725 0.43900001 2
15.0505 5.2705002 0.43799999 2
15.0365 5.2635002 0.435 2
15.0635 5.2985001 0.447 2
14.9065 5.2684999 0.43399999 2
14.9325 5.3014998 0.44499999 2
15.0415 5.2855 0.44299999 2
14.9125 5.3045001 0.44600001 2
14.8745 5.3105001 0.447 2
15.0575 5.3014998 0.44800001 2
15.0885 5.2865 0.44400001 2
15.0095 5.2564998 0.43200001 2
14.9335 5.2515001 0.42899999 2
15.0065 5.2635002 0.435 2
14.9295 5.3004999 0.44499999 2
14.9655 5.2865 0.44100001 2
14.9135 5.3134999 0.449 2
14.9175 5.2564998 0.43000001 2
14.9915 5.2694998 0.43599999 2
14.9305 5.2985001 0.44400001 2
15.0695 5.2865 0.44299999 2
15.0775 5.2874999 0.44400001 2
14.9535 5.2294998 0.42199999 2
14.9735 5.2575002 0.43200001 2
14.9625 5.3105001 0.449 2
15.0255 5.2474999 0.43000001 2
14.9785 5.2424998 0.42699999 2
14.9395 5.3074999 0.447 2
14.9255 5.2785001 0.43700001 2
15.0055 5.2614999 0.43399999 2
14.9545 5.2214999 0.419 2
14.9345 5.2484999 0.428 2
15.1025 5.2884998 0.44499999 2
14.9165 5.3004999 0.44499999 2
15.0155 5.2775002 0.43900001 2
14.9595 5.2564998 0.43099999 2
14.9225 5.2814999 0.43900001 2
14.9985 5.3105001 0.44999999 2
14.9065 5.2895002 0.44100001 2
14.9575 5.2975001 0.44499999 2
14.9875 5.2494998 0.43000001 2
14.9375 5.2515001 0.42899999 2
15.1255 5.2925 0.447 2
14.9325 5.2905002 0.442 2
14.9295 5.2424998 0.426 2
14.9645 5.2535 0.43000001 2
14.9605 5.2465 0.428 2
14.9275 5.3125 0.449 2
14.9115 5.2735 0.43599999 2
15.0825 5.2855 0.44299999 2
15.0265 5.2995 0.447 2
14.9895 5.3095002 0.449 2
14.9075 5.3004999 0.44400001 2
14.9865 5.2845001 0.44100001 2
15.0735 5.2795 0.44100001 2
14.9085 5.2814999 0.43799999 2
15.0715 5.2694998 0.43799999 2
14.9055 5.2915001 0.44100001 2
15.0145 5.2564998 0.43200001 2
14.8945 5.3024998 0.44499999 2
14.9485 5.2775002 0.43799999 2
14.9585 5.2954998 0.44400001 2
14.9595 5.2905002 0.442 2
15.0935 5.2785001 0.44100001 2
14.9235 5.2455001 0.42699999 2
15.0275 5.2744999 0.43900001 2
14.9495 5.2424998 0.426 2
14.9845 5.2405 0.426 2
14.9105 5.2895002 0.44100001 2
14.9105 5.2954998 0.44299999 2
14.9885 5.2335 0.42399999 2
15.0505 5.2595 0.43399999 2
14.9735 5.3095002 0.449 2
14.9815 5.3074999 0.44800001 2
14.9755 5.3004999 0.44600001 2
14.9065 5.3154998 0.449 2
15.0495 5.2905002 0.44400001 2
14.9715 5.2275 0.42199999 2
14.9575 5.2185001 0.419 2
15.0665 5.2814999 0.442 2
14.9535 5.3055 0.447 2
15.0075 5.2505002 0.43000001 2
14.9265 5.2905002 0.44100001 2
15.0035 5.3645 0.449 2
15.0265 5.3825002 0.44800001 2
15.0525 5.3575001 0.44800001 2
15.1015 5.3414998 0.44800001 2
14.9375 5.3344998 0.44999999 2
15.0945 5.3744998 0.447 2
15.0765 5.3435001 0.44800001 2
15.0905 5.3885002 0.447 2
15.0915 5.3455 0.44800001 2
15.0605 5.3295002 0.44800001 2
15.1175 5.3305001 0.44800001 2
15.0435 5.3645 0.44800001 2
15.0105 5.3414998 0.449 2
15.0105 5.3705001 0.449 2
14.9775 5.3385 0.449 2
15.0395 5.3055 0.449 2
15.0835 5.3435001 0.44800001 2
14.9845 5.3505001 0.449 2
15.0255 5.3305001 0.449 2
15.0635 5.3315001 0.44800001 2
14.9995 5.3125 0.449 2
14.9005 5.3404999 0.44999999 2
15.0495 5.3724999 0.44800001 2
15.0815 5.3855 0.447 2
15.1195 5.3074999 0.44800001 2
15.0585 5.3944998 0.44800001 2
15.0075 5.3365002 0.449 2
14.9735 5.3134999 0.44999999 2
15.0165 5.3154998 0.449 2
14.9915 5.3414998 0.449 2
14.9685 5.3645 0.449 2
15.0455 5.3544998 0.44800001 2
15.0145 5.3175001 0.449 2
15.0885 5.3895001 0.447 2
15.0475 5.3934999 0.44800001 2
14.9595 5.3185 0.44999999 2
15.0375 5.3115001 0.449 2
15.0555 5.3105001 0.449 2
14.8835 5.3315001 0.45100001 2
15.1025 5.3674998 0.447 2
15.0505 5.3055 0.449 2
15.1135 5.3365002 0.44800001 2
14.9185 5.3464999 0.44999999 2
15.0875 5.3544998 0.44800001 2
15.1165 5.3115001 0.44800001 2
15.0415 5.3334999 0.449 2
15.0105 5.3484998 0.449 2
15.1065 5.3344998 0.44800001 2
15.0665 5.3495002 0.44800001 2
15.0055 5.3245001 0.449 2
14.9375 5.3225002 0.44999999 2
15.1045 5.3435001 0.44800001 2
14.9995 5.3455 0.449 2
15.0985 5.3734999 0.447 2
14.9735 5.3354998 0.44999999 2
15.0165 5.3785 0.44800001 2
15.1005 5.3084998 0.44800001 2
15.1195 5.3074999 0.44800001 2
15.0455 5.3435001 0.44800001 2
15.0625 5.3455 0.44800001 2
15.0885 5.3565001 0.44800001 2
15.0275 5.3214998 0.449 2
14.9255 5.3334999 0.44999999 2
14.9985 5.3755002 0.449 2
15.0265 5.3625002 0.44800001 2
14.9315 5.3284998 0.44999999 2
15.0965 5.3484998 0.44800001 2
14.9395 5.3365002 0.44999999 2
15.0355 5.3295002 0.449 2
15.0485 5.3235002 0.449 2
15.0285 5.3175001 0.449 2
15.0385 5.3645 0.44800001 2
14.9885 5.3495002 0.449 2
15.1055 5.3095002 0.44800001 2
15.0245 5.3515 0.449 2
14.9605 5.3464999 0.44999999 2
14.9555 5.3604999 0.449 2
15.0895 5.3505001 0.44800001 2
14.9865 5.3245001 0.44999999 2
15.0225 5.3175001 0.449 2
15.0205 5.3245001 0.449 2
15.0295 5.3325 0.449 2
15.0775 5.3664999 0.44800001 2
15.0975 5.3565001 0.44800001 2
14.9025 5.3255 0.45100001 2
15.0535 5.3924999 0.44800001 2
15.0425 5.3325 0.449 2
15.0675 5.3604999 0.44800001 2
15.0335 5.3495002 0.449 2
15.0185 5.3105001 0.449 2
15.0595 5.3175001 0.449 2
14.9455 5.3235002 0.44999999 2
14.9805 5.3325 0.449 2
15.0815 5.3235002 0.44800001 2
15.0635 5.3464999 0.44800001 2
14.9825 5.3585 0.449 2
15.0355 5.3585 0.44800001 2
14.9425 5.3395 0.44999999 2
15.0665 5.3284998 0.44800001 2
15.0685 5.3484998 0.44800001 2
14.9575 5.3594999 0.449 2
15.0105 5.3724999 0.449 2
14.9885 5.3325 0.449 2
15.0845 5.3814998 0.447 2
14.9285 5.3344998 0.44999999 2
15.0535 5.3305001 0.449 2
14.9575 5.3225002 0.44999999 2
15.0895 5.3765001 0.447 2
15.0685 5.3305001 0.44800001 2
15.0275 5.3874998 0.44800001 2
15.0345 5.3154998 0.449 2
14.9675 5.3165002 0.44999999 2
14.9105 5.3295002 0.44999999 2
15.0095 5.3295002 0.449 2
15.0785 5.3344998 0.44800001 2
14.8815 5.3255 0.45100001 2
15.0125 5.3165002 0.449 2
14.9455 5.3245001 0.44999999 2
14.9415 5.3484998 0.44999999 2
15.0855 5.3134999 0.44800001 2
15.0195 5.3214998 0.449 2
15.1065 5.3334999 0.44800001 2
14.9965 5.3274999 0.449 2
15.0595 5.3715 0.44800001 2
14.9345 5.3214998 0.44999999 2
15.0865 5.3635001 0.44800001 2
15.0205 5.3585 0.449 2
14.9665 5.3165002 0.44999999 2
15.0075 5.3375001 0.449 2
15.0595 5.3154998 0.449 2
15.0665 5.3435001 0.44800001 2
15.0295 5.3664999 0.44800001 2
15.0155 5.3614998 0.449 2
15.0355 5.3445001 0.449 2
15.0835 5.3264999 0.44800001 2
15.0695 5.3404999 0.44800001 2
14.9575 5.3515 0.44999999 2
15.0415 5.3645 0.44800001 2
15.0985 5.3095002 0.44800001 2
15.0105 5.3585 0.449 2
14.9495 5.3354998 0.44999999 2
14.9755 5.3295002 0.44999999 2
15.0855 5.3755002 0.447 2
15.0545 5.3315001 0.44800001 2
15.0215 5.3195 0.449 2
15.1065 5.3255 0.44800001 2
15.0695 5.3274999 0.44800001 2
15.0445 5.3505001 0.44800001 2
15.1085 5.3144999 0.44800001 2
15.0745 5.3555002 0.44800001 2
15.0135 5.3354998 0.61900002 2
14.9315 5.3144999 0.63599998 2
15.0655 5.3515 0.66399997 2
14.9805 5.3245001 0.60100001 2
14.9795 5.3264999 0.63300002 2
15.0055 5.3315001 0.58899999 2
15.0325 5.3395 0.60399997 2
15.0185 5.3334999 0.58099997 2
14.9925 5.3264999 0.56800002 2
14.9605 5.3195 0.597 2
15.0385 5.3414998 0.61400002 2
15.0185 5.3375001 0.63700002 2
15.0375 5.3404999 0.60699999 2
14.9875 5.3274999 0.60600001 2
14.9255 5.3125 0.63300002 2
14.9665 5.3214998 0.59600002 2
14.9545 5.3195 0.62900001 2
15.0275 5.3375001 0.59899998 2
14.9995 5.3305001 0.60000002 2
14.9985 5.3305001 0.60900003 2
14.9485 5.3185 0.63599998 2
14.9645 5.3214998 0.61799997 2
15.0715 5.3534999 0.65899998 2
15.0035 5.3315001 0.60000002 2
14.9675 5.3235002 0.62300003 2
14.9585 5.3195 0.60500002 2
15.0385 5.3414998 0.62300003 2
15.0335 5.3404999 0.61400002 2
15.0475 5.3474998 0.66799998 2
15.0525 5.3474998 0.64700001 2
15.0265 5.3385 0.62099999 2
14.9825 5.3264999 0.61000001 2
14.9985 5.3284998 0.58099997 2
14.9695 5.3255 0.648 2
15.0575 5.3495002 0.653 2
14.9275 5.3134999 0.64099997 2
15.0515 5.3474998 0.65600002 2
14.9925 5.3284998 0.611 2
14.9235 5.3125 0.64200002 2
15.0635 5.3515 0.66799998 2
15.0125 5.3334999 0.597 2
14.9805 5.3235002 0.58499998 2
15.0625 5.3495002 0.64399999 2
15.0275 5.3375001 0.60000002 2
15.0105 5.3315001 0.56900001 2
15.0675 5.3515 0.65100002 2
14.9885 5.3295002 0.64099997 2
14.9945 5.3305001 0.62199998 2
14.9355 5.3134999 0.61400002 2
14.9935 5.3305001 0.63099998 2
15.0495 5.3474998 0.667 2
14.9955 5.3274999 0.57999998 2
15.0095 5.3305001 0.56999999 2
15.0555 5.3495002 0.662 2
15.0545 5.3484998 0.65899998 2
15.0035 5.3305001 0.59200001 2
15.0265 5.3365002 0.59299999 2
15.0185 5.3344998 0.58600003 2
15.0425 5.3435001 0.62800002 2
15.0005 5.3315001 0.625 2
15.0865 5.3585 0.676 2
15.0005 5.3295002 0.59299999 2
14.9495 5.3175001 0.61799997 2
14.9625 5.3235002 0.64899999 2
14.9205 5.3115001 0.63599998 2
14.9895 5.3274999 0.60299999 2
15.0465 5.3435001 0.61900002 2
15.0465 5.3464999 0.65600002 2
14.9655 5.3214998 0.60299999 2
14.9385 5.3154998 0.62099999 2
15.0105 5.3305001 0.56400001 2
15.0375 5.3435001 0.65600002 2
14.9615 5.3225002 0.63700002 2
14.9115 5.3095002 0.639 2
14.9645 5.3235002 0.64499998 2
15.0775 5.3544998 0.66299999 2
15.0175 5.3385 0.653 2
14.9855 5.3245001 0.57300001 2
15.0335 5.3395 0.60299999 2
14.9255 5.3125 0.63700002 2
14.9745 5.3255 0.63300002 2
15.0235 5.3365002 0.59600002 2
15.0065 5.3295002 0.56099999 2
15.0255 5.3375001 0.61000001 2
15.0375 5.3414998 0.61299998 2
15.0645 5.3505001 0.65399998 2
14.9595 5.3195 0.60699999 2
15.0315 5.3425002 0.65600002 2
15.0255 5.3404999 0.65200001 2
14.9135 5.3095002 0.63300002 2
14.9655 5.3235002 0.63 2
15.0105 5.3305001 0.56 2
14.9795 5.3264999 0.63099998 2
14.9645 5.3204999 0.59299999 2
14.9985 5.3325 0.639 2
15.0245 5.3395 0.64499998 2
14.9165 5.3095002 0.63200003 2
14.9615 5.3214998 0.62199998 2
14.9785 5.3274999 0.653 2
14.9405 5.3165002 0.63700002 2
14.9915 5.3255 0.56800002 2
14.9965 5.3305001 0.62599999 2
15.0625 5.3505001 0.66299999 2
15.0015 5.3325 0.62400001 2
15.0675 5.3525 0.67299998 2
15.0395 5.3414998 0.60799998 2
15.0645 5.3495002 0.63200003 2
14.9995 5.3295002 0.59600002 2
14.9345 5.3154998 0.63800001 2
14.9335 5.3134999 0.61799997 2
15.0785 5.3765001 0.71399999 2
15.0365 5.3715 0.72600001 2
14.9555 5.3614998 0.75099999 2
15.0195 5.3934999 0.76700002 2
15.0215 5.3614998 0.71799999 2
15.0715 5.3715 0.70999998 2
14.9375 5.3534999 0.74900001 2
15.0745 5.3635001 0.69499999 2
14.9005 5.3635001 0.78100002 2
14.9685 5.3565001 0.73799998 2
14.9685 5.3685002 0.755 2
15.0005 5.3715 0.74400002 2
14.9015 5.3555002 0.76999998 2
15.0755 5.3895001 0.73400003 2
14.9785 5.3625002 0.74199998 2
15.0215 5.3814998 0.74900001 2
15.0665 5.3614998 0.69599998 2
14.8935 5.3505001 0.76499999 2
15.0125 5.3835001 0.755 2
14.8625 5.3484998 0.778 2
15.0405 5.3614998 0.70999998 2
15.0675 5.3895001 0.73699999 2
15.0355 5.3804998 0.73900002 2
15.0535 5.3804998 0.73199999 2
15.0425 5.3775001 0.73299998 2
14.9345 5.3594999 0.759 2
14.9315 5.3534999 0.75199997 2
14.9295 5.3604999 0.76300001 2
15.0505 5.3874998 0.74299997 2
14.9055 5.3525 0.76300001 2
15.0495 5.3604999 0.704 2
15.0315 5.3874998 0.75199997 2
15.0915 5.3765001 0.70700002 2
15.0715 5.3744998 0.71399999 2
15.0525 5.3975 0.75599998 2
15.0195 5.3604999 0.71799999 2
15.0225 5.3585 0.71399999 2
15.0175 5.3775001 0.74400002 2
14.9585 5.3715 0.764 2
14.8895 5.3505001 0.76800001 2
14.9815 5.3825002 0.76999998 2
14.9725 5.3614998 0.74299997 2
15.0335 5.3664999 0.72100002 2
14.9705 5.3594999 0.741 2
15.0155 5.3685002 0.73299998 2
15.0515 5.3814998 0.73400003 2
15.0375 5.3825002 0.74199998 2
15.0725 5.3724999 0.70999998 2
14.9525 5.3755002 0.77399999 2
15.0755 5.3855 0.72799999 2
15.0205 5.3734999 0.73799998 2
14.9385 5.3645 0.764 2
15.0895 5.3705001 0.699 2
15.0235 5.3695002 0.73000002 2
15.0655 5.4064999 0.764 2
15.0645 5.3755002 0.71799999 2
14.9225 5.3585 0.764 2
15.0545 5.3804998 0.73000002 2
15.0135 5.3864999 0.75999999 2
14.9185 5.3614998 0.76999998 2
14.9565 5.3534999 0.73900002 2
15.0355 5.3845 0.74599999 2
15.0485 5.4045 0.76899999 2
15.0735 5.3924999 0.73900002 2
14.9855 5.3565001 0.72899997 2
14.9305 5.3555002 0.75599998 2
14.9745 5.3765001 0.764 2
14.9465 5.3705001 0.76899999 2
14.9735 5.3765001 0.764 2
14.9935 5.3874998 0.77100003 2
15.0845 5.3845 0.722 2
14.9855 5.3555002 0.72799999 2
15.0645 5.4074998 0.76499999 2
15.0515 5.3975 0.75700003 2
15.0485 5.3614998 0.70499998 2
15.0205 5.3855 0.755 2
14.9185 5.3555002 0.75999999 2
14.8865 5.3534999 0.77399999 2
14.9695 5.3734999 0.76300001 2
14.9275 5.3625002 0.76700002 2
15.0435 5.3614998 0.70899999 2
14.9355 5.3635001 0.764 2
15.0265 5.3934999 0.76300001 2
15.0695 5.3695002 0.708 2
15.0145 5.3655 0.72899997 2
15.0555 5.3655 0.70899999 2
15.0205 5.3814998 0.74800003 2
15.0555 5.3604999 0.70099998 2
14.9915 5.3885002 0.773 2
14.9495 5.3585 0.74900001 2
15.0965 5.3685002 0.69300002 2
15.0425 5.3715 0.72299999 2
14.8805 5.3495002 0.77100003 2
14.9165 5.3625002 0.773 2
15.0685 5.3734999 0.713 2
14.9405 5.3695002 0.77100003 2
14.9515 5.3775001 0.77700001 2
14.9405 5.3575001 0.75300002 2
15.0505 5.3755002 0.72500002 2
14.9515 5.3565001 0.74699998 2
15.0255 5.3985 0.77100003 2
15.0655 5.4095001 0.76800001 2
15.0625 5.3895001 0.74000001 2
14.9915 5.3804998 0.76200002 2
14.9485 5.3755002 0.77499998 2
14.9785 5.3825002 0.77100003 2
15.0665 5.3765001 0.71899998 2
15.0535 5.3895001 0.74400002 2
15.0625 5.3775001 0.72299999 2
14.9765 5.3604999 0.73900002 2
15.0425 5.3855 0.74400002 2
15.0665 5.4004998 0.75300002 2
14.9455 5.3635001 0.759 2
15.0095 5.3685002 0.73400003 2
14.9945 5.3855 0.76700002 2
15.0615 5.3965001 0.75 2
14.9275 5.3705001 0.778 2
15.0345 5.3585 0.70899999 2
14.9945 5.3864999 0.76899999 2
15.0755 5.3765001 0.71399999 2
14.9415 5.3724999 0.77399999 2
14.9925 5.3575001 0.72799999 2
15.0635 5.3484998 0.61500001 2
15.0565 5.3455 0.57099998 2
15.0895 5.3585 0.65899998 2
15.0775 5.3534999 0.62300003 2
15.0745 5.3515 0.56800002 2
15.1095 5.3635001 0.59100002 2
15.1095 5.3645 0.64899999 2
15.0985 5.3604999 0.61000001 2
15.0965 5.3594999 0.62 2
15.1025 5.3625002 0.65799999 2
15.0425 5.3414998 0.57800001 2
15.0525 5.3445001 0.57700002 2
15.1135 5.3655 0.64200002 2
15.1025 5.3614998 0.59399998 2
15.0555 5.3455 0.59600002 2
15.0285 5.3365002 0.58099997 2
15.0555 5.3455 0.58200002 2
15.1015 5.3614998 0.63499999 2
15.0765 5.3534999 0.63800001 2
15.0625 5.3484998 0.60100001 2
15.0785 5.3525 0.57599998 2
15.0535 5.3455 0.60399997 2
15.0785 5.3544998 0.634 2
15.1285 5.3705001 0.61000001 2
15.0605 5.3474998 0.59299999 2
15.0745 5.3525 0.611 2
15.0755 5.3515 0.57099998 2
15.0245 5.3354998 0.57099998 2
15.0825 5.3544998 0.58399999 2
15.0575 5.3455 0.56699997 2
15.0825 5.3555002 0.60799998 2
15.1035 5.3625002 0.64200002 2
15.0725 5.3515 0.58200002 2
15.1145 5.3655 0.60000002 2
15.0615 5.3484998 0.61699998 2
15.0755 5.3534999 0.64300001 2
15.0855 5.3555002 0.60000002 2
15.1045 5.3614998 0.58600003 2
15.0875 5.3565001 0.625 2
15.0285 5.3365002 0.565 2
15.1015 5.3604999 0.583 2
15.1095 5.3635001 0.59399998 2
15.0865 5.3555002 0.59200001 2
15.0955 5.3594999 0.634 2
15.0945 5.3585 0.60699999 2
15.0415 5.3414998 0.59899998 2
15.0865 5.3565001 0.61900002 2
15.0515 5.3445001 0.57499999 2
15.0985 5.3604999 0.64399999 2
15.0985 5.3604999 0.61699998 2
15.0575 5.3464999 0.61199999 2
15.1035 5.3625002 0.65200001 2
15.0605 5.3474998 0.59399998 2
15.0965 5.3604999 0.65899998 2
15.0765 5.3525 0.579 2
15.0565 5.3464999 0.60900003 2
15.1045 5.3625002 0.63599998 2
15.0805 5.3544998 0.58899999 2
15.1085 5.3635001 0.60699999 2
15.1105 5.3635001 0.60399997 2
15.1035 5.3614998 0.61199999 2
15.1055 5.3625002 0.59399998 2
15.0565 5.3464999 0.61199999 2
15.0735 5.3525 0.63999999 2
15.0565 5.3455 0.57599998 2
15.1075 5.3625002 0.58700001 2
15.1085 5.3635001 0.59399998 2
15.0615 5.3484998 0.62599999 2
15.0415 5.3404999 0.59200001 2
15.1175 5.3664999 0.59299999 2
15.0755 5.3525 0.62099999 2
15.1005 5.3614998 0.63 2
15.1145 5.3655 0.61000001 2
15.0715 5.3515 0.61000001 2
15.1005 5.3705001 0.56199998 2
15.0485 5.3495002 0.55299997 2
15.1055 5.3715 0.56400001 2
15.0285 5.3425002 0.54799998 2
15.0635 5.3734999 0.53200001 2
15.0295 5.3455 0.546 2
15.0865 5.3705001 0.55199999 2
15.0565 5.3664999 0.537 2
15.0935 5.3734999 0.55299997 2
15.0485 5.3464999 0.55599999 2
15.0365 5.3585 0.53399998 2
15.0205 5.3464999 0.537 2
15.0865 5.3705001 0.55299997 2
15.1105 5.3664999 0.574 2
15.0835 5.3685002 0.55199999 2
15.0435 5.3594999 0.53600001 2
15.0195 5.3544998 0.52700001 2
15.1075 5.3645 0.574 2
15.0565 5.3765001 0.52399999 2
15.0555 5.3645 0.53899997 2
15.0875 5.3765001 0.54500002 2
15.0445 5.3445001 0.55699998 2
15.0385 5.3495002 0.546 2
15.0275 5.3674998 0.51499999 2
15.0585 5.3664999 0.53799999 2
15.0325 5.3425002 0.551 2
15.0455 5.3705001 0.52399999 2
15.0285 5.3365002 0.55699998 2
15.0875 5.3695002 0.55400002 2
15.0875 5.3674998 0.55699998 2
15.0595 5.3705001 0.53299999 2
15.0565 5.3775001 0.52200001 2
15.0695 5.3575001 0.55599999 2
15.0255 5.3474998 0.53899997 2
15.0675 5.3664999 0.54400003 2
15.0655 5.3664999 0.54299998 2
15.0615 5.3505001 0.56099999 2
15.0405 5.3765001 0.51200002 2
15.0295 5.3645 0.51999998 2
15.0795 5.3635001 0.55699998 2
15.0305 5.3625002 0.523 2
15.0405 5.3804998 0.50800002 2
15.0695 5.3515 0.56599998 2
15.0645 5.3695002 0.53899997 2
15.0285 5.3705001 0.51300001 2
15.0595 5.3484998 0.56199998 2
15.0325 5.3705001 0.51599997 2
15.0175 5.3404999 0.54299998 2
15.1075 5.3645 0.574 2
15.0695 5.3705001 0.54100001 2
15.0745 5.3705001 0.54400003 2
15.0835 5.3755002 0.54299998 2
15.0875 5.3695002 0.55500001 2
15.1205 4.9334998 0.44100001 2
15.1885 5.0555 0.45699999 2
15.1125 4.9285002 0.44100001 2
15.0595 4.9285002 0.44999999 2
14.9985 4.9064999 0.454 2
15.0175 4.9124999 0.45300001 2
15.0875 4.9854999 0.45699999 2
14.9635 4.8915 0.456 2
15.0745 4.9254999 0.447 2
15.1045 4.9254999 0.442 2
15.0455 4.9145002 0.449 2
15.1055 4.9864998 0.45500001 2
15.1385 4.9565001 0.44299999 2
15.1125 4.9745002 0.45100001 2
14.9975 4.9004998 0.45300001 2
15.2005 5.0725002 0.45899999 2
15.0755 4.9435 0.44999999 2
15.0315 4.9514999 0.45899999 2
15.2075 5.0784998 0.45899999 2
14.9585 4.8895001 0.45699999 2
15.1595 5.0335002 0.456 2
15.0995 4.9235001 0.442 2
15.1035 5.0035 0.45899999 2
15.1385 5.0075002 0.454 2
15.0585 4.9495001 0.454 2
15.1095 5.0155001 0.46000001 2
15.0765 4.9475002 0.45100001 2
15.0955 5.0064998 0.461 2
15.1405 5.0444999 0.46200001 2
15.0025 4.9254999 0.45699999 2
15.1425 5.0145001 0.45500001 2
15.0845 4.9765 0.456 2
15.1305 4.9635 0.44600001 2
15.0205 4.9204998 0.454 2
15.1565 5.0005002 0.44999999 2
15.0275 4.9225001 0.45300001 2
15.1025 4.9955001 0.45699999 2
15.1395 4.9765 0.447 2
15.1505 5.0054998 0.45199999 2
15.0155 4.9295001 0.456 2
15.0385 4.9274998 0.45300001 2
15.0355 4.9495001 0.458 2
15.0145 4.9134998 0.45300001 2
15.0725 4.9285002 0.447 2
15.1655 5.0355 0.456 2
15.0855 4.9435 0.449 2
15.1475 4.9705 0.44499999 2
15.1055 4.9324999 0.44299999 2
15.0975 4.9864998 0.456 2
15.0865 4.9454999 0.449 2
15.1245 4.9864998 0.45199999 2
15.0675 4.9225001 0.447 2
15.1005 4.9645 0.45100001 2
15.0705 4.9475002 0.45199999 2
15.1905 5.0844998 0.463 2
15.0865 4.9435 0.449 2
15.1925 5.0895 0.463 2
15.1565 5.0545001 0.46200001 2
15.1155 5.0054998 0.45699999 2
15.1265 5.0005002 0.45500001 2
15.1165 4.9615002 0.44800001 2
15.0825 4.9575 0.45199999 2
15.1195 5.0054998 0.45699999 2
15.1055 4.9425001 0.44499999 2
15.0765 4.9274998 0.447 2
15.1575 5.0265002 0.456 2
15.1305 4.9534998 0.44400001 2
15.0335 4.9534998 0.45899999 2
14.9685 4.8975 0.45699999 2
15.1425 4.9984999 0.45199999 2
15.1055 4.9854999 0.45500001 2
15.1045 4.9315 0.44299999 2
15.1985 5.0685 0.458 2
15.2085 5.1025 0.46399999 2
15.2095 5.1034999 0.46399999 2
15.0675 4.9274998 0.44800001 2
14.9875 4.8965001 0.454 2
15.2025 5.0935001 0.463 2
15.0645 4.9654999 0.45699999 2
15.2095 5.0865002 0.46000001 2
15.0495 4.9375 0.45300001 2
15.1625 5.0355 0.456 2
15.1885 5.0595002 0.45699999 2
15.1265 4.9935002 0.45300001 2
15.1105 4.9485002 0.44600001 2
15.1115 4.9685001 0.44999999 2
15.0505 4.9545002 0.456 2
15.1595 4.9974999 0.449 2
15.1395 5.0064998 0.454 2
15.1325 4.9945002 0.45199999 2
15.0425 4.9054999 0.447 2
15.1405 4.9825001 0.449 2
14.9865 4.9095001 0.45699999 2
15.1675 5.0405002 0.45699999 2
15.0865 4.9485002 0.44999999 2
15.1415 5.0225 0.45699999 2
15.0275 4.9464998 0.458 2
15.1245 5.0035 0.45500001 2
15.1315 5.0174999 0.45699999 2
15.1505 5.0135002 0.454 2
15.0545 4.9635 0.458 2
15.1715 5.0735002 0.463 2
15.1335 4.9485002 0.44299999 2
15.0945 4.9784999 0.45500001 2
14.9955 4.8975 0.45300001 2
15.0425 4.9184999 0.44999999 2
15.0295 4.9315 0.45500001 2
14.9975 4.9204998 0.45699999 2
15.0765 4.9615002 0.454 2
15.0685 4.9734998 0.458 2
15.1715 5.0285001 0.454 2
15.0665 4.9134998 0.44499999 2
15.1945 5.0735002 0.46000001 2
15.1025 4.9464998 0.447 2
15.1095 5.0114999 0.45899999 2
15.0555 4.9145002 0.447 2
15.0645 4.9264998 0.44800001 2
15.2045 5.0935001 0.46200001 2
15.0115 4.9315 0.45699999 2
15.1985 5.0685 0.458 2
15.1515 4.9784999 0.44600001 2
15.1405 4.9654999 0.44499999 2
15.1125 4.9454999 0.44499999 2
15.0285 4.9155002 0.45199999 2
15.1685 5.0584998 0.46000001 2
15.0605 4.9734998 0.45899999 2
15.1385 4.9885001 0.44999999 2
15.1285 5.0075002 0.456 2
15.1565 4.9875002 0.447 2
15.0745 4.9794998 0.458 2
15.1585 4.9885001 0.447 2
15.0485 4.9345002 0.45199999 2
15.0925 4.9584999 0.45100001 2
15.1255 5.0304999 0.461 2
15.1225 5.0205002 0.45899999 2
15.1965 5.0745001 0.46000001 2
15.0825 4.9425001 0.449 2
15.1225 4.9965 0.454 2
15.1955 5.0704999 0.45899999 2
15.0525 4.9155002 0.44800001 2
15.2125 5.0984998 0.46200001 2
15.0245 4.9394999 0.45699999 2
15.1175 4.9844999 0.45199999 2
15.1255 4.9575 0.44600001 2
15.1965 5.0714998 0.45899999 2
15.0885 4.9305 0.44499999 2
15.1105 4.9914999 0.45500001 2
15.1315 4.9645 0.44600001 2
15.0395 4.9085002 0.44800001 2
15.1395 5.0355 0.46000001 2
14.9905 4.9025002 0.45500001 2
15.1735 5.0184999 0.45100001 2
15.0915 4.9695001 0.45300001 2
15.1085 5.0095 0.45899999 2
15.1055 5.0075002 0.45899999 2
14.9615 4.8905001 0.456 2
15.0525 4.9345002 0.45199999 2
15.0505 4.9194999 0.449 2
15.0495 4.9204998 0.449 2
15.1405 4.9625001 0.44400001 2
15.2035 5.1164999 0.46200001 2
14.9775 5.0285001 0.442 2
15.0565 4.9924998 0.458 2
15.1365 5.0465002 0.46200001 2
14.9665 4.9295001 0.45300001 2
15.1535 5.1044998 0.45699999 2
14.9755 5.0035 0.44499999 2
15.1705 5.0914998 0.461 2
15.1385 5.0904999 0.456 2
14.9785 4.9955001 0.44600001 2
15.0835 5.0895 0.449 2
15.1485 5.0654998 0.461 2
15.1235 5.1285 0.449 2
15.0715 5.1044998 0.44499999 2
14.9955 5.0304999 0.44400001 2
14.9635 5.1715002 0.421 2
15.1285 5.1395001 0.44800001 2
14.9805 5.1335001 0.42899999 2
15.0195 5.0365 0.447 2
15.0025 5.1824999 0.42500001 2
15.1175 5.0654998 0.45699999 2
15.0165 5.1865001 0.42699999 2
14.9695 5.2024999 0.41800001 2
15.1545 5.1265001 0.454 2
14.9935 5.0244999 0.44499999 2
15.1405 5.0745001 0.45899999 2
15.0825 5.1345 0.44299999 2
15.0285 5.0745001 0.44299999 2
15.0485 5.0774999 0.44499999 2
15.1695 5.1135001 0.458 2
15.0085 5.1104999 0.43599999 2
15.0585 4.9994998 0.45699999 2
15.0975 5.1574998 0.442 2
14.9815 4.9575 0.45199999 2
15.1455 5.1114998 0.45500001 2
15.0965 5.0145001 0.46000001 2
15.0685 5.1684999 0.43599999 2
14.9965 5.1265001 0.43200001 2
14.9875 4.9594998 0.45199999 2
14.9585 5.1564999 0.42300001 2
15.0375 4.9914999 0.45500001 2
14.9575 5.0054998 0.442 2
15.0205 5.0444999 0.44600001 2
14.9635 4.9274998 0.45300001 2
14.9985 5.0584998 0.44100001 2
15.0195 5.0565 0.44400001 2
15.1415 5.0524998 0.46200001 2
14.9795 4.9844999 0.44800001 2
15.1595 5.1434999 0.45300001 2
15.0315 5.0285001 0.449 2
15.0205 4.9654999 0.456 2
15.2055 5.1055002 0.46399999 2
15.0295 5.0395002 0.44800001 2
15.1195 5.0974998 0.45300001 2
14.9645 5.1135001 0.42899999 2
15.0165 5.0444999 0.44499999 2
14.9685 5.1335001 0.42699999 2
15.1535 5.0625 0.46200001 2
14.9965 5.1285 0.43099999 2
15.0925 5.1065001 0.44800001 2
15.1155 5.0704999 0.456 2
15.0365 4.9974999 0.454 2
14.9825 5.1125002 0.43200001 2
14.9815 4.9675002 0.44999999 2
15.1485 5.1265001 0.45300001 2
14.9575 4.9105 0.454 2
14.9735 5.1834998 0.421 2
15.1725 5.1355 0.45500001 2
15.0465 5.1494999 0.43599999 2
14.9535 5.0795002 0.43200001 2
15.0425 5.1815 0.43099999 2
14.9945 5.1754999 0.42500001 2
15.0675 5.1564999 0.43799999 2
15.0055 5.0265002 0.44600001 2
15.0085 5.1525002 0.43000001 2
15.0475 5.0444999 0.44999999 2
15.0235 4.9505 0.458 2
15.1195 5.0764999 0.45500001 2
15.0395 5.0964999 0.442 2
15.0435 5.0374999 0.44999999 2
14.9555 5.0275002 0.43900001 2
14.9765 5.1094999 0.43099999 2
15.0585 5.0514998 0.44999999 2
15.1305 5.1155 0.45199999 2
15.0755 5.0955 0.447 2
14.9985 5.1764998 0.426 2
14.9885 5.1125002 0.433 2
15.0735 5.1554999 0.43900001 2
15.0785 5.0434999 0.454 2
15.0815 5.1015 0.447 2
15.2145 5.1265001 0.46200001 2
15.0725 5.0524998 0.45199999 2
15.1165 5.1145 0.44999999 2
14.9675 4.9885001 0.44600001 2
14.9815 4.9914999 0.447 2
15.0445 5.0535002 0.44800001 2
15.0555 4.9864998 0.458 2
15.0645 5.1145 0.44299999 2
14.9795 5.1094999 0.43200001 2
15.0365 5.0025001 0.454 2
15.1635 5.1415 0.45300001 2
15.1355 5.0964999 0.45500001 2
15.0465 5.0514998 0.449 2
15.0305 4.9604998 0.458 2
15.1275 5.1465001 0.447 2
14.9745 5.0504999 0.43900001 2
15.0075 5.1735001 0.42699999 2
15.0015 5.0615001 0.44100001 2
15.1225 5.0774999 0.456 2
15.1205 5.1185002 0.44999999 2
15.0865 5.1094999 0.447 2
14.9835 5.0795002 0.43599999 2
15.1965 5.1195002 0.461 2
15.0915 5.1455002 0.44299999 2
15.1305 5.0454998 0.461 2
15.0585 5.1234999 0.44100001 2
15.0465 5.1694999 0.433 2
15.0025 5.0625 0.44100001 2
15.1015 5.0774999 0.45300001 2
15.0375 5.1314998 0.43700001 2
14.9555 5.1694999 0.421 2
15.0115 5.1395001 0.43200001 2
15.0395 5.0895 0.44299999 2
15.0115 4.9654999 0.45500001 2
14.9715 5.0945001 0.43200001 2
15.0005 5.1345 0.43099999 2
15.0435 5.1294999 0.43799999 2
15.0735 5.0844998 0.44800001 2
15.0225 5.0105 0.45100001 2
14.9895 5.0665002 0.43900001 2
14.9585 5.0805001 0.43200001 2
15.0145 5.0174999 0.44800001 2
15.0325 5.1684999 0.43099999 2
14.9805 5.1515002 0.426 2
15.0095 5.0265002 0.447 2
15.1005 5.0405002 0.45699999 2
15.0905 5.1385002 0.44299999 2
15.0135 5.0685 0.442 2
15.0675 5.0035 0.458 2
15.0195 5.0205002 0.449 2
14.9785 5.0774999 0.43599999 2
15.0565 5.1215 0.44100001 2
15.1705 5.0925002 0.461 2
14.9975 5.1515002 0.42899999 2
15.0395 4.9955001 0.45500001 2
15.1635 5.1195002 0.456 2
15.1065 5.0415001 0.458 2
15.0495 5.1764998 0.433 2
15.1285 5.0795002 0.456 2
14.9885 4.9815001 0.449 2
15.1695 5.1224999 0.45699999 2
15.0665 5.1015 0.44499999 2
14.9795 4.9514999 0.45199999 2
15.0615 5.0035 0.45699999 2
15.0885 5.1065001 0.447 2
15.1335 5.0974998 0.45500001 2
15.0235 5.1185002 0.43700001 2
15.0615 5.0135002 0.456 2
15.0855 5.0405002 0.45500001 2
15.0885 5.0695 0.45199999 2
15.1185 5.0634999 0.45699999 2
14.9535 5.0485001 0.43599999 2
14.9885 5.0485001 0.44100001 2
15.0985 5.0495 0.456 2
15.1165 5.1585002 0.44400001 2
15.1165 5.1104999 0.45100001 2
15.0615 5.0974998 0.44499999 2
14.9605 4.9095001 0.45500001 2
15.0045 5.0355 0.44499999 2
15.1915 5.1145 0.461 2
15.0635 5.0615001 0.44999999 2
15.1245 5.0704999 0.45699999 2
15.2065 5.1355 0.46000001 2
15.0065 5.1185002 0.43399999 2
14.9575 4.9155002 0.454 2
14.9845 5.1535001 0.42699999 2
14.9725 5.1995001 0.419 2
15.0445 4.9695001 0.45899999 2
15.0525 5.0025001 0.456 2
15.1055 5.1104999 0.449 2
15.1085 5.1114998 0.449 2
15.1345 5.0665002 0.45899999 2
15.0785 5.0565 0.45199999 2
14.9795 4.9425001 0.45300001 2
15.0785 5.1405001 0.44100001 2
15.0275 5.0335002 0.44800001 2
14.9775 5.1164999 0.43099999 2
14.9915 4.9794998 0.44999999 2
15.1375 5.1275001 0.45100001 2
14.9585 5.1564999 0.42300001 2
15.0745 5.1624999 0.43799999 2
15.0285 5.0064998 0.45199999 2
14.9695 5.0625 0.43599999 2
15.0065 5.1174998 0.43399999 2
15.1475 5.1234999 0.45300001 2
15.1215 5.1265001 0.449 2
15.1265 5.1145 0.45199999 2
15.0965 5.0395002 0.45699999 2
15.1615 5.0755 0.46200001 2
14.9785 5.0784998 0.43599999 2
14.9905 5.1935 0.42199999 2
15.0835 5.0945001 0.44800001 2
14.9885 5.1764998 0.42399999 2
14.9635 5.0304999 0.44 2
15.0155 5.0625 0.44299999 2
14.9595 4.9854999 0.44499999 2
14.9925 5.0795002 0.43700001 2
15.0575 5.1104999 0.442 2
14.9635 5.1055002 0.43000001 2
14.9755 5.0795002 0.435 2
15.0895 5.1185002 0.44600001 2
14.9675 5.0904999 0.43200001 2
14.9905 5.1164999 0.43200001 2
15.1125 5.1615 0.44400001 2
15.1225 5.1155 0.45100001 2
15.1215 5.1114998 0.45100001 2
15.1615 5.1215 0.45500001 2
15.1295 5.0735002 0.45699999 2
15.0805 5.1355 0.44299999 2
14.9695 4.9815001 0.447 2
15.0745 5.0605001 0.45100001 2
15.1025 5.0194998 0.461 2
14.9875 5.1395001 0.42899999 2
15.1825 5.0945001 0.46200001 2
15.2105 5.1145 0.463 2
15.1295 5.1515002 0.447 2
14.9575 5.0005002 0.44299999 2
14.9685 4.9745002 0.44800001 2
15.0465 5.0844998 0.44400001 2
15.0925 5.0605001 0.454 2
15.0975 5.0244999 0.45899999 2
15.0395 5.0974998 0.442 2
15.0415 5.1325002 0.43700001 2
15.1485 5.1504998 0.44999999 2
15.0675 5.0764999 0.44800001 2
15.0365 4.9654999 0.458 2
15.1715 5.1195002 0.45699999 2
14.9685 5.1065001 0.43000001 2
14.9795 5.0235 0.44299999 2
15.1085 5.0304999 0.46000001 2
15.1755 5.1104999 0.45899999 2
15.0205 5.0565 0.44400001 2
15.0055 4.9895 0.45100001 2
