# .PCD v0.7 - Point Cloud Data file format
VERSION 0.7
FIELDS x y z label
SIZE 4 4 4 4
TYPE F F F U
COUNT 1 1 1 1
WIDTH 1602
HEIGHT 1
VIEWPOINT 0 0 0 1 0 0 0
POINTS 1602
DATA ascii
19.220501 4.9085002 0.47299999 2
19.0735 4.9025002 0.47400001 2
19.1915 4.9155002 0.47600001 2
19.1005 4.8404999 0.44400001 2
19.203501 4.9054999 0.47099999 2
19.1015 4.8544998 0.44999999 2
19.105499 4.8905001 0.46700001 2
19.115499 4.8705001 0.45699999 2
19.1315 4.9045 0.47299999 2
19.122499 4.8825002 0.463 2
19.2225 4.9235001 0.47999999 2
19.220501 4.9045 0.47099999 2
19.0865 4.8565001 0.45100001 2
19.0965 4.8695002 0.45699999 2
19.098499 4.8804998 0.463 2
19.1385 4.8695002 0.456 2
19.098499 4.8565001 0.45100001 2
19.0935 4.8455 0.44600001 2
19.150499 4.8975 0.46900001 2
19.1315 4.8534999 0.449 2
19.1765 4.8985 0.46900001 2
19.1485 4.8635001 0.45300001 2
19.1525 4.8734999 0.45699999 2
19.1015 4.8614998 0.45300001 2
19.0825 4.9004998 0.472 2
19.116501 4.8565001 0.45100001 2
19.1175 4.8905001 0.46700001 2
19.0895 4.8955002 0.47 2
19.1485 4.8765001 0.45899999 2
19.227501 4.9145002 0.47499999 2
19.0875 4.8705001 0.458 2
19.105499 4.8464999 0.44600001 2
19.1495 4.9064999 0.47400001 2
19.1105 4.9085002 0.47499999 2
19.255501 4.9375 0.47400001 2
19.2565 4.9355001 0.47600001 2
19.172501 4.9345002 0.463 2
19.095501 4.9074998 0.47400001 2
19.213499 4.9254999 0.477 2
19.2015 4.9274998 0.47400001 2
19.2285 4.9594998 0.45199999 2
19.143499 4.9204998 0.47 2
19.237499 4.9425001 0.46700001 2
19.2055 4.9384999 0.465 2
19.238501 4.9315 0.477 2
19.144501 4.9274998 0.46399999 2
19.175501 4.9264998 0.47 2
19.081499 4.9064999 0.472 2
19.140499 4.9124999 0.47600001 2
19.1115 4.9095001 0.47400001 2
19.147499 4.9295001 0.463 2
19.252501 4.9305 0.47999999 2
19.237499 4.9524999 0.45899999 2
19.109501 4.9155002 0.46900001 2
19.144501 4.9145002 0.47499999 2
19.2285 4.9435 0.465 2
19.2325 4.9375 0.47099999 2
19.1845 4.9345002 0.465 2
19.186501 4.9365001 0.46399999 2
19.1745 4.9334998 0.46399999 2
19.209499 4.9524999 0.454 2
19.168501 4.9295001 0.46599999 2
19.213499 4.9324999 0.472 2
19.2285 4.9505 0.45899999 2
19.1765 4.9355001 0.463 2
19.0945 4.9085002 0.472 2
19.2295 4.9575 0.45300001 2
19.2265 4.9384999 0.46900001 2
19.1565 4.9184999 0.47400001 2
19.1175 4.9175 0.46900001 2
19.126499 4.9124999 0.47400001 2
19.209499 4.9464998 0.45899999 2
19.113501 4.9095001 0.47499999 2
19.247499 4.9345002 0.47499999 2
19.1425 4.9134998 0.47600001 2
19.112499 4.9165001 0.46900001 2
19.1085 4.9105 0.47299999 2
19.227501 4.4184999 0.48300001 2
19.217501 4.4355001 0.477 2
19.244499 4.4134998 0.48199999 2
19.227501 4.4175 0.484 2
19.2365 4.4095001 0.486 2
19.210501 4.4235001 0.484 2
19.251499 4.4204998 0.47799999 2
19.2215 4.4095001 0.48800001 2
19.245501 4.4264998 0.47600001 2
19.1875 4.4334998 0.48300001 2
19.216499 4.4264998 0.48100001 2
19.2365 4.4095001 0.486 2
19.251499 4.4355001 0.47099999 2
19.2425 4.4184999 0.48100001 2
19.202499 4.4285002 0.48300001 2
19.276501 4.4365001 0.46599999 2
19.2215 4.4054999 0.49000001 2
19.192499 4.4334998 0.48199999 2
19.196501 4.4315 0.48199999 2
19.216499 4.4115 0.48899999 2
19.359501 4.7185001 0.46900001 2
19.143499 4.6224999 0.43700001 2
19.310499 4.7075 0.46200001 2
19.231501 4.7245002 0.45100001 2
19.1245 4.6125002 0.43399999 2
19.105499 4.6205001 0.43200001 2
19.158501 4.7895002 0.442 2
19.1385 4.7234998 0.43799999 2
19.272499 4.6785002 0.456 2
19.188499 4.6564999 0.44400001 2
19.289499 4.7465 0.46000001 2
19.088499 4.5904999 0.42899999 2
19.150499 4.6485 0.43900001 2
19.0865 4.6865001 0.43000001 2
19.296499 4.7344999 0.461 2
19.126499 4.7674999 0.43700001 2
19.171499 4.6645002 0.442 2
19.157499 4.7705002 0.44100001 2
19.091499 4.5875001 0.42899999 2
19.1845 4.7065001 0.44400001 2
19.199499 4.7224998 0.447 2
19.0595 4.5704999 0.42500001 2
19.2805 4.6975002 0.458 2
19.182501 4.6364999 0.44299999 2
19.143499 4.7925 0.44 2
19.134501 4.7135 0.43700001 2
19.127501 4.7795 0.43700001 2
19.1465 4.7455001 0.44 2
19.2045 4.7595 0.44800001 2
19.2255 4.7424998 0.45100001 2
19.2155 4.7754998 0.44999999 2
19.258499 4.7455001 0.45500001 2
19.349501 4.7195001 0.46799999 2
19.099501 4.5925002 0.43099999 2
19.181499 4.6715002 0.44299999 2
19.1665 4.6945 0.442 2
19.286501 4.7315001 0.45899999 2
19.1625 4.6675 0.44100001 2
19.1105 4.6325002 0.433 2
19.119499 4.6904998 0.435 2
19.0975 4.5685 0.43000001 2
19.158501 4.7284999 0.44100001 2
19.070499 4.5524998 0.426 2
19.175501 4.6875 0.44299999 2
19.0945 4.7195001 0.43200001 2
19.303499 4.7014999 0.461 2
19.0975 4.6754999 0.43200001 2
19.070499 4.5595002 0.426 2
19.0525 4.5595002 0.42399999 2
19.0695 4.6345 0.42699999 2
19.122499 4.7995 0.43700001 2
19.105499 4.7375002 0.43399999 2
19.109501 4.5895 0.43200001 2
19.2195 4.7595 0.44999999 2
19.154499 4.6945 0.44 2
19.1845 4.6504998 0.44299999 2
19.1525 4.7364998 0.44 2
19.140499 4.7835002 0.43900001 2
19.283501 4.6954999 0.458 2
19.1905 4.6754999 0.44499999 2
19.175501 4.6294999 0.442 2
19.084499 4.7385001 0.43099999 2
19.2535 4.7494998 0.45500001 2
19.1665 4.6945 0.442 2
19.1485 4.7385001 0.44 2
19.126499 4.7785001 0.43700001 2
19.258499 4.7414999 0.45500001 2
19.2155 4.6805 0.44800001 2
19.189501 4.7564998 0.44600001 2
19.1835 4.6424999 0.44299999 2
19.119499 4.7535 0.43599999 2
19.2505 4.7455001 0.454 2
19.2115 4.6694999 0.447 2
19.3155 4.7055001 0.463 2
19.144501 4.7944999 0.44 2
19.158501 4.6805 0.44 2
19.320499 4.7265 0.46399999 2
19.224501 4.7045002 0.44999999 2
19.134501 4.7525001 0.43799999 2
19.165501 4.7385001 0.442 2
19.140499 4.6145 0.43700001 2
19.1915 4.7145 0.44499999 2
19.099501 4.6694999 0.43200001 2
19.2225 4.6655002 0.449 2
19.140499 4.7195001 0.43799999 2
19.2465 4.7164998 0.45300001 2
19.136499 4.6355 0.43599999 2
19.168501 4.7005 0.442 2
19.1385 4.6585002 0.43700001 2
19.1115 4.6485 0.433 2
19.254499 4.7315001 0.45500001 2
19.0945 4.6234999 0.43000001 2
19.313499 4.7335 0.463 2
19.1845 4.7294998 0.44499999 2
19.2875 4.7484999 0.46000001 2
19.3615 4.7214999 0.47 2
19.0625 4.5634999 0.42500001 2
19.1005 4.6515002 0.43200001 2
19.106501 4.6005001 0.43200001 2
19.0895 4.6915002 0.43099999 2
19.095501 4.5725002 0.43000001 2
19.265499 4.6954999 0.456 2
19.136499 4.6694999 0.43700001 2
19.2395 4.6995001 0.45199999 2
19.300501 4.7195001 0.461 2
19.2705 4.7224998 0.45699999 2
19.1015 4.6485 0.43200001 2
19.115499 4.7055001 0.435 2
19.085501 4.5725002 0.428 2
19.1255 4.7315001 0.43599999 2
19.1045 4.6655002 0.43200001 2
19.213499 4.7424998 0.449 2
19.105499 4.6855001 0.433 2
19.113501 4.6055002 0.433 2
19.095501 4.8095002 0.433 2
19.0805 4.6205001 0.428 2
19.084499 4.7055001 0.43000001 2
19.320499 4.7214999 0.46399999 2
19.182501 4.7395 0.44499999 2
19.172501 4.7234998 0.44299999 2
19.1075 4.6185002 0.43200001 2
19.0875 4.5914998 0.42899999 2
19.1605 4.6255002 0.44 2
19.151501 4.7525001 0.44 2
19.3265 4.7214999 0.465 2
19.1875 4.6875 0.44400001 2
19.3195 4.6945 0.463 2
19.1385 4.6805 0.43700001 2
19.2605 4.7564998 0.456 2
19.202499 4.6904998 0.447 2
19.1525 4.6294999 0.43900001 2
19.2335 4.7265 0.45199999 2
19.0905 4.7705002 0.43200001 2
19.1915 4.7195001 0.44600001 2
19.1525 4.7884998 0.44100001 2
19.1495 4.6704998 0.43900001 2
19.328501 4.7125001 0.465 2
19.122499 4.6335001 0.43399999 2
19.252501 4.7055001 0.454 2
19.3095 4.7125001 0.46200001 2
19.203501 4.7065001 0.447 2
19.224501 4.7344999 0.44999999 2
19.231501 4.6465001 0.44999999 2
19.234501 4.6444998 0.44999999 2
19.164499 4.7655001 0.442 2
19.081499 4.5784998 0.428 2
19.1175 4.7185001 0.435 2
19.1185 4.7214999 0.435 2
19.338499 4.7135 0.46599999 2
19.1875 4.7164998 0.44499999 2
19.2745 4.7245002 0.45699999 2
19.053499 4.5595002 0.42399999 2
19.157499 4.7284999 0.44100001 2
19.1945 4.6985002 0.44600001 2
19.1315 4.6044998 0.435 2
19.095501 4.5714998 0.43000001 2
19.1245 4.7925 0.43700001 2
19.1015 4.6494999 0.43200001 2
19.1745 4.7005 0.44299999 2
19.126499 4.5925002 0.43399999 2
19.2535 4.7245002 0.454 2
19.1245 4.7585001 0.43700001 2
19.102501 4.7915001 0.43399999 2
19.1315 4.7865 0.43799999 2
19.1005 4.5764999 0.43099999 2
19.1395 4.7705002 0.43900001 2
19.188499 4.6224999 0.44400001 2
19.252501 4.7564998 0.45500001 2
19.0875 4.6925001 0.43000001 2
19.105499 4.6395001 0.43200001 2
19.070499 4.6125002 0.42699999 2
19.203501 4.6525002 0.44600001 2
19.1145 4.7014999 0.43399999 2
19.1245 4.7125001 0.43599999 2
19.241501 4.6564999 0.45199999 2
19.0895 4.6185002 0.43000001 2
19.327499 4.7145 0.465 2
19.0805 4.6645002 0.42899999 2
19.0765 4.6935 0.42899999 2
19.179501 4.6995001 0.44299999 2
19.1915 4.6424999 0.44400001 2
19.134501 4.6675 0.43700001 2
19.1705 4.6915002 0.442 2
19.1495 4.7835002 0.44 2
19.2425 4.6884999 0.45199999 2
19.240499 4.7614999 0.45300001 2
19.3335 4.7245002 0.46599999 2
19.137501 4.7585001 0.43900001 2
19.1355 4.7405 0.43799999 2
19.251499 4.6634998 0.45300001 2
19.098499 4.7414999 0.433 2
19.130501 4.5945001 0.435 2
19.1075 4.6815 0.433 2
19.1765 4.7785001 0.44400001 2
19.189501 4.7094998 0.44499999 2
19.1565 4.6455002 0.43900001 2
19.161501 4.6415 0.44 2
19.1325 4.7224998 0.43700001 2
19.070499 4.5735002 0.426 2
19.2325 4.7595 0.45199999 2
19.1415 4.7135 0.43799999 2
19.3515 4.7164998 0.46799999 2
19.1175 4.6585002 0.43399999 2
19.3095 4.7354999 0.46200001 2
19.3435 4.7154999 0.46700001 2
19.2045 4.7084999 0.447 2
19.1695 4.6954999 0.442 2
19.3235 4.7164998 0.46399999 2
19.071501 4.5704999 0.426 2
19.217501 4.6824999 0.449 2
19.092501 4.6645002 0.43099999 2
19.1705 4.7094998 0.442 2
19.0965 4.7694998 0.433 2
19.1415 4.6725001 0.43799999 2
19.0825 4.6595001 0.42899999 2
19.1905 4.6634998 0.44400001 2
19.0755 4.5904999 0.42699999 2
19.1255 4.7445002 0.43700001 2
19.1565 4.6824999 0.44 2
19.289499 4.7265 0.45899999 2
19.1455 4.6665001 0.43799999 2
19.192499 4.6875 0.44499999 2
19.123501 4.5945001 0.43399999 2
19.2145 4.7635002 0.449 2
19.265499 4.7335 0.456 2
19.150499 4.6735001 0.43900001 2
19.1665 4.6265001 0.44100001 2
19.1085 4.7874999 0.435 2
19.245501 4.6995001 0.45300001 2
19.327499 4.7234998 0.465 2
19.241501 4.7515001 0.45300001 2
19.0725 4.6044998 0.42699999 2
19.115499 4.6615 0.43399999 2
19.150499 4.7645001 0.44 2
19.1315 4.6304998 0.43599999 2
19.2845 4.7385001 0.45899999 2
19.129499 4.7034998 0.43700001 2
19.185499 4.6704998 0.44400001 2
19.0975 4.5995002 0.43000001 2
19.1975 4.6335001 0.44499999 2
19.1665 4.6964998 0.442 2
19.1775 4.7744999 0.44400001 2
19.088499 4.6475 0.43000001 2
19.2565 4.6655002 0.454 2
19.3255 4.7245002 0.465 2
19.362499 4.7175002 0.47 2
19.1085 4.6585002 0.433 2
19.1105 4.7354999 0.43399999 2
19.126499 4.7614999 0.43700001 2
19.2285 4.6694999 0.44999999 2
19.151501 4.7595 0.44100001 2
19.1185 4.7865 0.43599999 2
19.279499 4.7104998 0.458 2
19.092501 4.7544999 0.43200001 2
19.061501 4.5914998 0.42500001 2
19.2055 4.7564998 0.44800001 2
19.0655 4.6265001 0.426 2
19.1835 4.6935 0.44400001 2
19.106501 4.8105001 0.435 2
19.137501 4.8024998 0.43900001 2
19.071501 4.6304998 0.42699999 2
19.261499 4.6964998 0.45500001 2
19.1465 4.7445002 0.44 2
19.147499 4.7045002 0.43900001 2
19.0965 4.7915001 0.433 2
19.2945 4.6774998 0.45899999 2
19.196501 4.7205 0.44600001 2
19.143499 4.7954998 0.44 2
19.1535 4.7055001 0.44 2
19.252501 4.6564999 0.45300001 2
19.1735 4.6285 0.442 2
19.0835 4.6355 0.42899999 2
19.0695 4.5834999 0.426 2
19.283501 4.7084999 0.458 2
19.3615 4.7214999 0.47 2
19.345501 4.7205 0.46700001 2
19.1525 4.7424998 0.44 2
19.0835 4.6304998 0.42899999 2
19.227501 4.7325001 0.45100001 2
19.133499 4.6215 0.43599999 2
19.168501 4.6195002 0.44100001 2
19.282499 4.6774998 0.458 2
19.2085 4.7294998 0.44800001 2
19.2775 4.7154999 0.458 2
19.2325 4.7284999 0.45100001 2
19.157499 4.6985002 0.44 2
19.276501 4.6675 0.45699999 2
19.0975 4.6725001 0.43200001 2
19.154499 4.6114998 0.43900001 2
19.0735 4.5945001 0.42699999 2
19.147499 4.7954998 0.44 2
19.126499 4.7765002 0.43700001 2
19.209499 4.7195001 0.44800001 2
19.0905 4.7895002 0.43200001 2
19.261499 4.6665001 0.45500001 2
19.1185 4.7605 0.43599999 2
19.1325 4.7354999 0.43799999 2
19.1105 4.7535 0.435 2
19.185499 4.6364999 0.44299999 2
19.196501 4.6325002 0.44499999 2
19.1975 4.6385002 0.44499999 2
19.126499 4.6684999 0.43599999 2
19.1985 4.7164998 0.44600001 2
19.1465 4.6785002 0.43900001 2
19.2705 4.6925001 0.456 2
19.286501 4.7115002 0.45899999 2
19.0945 4.6605 0.43099999 2
19.1395 4.6504998 0.43700001 2
19.150499 4.7005 0.44 2
19.113501 4.8095002 0.43599999 2
19.157499 4.6034999 0.43900001 2
19.3265 4.7145 0.46399999 2
19.348499 4.7275 0.46799999 2
19.126499 4.6044998 0.435 2
19.1845 4.7484999 0.44499999 2
19.127501 4.7125001 0.43599999 2
19.1015 4.6684999 0.43200001 2
19.081499 4.6634998 0.42899999 2
19.074499 4.5704999 0.42699999 2
19.171499 4.6314998 0.44100001 2
19.1835 4.7275 0.44499999 2
19.1745 4.7445002 0.44299999 2
19.091499 4.6335001 0.43000001 2
19.3465 4.7094998 0.46700001 2
19.192499 4.7725 0.44600001 2
19.182501 4.6294999 0.44299999 2
19.098499 4.7515001 0.433 2
19.2715 4.6805 0.456 2
19.213499 4.7195001 0.449 2
19.1665 4.6085 0.44 2
19.0945 4.7895002 0.433 2
19.2395 4.7175002 0.45199999 2
19.064501 4.5545001 0.42500001 2
19.2395 4.6795001 0.45199999 2
19.188499 4.6995001 0.44499999 2
19.157499 4.6665001 0.44 2
19.1905 4.7435002 0.44600001 2
19.1105 4.7125001 0.43399999 2
19.0895 4.6465001 0.43000001 2
19.129499 4.5955 0.435 2
19.088499 4.5995002 0.42899999 2
19.188499 4.7725 0.44600001 2
19.2955 4.6805 0.46000001 2
19.331499 4.7055001 0.465 2
19.1115 4.6815 0.43399999 2
19.1285 4.6335001 0.435 2
19.255501 4.7164998 0.454 2
19.112499 4.7284999 0.435 2
19.1395 4.6164999 0.43700001 2
19.134501 4.7865 0.43799999 2
19.122499 4.6034999 0.43399999 2
19.091499 4.7995 0.433 2
19.0805 4.6424999 0.42899999 2
19.126499 4.6875 0.43599999 2
19.262501 4.6694999 0.45500001 2
19.1665 4.7234998 0.442 2
19.240499 4.7544999 0.45300001 2
19.279499 4.6964998 0.458 2
19.1175 4.7205 0.435 2
19.063499 4.5475001 0.42500001 2
19.1665 4.7135 0.442 2
19.130501 4.7024999 0.43700001 2
19.074499 4.5735002 0.42699999 2
19.1745 4.6975002 0.44299999 2
19.1805 4.7364998 0.44400001 2
19.150499 4.7795 0.44100001 2
19.164499 4.6504998 0.44100001 2
19.2325 4.7125001 0.45100001 2
19.158501 4.6075001 0.43900001 2
19.2635 4.7544999 0.456 2
19.0805 4.6545 0.42899999 2
19.2005 4.6424999 0.44600001 2
19.120501 4.5784998 0.433 2
19.2925 4.7414999 0.46000001 2
19.1185 4.6535001 0.43399999 2
19.276501 4.6745 0.45699999 2
19.1695 4.6725001 0.442 2
19.1415 4.7814999 0.43900001 2
19.088499 4.7034998 0.43099999 2
19.1215 4.6015 0.43399999 2
19.113501 4.5935001 0.433 2
19.1455 4.6694999 0.43799999 2
19.168501 4.7674999 0.44299999 2
19.1325 4.6355 0.43599999 2
19.1945 4.7605 0.447 2
19.1355 4.6735001 0.43700001 2
19.341499 4.7224998 0.46700001 2
19.1805 4.6554999 0.44299999 2
19.1215 4.8074999 0.43700001 2
19.099501 4.5914998 0.43099999 2
19.0765 4.6545 0.428 2
19.0835 4.6824999 0.43000001 2
19.282499 4.7164998 0.458 2
19.085501 4.7055001 0.43000001 2
19.238501 4.6764998 0.45100001 2
19.078501 4.6104999 0.428 2
19.2605 4.6754999 0.45500001 2
19.105499 4.5825 0.43099999 2
19.085501 4.6655002 0.43000001 2
19.095501 4.7814999 0.433 2
19.304501 4.7075 0.461 2
19.259501 4.7164998 0.45500001 2
19.1745 4.7435002 0.44400001 2
19.168501 4.7335 0.442 2
19.1325 4.6735001 0.43700001 2
19.1355 4.8014998 0.43900001 2
19.106501 4.8055 0.435 2
19.1915 4.7145 0.44499999 2
19.130501 4.7765002 0.43799999 2
19.0865 4.7414999 0.43099999 2
19.154499 4.6455002 0.43900001 2
19.113501 4.6385002 0.433 2
19.092501 4.6655002 0.43099999 2
19.2325 4.6624999 0.44999999 2
19.2505 4.7145 0.454 2
19.192499 4.6434999 0.44499999 2
19.2815 4.4235001 0.465 2
19.289499 4.4134998 0.46000001 2
19.2745 4.4045 0.46700001 2
19.286501 4.4334998 0.46399999 2
19.259501 4.4095001 0.47499999 2
19.279499 4.4324999 0.46700001 2
19.276501 4.4184999 0.46700001 2
19.276501 4.4155002 0.46700001 2
19.2635 4.4145002 0.47299999 2
19.2665 4.4004998 0.47 2
19.251499 4.4105 0.479 2
19.2635 4.4124999 0.47299999 2
19.2775 4.4115 0.46599999 2
19.269501 4.4064999 0.46900001 2
19.290501 4.4074998 0.458 2
19.261499 4.4004998 0.47299999 2
19.272499 4.4695001 0.472 2
19.3575 4.5095 0.46200001 2
19.2875 4.4555001 0.46599999 2
19.269501 4.4404998 0.46700001 2
19.248501 4.4415002 0.472 2
19.310499 4.4805002 0.46599999 2
19.2985 4.4794998 0.46799999 2
19.293501 4.4714999 0.46799999 2
19.324499 4.4924998 0.465 2
19.2735 4.4454999 0.46700001 2
19.247499 4.4495001 0.47299999 2
19.241501 4.4454999 0.47400001 2
19.3015 4.4805002 0.46799999 2
19.2435 4.4384999 0.472 2
19.3165 4.4844999 0.465 2
19.2845 4.4435 0.46399999 2
19.2015 4.4375 0.48100001 2
19.261499 4.4685001 0.47400001 2
19.258499 4.4384999 0.46900001 2
19.2925 4.4815001 0.47 2
19.289499 4.4464998 0.46399999 2
19.231501 4.4435 0.47499999 2
19.2995 4.4495001 0.46200001 2
19.254499 4.4384999 0.47 2
19.2955 4.4734998 0.46799999 2
19.265499 4.4635 0.472 2
19.2605 4.4654999 0.47400001 2
19.2635 4.4685001 0.47299999 2
19.293501 4.4784999 0.46900001 2
19.320499 4.4945002 0.46599999 2
19.2335 4.4384999 0.47400001 2
19.3085 4.4755001 0.465 2
19.254499 4.4435 0.47099999 2
19.2985 4.4695001 0.46599999 2
19.279499 4.4415002 0.465 2
19.2575 4.4645 0.47400001 2
19.290501 4.4545002 0.465 2
19.2565 4.4555001 0.47299999 2
19.311501 4.4914999 0.46799999 2
19.2955 4.4825001 0.46900001 2
19.3055 4.4755001 0.46599999 2
19.213499 4.6044998 0.45300001 2
19.2145 4.5124998 0.47400001 2
19.234501 4.6224999 0.45500001 2
19.2535 4.5964999 0.46599999 2
19.240499 4.5225 0.479 2
19.1625 4.5984998 0.44 2
19.238501 4.6255002 0.45500001 2
19.2015 4.6104999 0.449 2
19.1385 4.4705 0.463 2
19.2985 4.6255002 0.472 2
19.258499 4.5805001 0.47099999 2
19.175501 4.5764999 0.449 2
19.1735 4.4534998 0.47600001 2
19.2635 4.5895 0.47 2
19.2055 4.5035 0.47400001 2
19.2715 4.6585002 0.45699999 2
19.213499 4.6055002 0.45300001 2
19.133499 4.5815001 0.43599999 2
19.136499 4.5295 0.449 2
19.290501 4.6694999 0.46000001 2
19.1675 4.4825001 0.46799999 2
19.196501 4.4555001 0.48199999 2
19.185499 4.6034999 0.44600001 2
19.113501 4.5064998 0.447 2
19.2005 4.5405002 0.46399999 2
19.2195 4.5774999 0.461 2
19.2645 4.5925002 0.47 2
19.1605 4.5015001 0.46200001 2
19.289499 4.5955 0.47600001 2
19.2575 4.5654998 0.47400001 2
19.227501 4.5745001 0.46399999 2
19.348499 4.6925001 0.47099999 2
19.168501 4.5654998 0.44999999 2
19.2985 4.6164999 0.47400001 2
19.2265 4.6275001 0.45199999 2
19.2365 4.5194998 0.479 2
19.0965 4.5615001 0.43000001 2
19.3015 4.6224999 0.47400001 2
19.217501 4.5015001 0.477 2
19.223499 4.5665002 0.465 2
19.0585 4.5405002 0.42500001 2
19.161501 4.4854999 0.46599999 2
19.238501 4.5714998 0.46700001 2
19.189501 4.6044998 0.44600001 2
19.1455 4.5825 0.43900001 2
19.3515 4.7014999 0.47 2
19.1845 4.4675002 0.47600001 2
19.157499 4.5174999 0.45699999 2
19.324499 4.6545 0.47299999 2
19.195499 4.6114998 0.447 2
19.1605 4.4994998 0.46200001 2
19.1035 4.5465002 0.43599999 2
19.2255 4.5374999 0.472 2
19.1775 4.4524999 0.477 2
19.240499 4.5345001 0.477 2
19.2855 4.6564999 0.461 2
19.1555 4.5095 0.45899999 2
19.1805 4.4584999 0.477 2
19.144501 4.5454998 0.447 2
19.0805 4.5335002 0.43200001 2
19.129499 4.5225 0.44800001 2
19.293501 4.6155 0.47299999 2
19.1625 4.4755001 0.46799999 2
19.327499 4.6735001 0.46900001 2
19.206499 4.5225 0.47 2
19.2265 4.5244999 0.47499999 2
19.172501 4.4534998 0.47600001 2
19.1415 4.5654998 0.442 2
19.2395 4.5584998 0.47099999 2
19.151501 4.5425 0.44999999 2
19.275499 4.6304998 0.465 2
19.254499 4.5654998 0.47299999 2
19.1695 4.5875001 0.44499999 2
19.296499 4.6285 0.47099999 2
19.1175 4.5314999 0.44299999 2
19.137501 4.4974999 0.456 2
19.189501 4.5244999 0.465 2
19.210501 4.5634999 0.46200001 2
19.1485 4.4864998 0.46200001 2
19.129499 4.5745001 0.43700001 2
19.171499 4.5215001 0.46000001 2
19.286501 4.6545 0.46200001 2
19.143499 4.5485001 0.44600001 2
19.1355 4.5815001 0.43700001 2
19.245501 4.6385002 0.45500001 2
19.147499 4.5295 0.45199999 2
19.2605 4.5725002 0.47299999 2
19.241501 4.5495 0.47299999 2
19.276501 4.5895 0.47400001 2
19.272499 4.6355 0.463 2
19.320499 4.6465001 0.47299999 2
19.0625 4.5324998 0.42699999 2
19.217501 4.4984999 0.47799999 2
19.168501 4.4495001 0.47600001 2
19.185499 4.5714998 0.45300001 2
19.116501 4.5005002 0.44999999 2
19.195499 4.5295 0.465 2
19.158501 4.4974999 0.46200001 2
19.2325 4.5805001 0.46399999 2
19.171499 4.4974999 0.46599999 2
19.192499 4.5685 0.45500001 2
19.0755 4.5314999 0.43099999 2
19.078501 4.5355 0.43099999 2
19.105499 4.5514998 0.435 2
19.282499 4.6075001 0.472 2
19.202499 4.4664998 0.48100001 2
19.116501 4.5205002 0.44499999 2
19.0895 4.5145001 0.43900001 2
19.238501 4.6385002 0.45199999 2
19.188499 4.6094999 0.44499999 2
19.136499 4.5514998 0.44400001 2
19.2295 4.6314998 0.45199999 2
19.303499 4.6294999 0.47299999 2
19.223499 4.6125002 0.454 2
19.210501 4.5774999 0.458 2
19.3255 4.6564999 0.472 2
19.1665 4.5265002 0.458 2
19.175501 4.5745001 0.44999999 2
19.1605 4.4875002 0.465 2
19.318501 4.6525002 0.472 2
19.2705 4.5774999 0.47499999 2
19.261499 4.6265001 0.46200001 2
19.1775 4.5355 0.45899999 2
19.2465 4.5644999 0.47099999 2
19.196501 4.5285001 0.465 2
19.181499 4.5784998 0.44999999 2
19.3195 4.6715002 0.46799999 2
19.189501 4.6055002 0.44600001 2
19.2505 4.5735002 0.47099999 2
19.1845 4.5955 0.447 2
19.247499 4.6294999 0.45699999 2
19.109501 4.5165 0.44400001 2
19.1555 4.4645 0.46900001 2
19.1975 4.6094999 0.447 2
19.1875 4.4755001 0.47499999 2
19.2085 4.6015 0.45199999 2
19.1185 4.5155001 0.447 2
19.314501 4.6875 0.463 2
19.2115 4.5365 0.46799999 2
19.129499 4.4854999 0.45699999 2
19.2885 4.6224999 0.47 2
19.1975 4.4745002 0.47799999 2
19.140499 4.5105 0.454 2
19.2055 4.5035 0.47400001 2
19.290501 4.6725001 0.45899999 2
19.2325 4.5124998 0.479 2
19.1745 4.6055002 0.442 2
19.1485 4.4994998 0.45899999 2
19.341499 4.6985002 0.46799999 2
19.3025 4.6255002 0.47299999 2
19.126499 4.5434999 0.44299999 2
19.2465 4.6355 0.45500001 2
19.3225 4.6855001 0.465 2
19.171499 4.5295 0.458 2
19.252501 4.5615001 0.47400001 2
19.1485 4.5314999 0.45199999 2
19.2465 4.5304999 0.479 2
19.147499 4.5535002 0.44600001 2
19.095501 4.5095 0.442 2
19.1175 4.5145001 0.447 2
19.147499 4.4734998 0.46399999 2
19.2705 4.6355 0.46200001 2
19.2855 4.6684999 0.45899999 2
19.209499 4.5135002 0.47299999 2
19.1665 4.4864998 0.46700001 2
19.213499 4.5904999 0.456 2
19.2195 4.5535002 0.46700001 2
19.2775 4.6195002 0.46700001 2
19.192499 4.5854998 0.45199999 2
19.199499 4.6174998 0.44600001 2
19.181499 4.4955001 0.46900001 2
19.2085 4.5764999 0.458 2
19.1695 4.5625 0.44999999 2
19.324499 4.6904998 0.465 2
19.1805 4.6075001 0.44299999 2
19.335501 4.6684999 0.47299999 2
19.258499 4.5844998 0.47 2
19.1535 4.5105 0.458 2
19.165501 4.4505 0.47499999 2
19.2185 4.5735002 0.461 2
19.164499 4.5095 0.461 2
19.2265 4.5535002 0.46799999 2
19.202499 4.4664998 0.48100001 2
19.136499 4.5235 0.44999999 2
19.1985 4.4584999 0.48199999 2
19.2155 4.5324998 0.47 2
19.1765 4.5644999 0.45199999 2
19.237499 4.5384998 0.47499999 2
19.2745 4.6455002 0.461 2
19.1555 4.4565001 0.47 2
19.251499 4.6345 0.45699999 2
19.227501 4.5514998 0.46900001 2
19.2015 4.5155001 0.47 2
19.2505 4.6304998 0.458 2
19.290501 4.6535001 0.46399999 2
19.1775 4.4594998 0.47600001 2
19.1985 4.5434999 0.463 2
19.0875 4.5565 0.42899999 2
19.172501 4.4755001 0.47099999 2
19.244499 4.6125002 0.46000001 2
19.102501 4.5265002 0.44 2
19.241501 4.6224999 0.45699999 2
19.129499 4.5774999 0.43599999 2
19.165501 4.4485002 0.47499999 2
19.1705 4.5415001 0.45500001 2
19.109501 4.5254998 0.442 2
19.1835 4.4905 0.47099999 2
19.238501 4.6034999 0.46000001 2
19.0695 4.5475001 0.426 2
19.2845 4.6314998 0.46700001 2
19.2155 4.6085 0.45300001 2
19.1485 4.5365 0.44999999 2
19.3015 4.6785002 0.461 2
19.2815 4.5964999 0.47400001 2
19.157499 4.5535002 0.449 2
19.133499 4.5184999 0.44999999 2
19.234501 4.5454998 0.472 2
19.255501 4.6125002 0.463 2
19.2215 4.6244998 0.45100001 2
19.165501 4.5184999 0.45899999 2
19.185499 4.5974998 0.447 2
19.192499 4.4775 0.47600001 2
19.307501 4.6694999 0.46399999 2
19.300501 4.6525002 0.46599999 2
19.217501 4.5114999 0.47499999 2
19.1665 4.5064998 0.46200001 2
19.091499 4.5215001 0.43799999 2
19.3235 4.6725001 0.46799999 2
19.1765 4.5784998 0.449 2
19.241501 4.5304999 0.47799999 2
19.116501 4.5345001 0.442 2
19.0755 4.5434999 0.42899999 2
19.2875 4.6515002 0.463 2
19.1915 4.5174999 0.46700001 2
19.151501 4.5465002 0.449 2
19.3375 4.6725001 0.472 2
19.095501 4.5114999 0.44100001 2
19.189501 4.5155001 0.46700001 2
19.251499 4.5475001 0.477 2
19.127501 4.5254998 0.447 2
19.2185 4.6135001 0.45199999 2
19.241501 4.5615001 0.47099999 2
19.282499 4.6624999 0.45899999 2
19.1315 4.4784999 0.45899999 2
19.133499 4.4784999 0.45899999 2
19.1595 4.5145001 0.458 2
19.227501 4.5984998 0.458 2
19.2535 4.6405001 0.456 2
19.231501 4.6335001 0.45100001 2
19.140499 4.4685001 0.46399999 2
19.2945 4.6475 0.46599999 2
19.1595 4.5005002 0.46200001 2
19.1315 4.4755001 0.45899999 2
19.147499 4.5535002 0.44600001 2
19.2055 4.5194998 0.47 2
19.2265 4.5695 0.465 2
19.2075 4.5044999 0.47400001 2
19.2255 4.6275001 0.45100001 2
19.189501 4.5184999 0.46599999 2
19.137501 4.4784999 0.46000001 2
19.2645 4.5854998 0.472 2
19.286501 4.6205001 0.47 2
19.186501 4.5355 0.461 2
19.1455 4.5565 0.44499999 2
19.2015 4.5904999 0.45300001 2
19.120501 4.5174999 0.447 2
19.193501 4.5825 0.45199999 2
19.161501 4.5745001 0.44499999 2
19.237499 4.6405001 0.45199999 2
19.2365 4.5194998 0.479 2
19.2125 4.6215 0.449 2
19.0945 4.5335002 0.43599999 2
19.2005 4.4645 0.48100001 2
19.2215 4.6255002 0.45100001 2
19.2605 4.5945001 0.46900001 2
19.1705 4.4695001 0.472 2
19.2145 4.5135002 0.47400001 2
19.310499 4.6355 0.47299999 2
19.2185 4.5105 0.47600001 2
19.2925 4.6265001 0.47 2
19.178499 4.5345001 0.45899999 2
19.1625 4.5725002 0.44600001 2
19.0865 4.5225 0.43599999 2
19.230499 4.5805001 0.463 2
19.3295 4.6834998 0.46799999 2
19.164499 4.5155001 0.46000001 2
19.237499 4.6085 0.45899999 2
19.304501 4.6655002 0.465 2
19.3465 4.6964998 0.46900001 2
19.234501 4.6125002 0.45699999 2
19.2785 4.6015 0.472 2
19.310499 4.6824999 0.463 2
19.227501 4.5834999 0.46200001 2
19.0795 4.5285001 0.433 2
19.196501 4.5025001 0.472 2
19.071501 4.5475001 0.426 2
19.1325 4.5395002 0.44499999 2
19.188499 4.5194998 0.465 2
19.1675 4.4895 0.46700001 2
19.126499 4.5025001 0.45199999 2
19.1555 4.5095 0.458 2
19.189501 4.5595002 0.45699999 2
19.2295 4.5374999 0.47299999 2
19.2295 4.5355 0.47299999 2
19.164499 4.5615001 0.449 2
19.227501 4.5155001 0.477 2
19.258499 4.6155 0.463 2
19.2705 4.5914998 0.472 2
19.265499 4.7944999 0.46200001 2
19.1605 4.8555002 0.45100001 2
19.2325 4.7735 0.45300001 2
19.165501 4.8255 0.447 2
19.272499 4.7655001 0.45899999 2
19.2535 4.8905001 0.47299999 2
19.1385 4.8305001 0.44299999 2
19.1625 4.8084998 0.44400001 2
19.2045 4.8885002 0.46399999 2
19.143499 4.8144999 0.442 2
19.3295 4.7684999 0.47 2
19.2115 4.7934999 0.45199999 2
19.2815 4.9015002 0.47999999 2
19.327499 4.7905002 0.47299999 2
19.269501 4.8365002 0.46799999 2
19.2435 4.8724999 0.46900001 2
19.213499 4.8484998 0.46000001 2
19.276501 4.8685002 0.47400001 2
19.2995 4.7845001 0.46599999 2
19.276501 4.8575001 0.47299999 2
19.265499 4.8734999 0.47299999 2
19.2365 4.8765001 0.46799999 2
19.227501 4.8674998 0.465 2
19.231501 4.8204999 0.45899999 2
19.237499 4.8495002 0.46399999 2
19.2295 4.8585 0.46399999 2
19.209499 4.7884998 0.44999999 2
19.234501 4.8604999 0.465 2
19.115499 4.8134999 0.43599999 2
19.2745 4.8035002 0.465 2
19.265499 4.7915001 0.461 2
19.324499 4.7445002 0.46599999 2
19.213499 4.8175001 0.45500001 2
19.2465 4.8445001 0.465 2
19.227501 4.8284998 0.45899999 2
19.1325 4.8175001 0.44 2
19.2005 4.8464999 0.45699999 2
19.248501 4.8325 0.46399999 2
19.2335 4.8365002 0.46200001 2
19.2015 4.7905002 0.449 2
19.247499 4.8645 0.46799999 2
19.2365 4.8895001 0.47 2
19.269501 4.8255 0.46700001 2
19.286501 4.7855 0.46399999 2
19.318501 4.7705002 0.46799999 2
19.182501 4.8235002 0.44999999 2
19.2075 4.8004999 0.45199999 2
19.262501 4.8305001 0.46599999 2
19.1635 4.8515 0.45100001 2
19.306499 4.8235002 0.47299999 2
19.224501 4.8775001 0.46599999 2
19.1525 4.8315001 0.44600001 2
19.1665 4.8295002 0.44800001 2
19.206499 4.8555002 0.45899999 2
19.196501 4.8565001 0.458 2
19.188499 4.8045001 0.449 2
19.216499 4.8885002 0.46599999 2
19.261499 4.9215002 0.479 2
19.3325 4.7645001 0.47 2
19.241501 4.8804998 0.47 2
19.2635 4.7705002 0.458 2
19.2535 4.7705002 0.456 2
19.3445 4.7494998 0.47 2
19.1975 4.7905002 0.44800001 2
19.313499 4.8274999 0.47499999 2
19.2045 4.8014998 0.45100001 2
19.2575 4.8744998 0.472 2
19.282499 4.7855 0.46399999 2
19.130501 4.8334999 0.442 2
19.2985 4.7494998 0.46200001 2
19.1535 4.8505001 0.449 2
19.2995 4.7645001 0.46399999 2
19.2505 4.8835001 0.472 2
19.3015 4.7915001 0.46799999 2
19.2565 4.8295002 0.465 2
19.1695 4.8664999 0.454 2
19.2745 4.8994999 0.479 2
19.3015 4.8365002 0.47400001 2
19.2805 4.8724999 0.47600001 2
19.1255 4.8375001 0.442 2
19.2535 4.7865 0.458 2
19.1495 4.8045001 0.44100001 2
19.188499 4.8645 0.45699999 2
19.227501 4.8744998 0.46599999 2
19.231501 4.8474998 0.463 2
19.1915 4.8804998 0.46000001 2
19.213499 4.8604999 0.46200001 2
19.276501 4.7954998 0.46399999 2
19.238501 4.9004998 0.472 2
19.241501 4.8144999 0.46000001 2
19.227501 4.9015002 0.47 2
19.297501 4.7624998 0.463 2
19.355499 4.7494998 0.472 2
19.217501 4.8195 0.456 2
19.2675 4.7765002 0.46000001 2
19.3305 4.7465 0.46700001 2
19.321501 4.7705002 0.46900001 2
19.283501 4.7795 0.463 2
19.275499 4.8705001 0.47400001 2
19.1985 4.8204999 0.45300001 2
19.1735 4.8225002 0.449 2
19.2775 4.8165002 0.46700001 2
19.2045 4.8284998 0.45500001 2
19.244499 4.9045 0.47400001 2
19.202499 4.8004999 0.45100001 2
19.210501 4.8814998 0.46399999 2
19.296499 4.8325 0.47299999 2
19.188499 4.8214998 0.45100001 2
19.2945 4.8245001 0.47099999 2
19.3085 4.7865 0.46900001 2
19.3055 4.7874999 0.46799999 2
19.1105 4.8235002 0.43700001 2
19.165501 4.8464999 0.45100001 2
19.2505 4.8165002 0.46200001 2
19.144501 4.8055 0.44100001 2
19.262501 4.7595 0.456 2
19.1915 4.8344998 0.454 2
19.2705 4.7845001 0.461 2
19.1665 4.8214998 0.447 2
19.3155 4.7595 0.46599999 2
19.320499 4.7705002 0.46900001 2
19.254499 4.9054999 0.47600001 2
19.2575 4.8614998 0.47 2
19.3475 4.7395 0.46900001 2
19.345501 4.7325001 0.46799999 2
19.307501 4.8134999 0.472 2
19.193501 4.8344998 0.454 2
19.3475 4.7344999 0.46900001 2
19.2605 4.8715 0.472 2
19.2365 4.8165002 0.45899999 2
19.151501 4.8334999 0.44600001 2
19.2535 4.8175001 0.463 2
19.2985 4.8594999 0.477 2
19.3155 4.8284998 0.47600001 2
19.188499 4.8134999 0.44999999 2
19.2005 4.8685002 0.46000001 2
19.179501 4.8154998 0.449 2
19.3225 4.7985001 0.47299999 2
19.3095 4.8134999 0.47299999 2
19.2155 4.7814999 0.45100001 2
19.314501 4.7665 0.46700001 2
19.1675 4.8325 0.449 2
19.2915 4.8065 0.46799999 2
19.116501 4.8105001 0.43599999 2
19.3055 4.7715001 0.46599999 2
19.2605 4.8105001 0.463 2
19.2565 4.7655001 0.456 2
19.2155 4.8035002 0.454 2
19.2495 4.7975001 0.45899999 2
19.115499 4.8255 0.43799999 2
19.216499 4.7915001 0.45199999 2
19.2885 4.8755002 0.47799999 2
19.3085 4.7954998 0.47 2
19.196501 4.8024998 0.44999999 2
19.112499 4.8195 0.43700001 2
19.2425 4.7925 0.45699999 2
19.3055 4.8375001 0.47499999 2
19.300501 4.8344998 0.47400001 2
19.2425 4.8295002 0.46200001 2
19.272499 4.7905002 0.46200001 2
19.279499 4.8555002 0.47299999 2
19.2995 4.8565001 0.477 2
19.254499 4.8334999 0.465 2
19.2435 4.8344998 0.463 2
19.2255 4.7775002 0.45199999 2
19.286501 4.8905001 0.479 2
19.2255 4.8924999 0.46799999 2
19.254499 4.8994999 0.47499999 2
19.2715 4.8885002 0.47600001 2
19.2565 4.8575001 0.46900001 2
19.335501 4.7414999 0.46700001 2
19.2855 4.8065 0.46700001 2
19.262501 4.7715001 0.458 2
19.282499 4.7874999 0.46399999 2
19.1805 4.8225002 0.44999999 2
19.269501 4.8245001 0.46700001 2
19.2565 4.7985001 0.461 2
19.283501 4.8924999 0.479 2
19.1455 4.8354998 0.44499999 2
19.2985 4.7944999 0.46799999 2
19.168501 4.7944999 0.44400001 2
19.2495 4.7775002 0.456 2
19.259501 4.8214998 0.46399999 2
19.1635 4.8354998 0.44800001 2
19.223499 4.8785 0.46599999 2
19.227501 4.7995 0.45500001 2
19.2925 4.8674998 0.477 2
19.2045 4.7824998 0.449 2
19.2745 4.7785001 0.461 2
19.1805 4.7895002 0.44499999 2
19.265499 4.8245001 0.46599999 2
19.2435 4.8045001 0.45899999 2
19.3335 4.7405 0.46700001 2
19.255501 4.8655 0.47 2
19.324499 4.7925 0.472 2
19.182501 4.8705001 0.45699999 2
19.269501 4.8214998 0.46599999 2
19.164499 4.8204999 0.44600001 2
19.234501 4.8414998 0.463 2
19.313499 4.8024998 0.472 2
19.1675 4.8594999 0.45300001 2
19.3055 4.7884998 0.46799999 2
19.1915 4.8045001 0.449 2
19.157499 4.8035002 0.44299999 2
19.1285 4.8204999 0.44 2
19.193501 4.8594999 0.458 2
19.328501 4.8024998 0.47499999 2
19.296499 4.7715001 0.46399999 2
19.2565 4.7655001 0.456 2
19.2985 4.7765002 0.465 2
19.2775 4.8284998 0.46900001 2
19.119499 4.8225002 0.43799999 2
19.297501 4.8004999 0.46799999 2
19.3025 4.8255 0.47299999 2
19.2425 4.9015002 0.47299999 2
19.251499 4.9194999 0.477 2
19.248501 4.8885002 0.472 2
19.2075 4.8074999 0.45300001 2
19.3165 4.7484999 0.465 2
19.2665 4.7605 0.45699999 2
19.252501 4.7804999 0.45699999 2
19.269501 4.9235001 0.48100001 2
19.238501 4.9015002 0.472 2
19.2565 4.8655 0.47 2
19.341499 4.7385001 0.46799999 2
19.210501 4.8375001 0.458 2
19.2855 4.7985001 0.46599999 2
19.2945 4.8284998 0.472 2
19.168501 4.8604999 0.45300001 2
19.2125 4.7915001 0.45100001 2
19.296499 4.8055 0.46900001 2
19.2085 4.7824998 0.449 2
19.335501 4.7364998 0.46700001 2
19.3295 4.7405 0.46599999 2
19.158501 4.8195 0.44499999 2
19.2125 4.8395 0.458 2
19.144501 4.8435001 0.44600001 2
19.3015 4.7765002 0.46599999 2
19.290501 4.7744999 0.46399999 2
19.2195 4.8895001 0.46700001 2
19.276501 4.8804998 0.47600001 2
19.202499 4.8864999 0.463 2
19.2265 4.8975 0.46900001 2
19.2395 4.9015002 0.472 2
19.3295 4.7754998 0.47099999 2
19.1915 4.8414998 0.45500001 2
19.196501 4.8134999 0.45199999 2
19.2505 4.8204999 0.463 2
19.3125 4.5695 0.472 2
19.2955 4.5335002 0.472 2
19.3435 4.6094999 0.46900001 2
19.3685 4.6205001 0.46599999 2
19.2645 4.5384998 0.477 2
19.342501 4.5875001 0.46799999 2
19.362499 4.6725001 0.47 2
19.3685 4.6964998 0.47 2
19.355499 4.6345 0.46900001 2
19.265499 4.4905 0.47400001 2
19.251499 4.5235 0.47799999 2
19.3615 4.6044998 0.46599999 2
19.3545 4.5374999 0.46399999 2
19.366501 4.6554999 0.46799999 2
19.2645 4.5465002 0.47799999 2
19.359501 4.5625 0.46399999 2
19.3685 4.6444998 0.46700001 2
19.359501 4.5984998 0.46599999 2
19.2855 4.5625 0.47499999 2
19.290501 4.4955001 0.47099999 2
19.2925 4.5135002 0.472 2
19.338499 4.6304998 0.47099999 2
19.311501 4.5165 0.46900001 2
19.3445 4.6525002 0.47099999 2
19.345501 4.5895 0.46799999 2
19.355499 4.6145 0.46799999 2
19.321501 4.5735002 0.47099999 2
19.3545 4.5735002 0.46599999 2
19.341499 4.5355 0.465 2
19.3405 4.5304999 0.465 2
19.324499 4.5225 0.46700001 2
19.365499 4.5535002 0.463 2
19.3325 4.5654998 0.46799999 2
19.252501 4.4974999 0.477 2
19.2565 4.4675002 0.47499999 2
19.2355 4.4745002 0.47799999 2
19.2145 4.4555001 0.47999999 2
19.248501 4.5275002 0.479 2
19.327499 4.6185002 0.472 2
19.3445 4.5695 0.46700001 2
19.342501 4.5465002 0.46599999 2
19.2875 4.5145001 0.472 2
19.2575 4.5444999 0.47799999 2
19.3685 4.5834999 0.46399999 2
19.369499 4.5514998 0.46200001 2
19.313499 4.6104999 0.47400001 2
19.2255 4.4625001 0.479 2
19.3685 4.5365 0.46200001 2
19.303499 4.4984999 0.46900001 2
19.283501 4.4815001 0.47099999 2
19.258499 4.4815001 0.47499999 2
19.2635 4.5225 0.47600001 2
19.365499 4.5865002 0.465 2
19.3125 4.4965 0.46799999 2
19.304501 4.5155001 0.47 2
19.345501 4.6174998 0.46900001 2
19.3195 4.5304999 0.46799999 2
19.3645 4.5345001 0.46200001 2
19.3375 4.5415001 0.46599999 2
19.324499 4.5205002 0.46700001 2
19.2815 4.5714998 0.47600001 2
19.3575 4.5615001 0.465 2
19.206499 4.4454999 0.48100001 2
19.3585 4.6515002 0.46900001 2
19.314501 4.5324998 0.46900001 2
19.251499 4.4685001 0.47499999 2
19.2885 4.5545001 0.47400001 2
19.2355 4.5095 0.47999999 2
19.231501 4.4734998 0.479 2
19.2045 4.4524999 0.48199999 2
19.342501 4.5105 0.46399999 2
19.282499 4.5124998 0.47299999 2
19.341499 4.6494999 0.472 2
19.245501 4.4994998 0.47799999 2
19.335501 4.6005001 0.47 2
19.3365 4.5535002 0.46700001 2
19.3445 4.5984998 0.46799999 2
19.3615 4.5834999 0.465 2
19.289499 4.5054998 0.472 2
19.275499 4.5165 0.47400001 2
19.265499 4.4794998 0.47400001 2
19.3475 4.5665002 0.46599999 2
19.227501 4.4575 0.47799999 2
19.241501 4.4895 0.47799999 2
19.3255 4.6504998 0.47400001 2
19.286501 4.4984999 0.472 2
19.307501 4.5114999 0.46900001 2
19.2945 4.5955 0.47600001 2
19.3475 4.6345 0.47 2
19.2945 4.5524998 0.47299999 2
19.3435 4.5165 0.46399999 2
19.3675 4.6764998 0.46900001 2
19.3165 4.5335002 0.46900001 2
19.3675 4.6494999 0.46799999 2
19.272499 4.5165 0.47499999 2
19.342501 4.6665001 0.472 2
19.2645 4.5205002 0.47600001 2
19.335501 4.5155001 0.465 2
19.311501 4.5254998 0.46900001 2
19.313499 4.6085 0.47400001 2
19.231501 4.5005002 0.47999999 2
19.2675 4.4945002 0.47400001 2
19.3535 4.5254998 0.463 2
19.3155 4.6195002 0.47400001 2
19.2705 4.4945002 0.47400001 2
19.2915 4.5665002 0.47499999 2
19.3295 4.6085 0.47099999 2
19.2775 4.5395002 0.47499999 2
19.3615 4.6795001 0.47 2
19.3515 4.5565 0.465 2
19.3375 4.6444998 0.472 2
19.335501 4.5314999 0.46599999 2
19.2845 4.5415001 0.47400001 2
19.282499 4.5015001 0.472 2
19.3535 4.5215001 0.463 2
19.335501 4.6215 0.47099999 2
19.345501 4.5355 0.465 2
19.321501 4.5184999 0.46799999 2
19.3435 4.6265001 0.47 2
19.3545 4.6094999 0.46700001 2
19.297501 4.5285001 0.472 2
19.365499 4.6675 0.46900001 2
19.3305 4.5015001 0.465 2
19.276501 4.5035 0.47299999 2
19.3445 4.5395002 0.465 2
19.349501 4.5745001 0.46599999 2
19.3545 4.5454998 0.46399999 2
19.3235 4.5904999 0.47099999 2
19.345501 4.6174998 0.46900001 2
19.217501 4.4505 0.479 2
19.335501 4.6085 0.47 2
19.369499 4.6754999 0.46900001 2
19.366501 4.6055002 0.465 2
19.345501 4.5764999 0.46700001 2
19.3575 4.5265002 0.463 2
19.3515 4.5365 0.46399999 2
19.307501 4.6195002 0.47499999 2
19.258499 4.5405002 0.47799999 2
19.2715 4.5235 0.47499999 2
19.2815 4.4794998 0.472 2
19.365499 4.5454998 0.463 2
19.3615 4.6875 0.47099999 2
19.341499 4.5895 0.46799999 2
19.3055 4.5875001 0.47400001 2
19.321501 4.5275002 0.46799999 2
19.268499 4.5054998 0.47499999 2
19.2855 4.4835 0.47099999 2
19.366501 4.5244999 0.461 2
19.3675 4.7084999 0.47099999 2
19.237499 4.4994998 0.479 2
19.3155 4.6145 0.47400001 2
19.3575 4.5235 0.46200001 2
19.303499 4.5524998 0.472 2
19.3435 4.5764999 0.46700001 2
19.2845 4.5524998 0.47499999 2
19.2805 4.5124998 0.47299999 2
19.2665 4.5285001 0.47600001 2
19.3715 4.5764999 0.463 2
19.2945 4.4835 0.47 2
19.3545 4.6104999 0.46799999 2
19.3365 4.5235 0.46599999 2
19.3465 4.5395002 0.465 2
19.224501 4.4825001 0.47999999 2
19.366501 4.5605001 0.463 2
19.366501 4.5984998 0.465 2
19.251499 4.4794998 0.47600001 2
19.356501 4.5155001 0.46200001 2
19.348499 4.5695 0.46599999 2
19.335501 4.6285 0.47099999 2
19.2285 4.4775 0.479 2
19.3465 4.5665002 0.46599999 2
19.341499 4.5704999 0.46700001 2
19.3015 4.5595002 0.47299999 2
19.3435 4.6564999 0.472 2
19.369499 4.5955 0.46399999 2
19.3265 4.6364999 0.47299999 2
19.3515 4.6824999 0.472 2
19.279499 4.5384998 0.47499999 2
19.258499 4.4825001 0.47499999 2
19.2885 4.5044999 0.472 2
19.251499 4.5035 0.477 2
19.2495 4.5215001 0.47799999 2
19.282499 4.5054998 0.47299999 2
19.3295 4.6114998 0.47099999 2
19.3055 4.5215001 0.47 2
19.349501 4.5784998 0.46700001 2
19.272499 4.4885001 0.47299999 2
19.3235 4.5704999 0.47 2
19.282499 4.5015001 0.47299999 2
19.3305 4.5454998 0.46799999 2
19.258499 4.5335002 0.47799999 2
19.363501 4.7884998 0.477 2
19.3925 4.8445001 0.48699999 2
19.348499 4.8625002 0.484 2
19.349501 4.8404999 0.48100001 2
19.313499 4.8635001 0.47999999 2
19.3925 4.8344998 0.486 2
19.317499 4.8614998 0.47999999 2
19.3235 4.9035001 0.48500001 2
19.3825 4.7814999 0.479 2
19.376499 4.7635002 0.47600001 2
19.3675 4.8585 0.48500001 2
19.359501 4.8385 0.48199999 2
19.386499 4.8414998 0.486 2
19.3025 4.9085002 0.48300001 2
19.3605 4.8645 0.48500001 2
19.3815 4.8575001 0.48699999 2
19.303499 4.8994999 0.48199999 2
19.3785 4.8245001 0.48300001 2
19.327499 4.8334999 0.47799999 2
19.289499 4.9165001 0.48300001 2
19.3325 4.8885002 0.48500001 2
19.3915 4.8274999 0.48500001 2
19.3025 4.8744998 0.47999999 2
19.3855 4.8255 0.484 2
19.3715 4.7954998 0.479 2
19.366501 4.8284998 0.48199999 2
19.3405 4.8474998 0.48100001 2
19.338499 4.7884998 0.47400001 2
19.3325 4.8484998 0.47999999 2
19.328501 4.8474998 0.47999999 2
19.2785 4.9155002 0.48100001 2
19.352501 4.8185 0.479 2
19.334499 4.8915 0.48500001 2
19.3265 4.8284998 0.477 2
19.310499 4.9045 0.484 2
19.324499 4.9015002 0.48500001 2
19.377501 4.7855 0.479 2
19.384501 4.8214998 0.48300001 2
19.3645 4.7554998 0.47400001 2
19.320499 4.8814998 0.48199999 2
19.3605 4.7544999 0.47299999 2
19.3325 4.8414998 0.479 2
19.383499 4.8105001 0.48199999 2
19.379499 4.7934999 0.47999999 2
19.356501 4.8065 0.47799999 2
19.3165 4.8994999 0.484 2
19.362499 4.8154998 0.47999999 2
19.331499 4.8144999 0.47600001 2
19.394501 4.8385 0.486 2
19.3575 4.8835001 0.48699999 2
19.379499 4.7884998 0.479 2
19.359501 4.8515 0.484 2
19.3335 4.8474998 0.47999999 2
19.348499 4.8724999 0.48500001 2
19.331499 4.8505001 0.47999999 2
19.341499 4.8404999 0.47999999 2
19.317499 4.8315001 0.477 2
19.3645 4.8305001 0.48199999 2
19.3585 4.8445001 0.48300001 2
19.3225 4.9015002 0.48500001 2
19.3085 4.9105 0.484 2
19.3265 4.8944998 0.48500001 2
19.372499 4.7694998 0.47600001 2
19.335501 4.8934999 0.486 2
19.3885 4.8195 0.484 2
19.3535 4.7965002 0.477 2
19.348499 4.8804998 0.486 2
19.3545 4.8724999 0.48500001 2
19.3575 4.8264999 0.48100001 2
19.362499 4.8565001 0.48500001 2
19.3585 4.7754998 0.47499999 2
19.3195 4.8474998 0.479 2
19.321501 4.8674998 0.48100001 2
19.321501 4.8334999 0.477 2
19.3155 4.9035001 0.484 2
19.290501 4.9015002 0.48100001 2
19.365499 4.8105001 0.47999999 2
19.3675 4.7465 0.47299999 2
19.3435 4.8695002 0.484 2
19.3585 4.8484998 0.48300001 2
19.3605 4.7624998 0.47400001 2
19.342501 4.7814999 0.47400001 2
19.3855 4.8435001 0.486 2
19.3255 4.8195 0.47600001 2
19.331499 4.8994999 0.486 2
19.3475 4.8474998 0.48199999 2
19.3085 4.8965001 0.48300001 2
19.331499 4.8635001 0.48199999 2
19.2915 4.8924999 0.47999999 2
19.293501 4.9035001 0.48199999 2
19.3585 4.8565001 0.484 2
19.348499 4.8565001 0.48300001 2
19.3395 4.8845 0.48500001 2
19.377501 4.8095002 0.48100001 2
19.3445 4.7965002 0.47600001 2
19.3925 4.8575001 0.48800001 2
19.362499 4.8305001 0.48199999 2
19.365499 4.8565001 0.48500001 2
19.3605 4.8744998 0.486 2
19.303499 4.8775001 0.47999999 2
19.3235 4.8225002 0.47600001 2
19.3535 4.7865 0.47600001 2
19.3445 4.8235002 0.479 2
19.317499 4.8515 0.479 2
19.2855 4.9124999 0.48199999 2
19.3335 4.8344998 0.479 2
19.3295 4.8944998 0.48500001 2
19.384501 4.5935001 0.48199999 2
19.372499 4.7115002 0.47299999 2
19.380501 4.5654998 0.47600001 2
19.383499 4.5764999 0.48100001 2
19.3785 4.6465001 0.477 2
19.379499 4.5784998 0.47499999 2
19.372499 4.5514998 0.46399999 2
19.377501 4.6694999 0.477 2
19.372499 4.6335001 0.46700001 2
19.383499 4.6094999 0.48300001 2
19.3755 4.6945 0.47499999 2
19.379499 4.6185002 0.477 2
19.3755 4.5984998 0.47 2
19.377501 4.6554999 0.47600001 2
19.372499 4.6145 0.46700001 2
19.373501 4.6104999 0.46900001 2
19.373501 4.6894999 0.47299999 2
19.372499 4.6424999 0.46900001 2
19.380501 4.5784998 0.47600001 2
19.383499 4.5815001 0.48100001 2
19.376499 4.6034999 0.472 2
19.376499 4.5654998 0.47 2
19.377501 4.5925002 0.472 2
19.383499 4.6215 0.48300001 2
19.3855 4.6135001 0.486 2
19.380501 4.6055002 0.477 2
19.376499 4.5524998 0.46900001 2
19.3715 4.5374999 0.461 2
19.3745 4.6925001 0.47499999 2
19.387501 4.6304998 0.48800001 2
19.3815 4.6374998 0.48199999 2
19.372499 4.7014999 0.472 2
19.372499 4.6795001 0.47099999 2
19.390499 4.5955 0.491 2
19.372499 4.5475001 0.463 2
19.379499 4.5535002 0.47400001 2
19.3895 4.6145 0.491 2
19.3755 4.5504999 0.46700001 2
19.3715 4.5465002 0.46200001 2
19.376499 4.7205 0.47499999 2
19.390499 4.6395001 0.49200001 2
19.3985 4.7925 0.491 2
19.394501 4.8055 0.48699999 2
19.380501 4.7045002 0.47999999 2
19.384501 4.6525002 0.486 2
19.387501 4.6545 0.48800001 2
19.390499 4.8035002 0.48300001 2
19.394501 4.6894999 0.493 2
19.397499 4.7985001 0.48899999 2
19.3895 4.7214999 0.48800001 2
19.3995 4.8284998 0.491 2
19.3915 4.7205 0.48899999 2
19.3825 4.7014999 0.48100001 2
19.390499 4.6585002 0.491 2
19.3895 4.6985002 0.48800001 2
19.386499 4.6855001 0.486 2
19.387501 4.7455001 0.484 2
19.3965 4.7905002 0.48899999 2
19.386499 4.6634998 0.48699999 2
19.393499 4.8035002 0.486 2
19.3955 4.7375002 0.49200001 2
19.3885 4.7395 0.48500001 2
19.380501 4.7605 0.477 2
19.3885 4.7635002 0.48500001 2
19.3955 4.8295002 0.48699999 2
19.386499 4.6845002 0.48699999 2
19.393499 4.7255001 0.491 2
19.3755 4.7154999 0.47499999 2
19.3915 4.7195001 0.48899999 2
19.3855 4.6815 0.48500001 2
19.384501 4.7284999 0.48300001 2
19.3895 4.7665 0.48500001 2
19.394501 4.7255001 0.49200001 2
19.3955 4.7605 0.491 2
19.377501 4.7375002 0.47499999 2
19.3955 4.7785001 0.49000001 2
19.387501 4.6975002 0.486 2
19.3755 4.7325001 0.47499999 2
19.390499 4.8105001 0.48300001 2
19.3965 4.7624998 0.491 2
19.3965 4.8284998 0.48699999 2
19.393499 4.7535 0.48899999 2
19.3815 4.7445002 0.479 2
19.418501 4.5995002 0.030999999 2
19.431499 4.6044998 0.030999999 2
19.4345 4.6114998 0.034000002 2
19.432501 4.6185002 0.037 2
19.4165 4.5995002 0.030999999 2
19.181499 4.4025002 0.53299999 2
19.1805 4.4025002 0.53399998 2
19.199499 4.3905001 0.52499998 2
19.1985 4.3855 0.52700001 2
19.1975 4.3944998 0.52600002 2
19.1845 4.4035001 0.53100002 2
19.189501 4.3874998 0.53299999 2
19.5235 4.5925002 0.86799997 2
19.526501 4.6265001 0.884 2
19.525499 4.5805001 0.86900002 2
19.526501 4.5834999 0.87099999 2
19.5285 4.6294999 0.88499999 2
19.5355 4.6185002 0.884 2
19.4065 4.6395001 0.097000003 2
19.4615 4.6224999 0.057 2
19.453501 4.6255002 0.052000001 2
19.4265 4.6335001 0.075000003 2
19.404499 4.6395001 0.102 2
19.435499 4.6304998 0.067000002 2
19.3895 4.6444998 0.107 2
19.449499 4.6255002 0.083999999 2
19.4265 4.6335001 0.072999999 2
19.393499 4.6434999 0.098999999 2
19.456499 4.6244998 0.059999999 2
19.4235 4.6345 0.075999998 2
19.443501 4.6275001 0.082999997 2
19.443501 4.6285 0.050000001 2
19.477501 4.6174998 0.078000002 2
19.435499 4.6314998 0.052999999 2
19.4575 4.6234999 0.071000002 2
19.4235 4.6345 0.086000003 2
19.4335 4.6314998 0.075000003 2
19.439501 4.6304998 0.057999998 2
19.4475 4.6265001 0.075999998 2
19.4785 4.6164999 0.075000003 2
19.415501 4.6374998 0.079000004 2
19.435499 4.6304998 0.078000002 2
19.466499 4.6205001 0.071999997 2
19.4405 4.6285 0.090999998 2
19.4125 4.6374998 0.096000001 2
19.4575 4.6244998 0.066 2
19.408501 4.6265001 0.061999999 2
19.4205 4.6234999 0.050999999 2
19.407499 4.6275001 0.064999998 2
19.394501 4.6114998 0.054000001 2
19.4165 4.6304998 0.063000001 2
19.4135 4.6325002 0.067000002 2
19.3855 4.6275001 0.081 2
19.383499 4.6444998 0.103 2
19.3815 4.5984998 0.046 2
19.383499 4.6015 0.048999999 2
19.404499 4.6174998 0.054000001 2
19.3855 4.6085 0.057 2
19.407499 4.6364999 0.077 2
19.400499 4.6195002 0.059999999 2
19.3855 4.6304998 0.083999999 2
19.407499 4.6325002 0.071999997 2
19.3885 4.6355 0.089000002 2
19.443501 4.6294999 0.043000001 2
19.414499 4.6304998 0.064000003 2
19.390499 4.6304998 0.081 2
19.4025 4.6285 0.068999998 2
19.3995 4.6294999 0.074000001 2
19.4305 4.6244998 0.045000002 2
19.4205 4.6205001 0.046999998 2
19.4065 4.6224999 0.059 2
19.380501 4.6465001 0.108 2
19.4305 4.6224999 0.041999999 2
19.408501 4.6335001 0.071999997 2
19.390499 4.6415 0.094999999 2
19.4555 4.6355 0.093000002 2
19.445499 4.6415 0.097999997 2
19.4445 4.6355 0.094999999 2
19.4415 4.6465001 0.101 2
19.4865 4.6554999 0.1 2
19.477501 4.6335001 0.089000002 2
19.4685 4.6465001 0.097000003 2
19.4555 4.6255002 0.088 2
19.453501 4.6355 0.093000002 2
19.4765 4.6515002 0.098999999 2
19.3985 4.6475 0.108 2
19.4445 4.6285 0.090999998 2
19.4615 4.6465001 0.098999999 2
19.3855 4.6465001 0.109 2
19.4725 4.6234999 0.085000001 2
19.5005 4.6385002 0.088 2
19.463499 4.6494999 0.1 2
19.4415 4.6355 0.094999999 2
19.473499 4.6554999 0.102 2
19.4165 4.6374998 0.1 2
