# .PCD v0.7 - Point Cloud Data file format
VERSION 0.7
FIELDS x y z label
SIZE 4 4 4 4
TYPE F F F U
COUNT 1 1 1 1
WIDTH 1611
HEIGHT 1
VIEWPOINT 0 0 0 1 0 0 0
POINTS 1611
DATA ascii
19.2875 3.4265001 0.46000001 2
19.286501 3.3455 0.46200001 2
19.310499 3.4094999 0.44499999 2
19.3055 3.4705 0.44600001 2
19.324499 3.4645 0.435 2
19.297501 3.4495001 0.45300001 2
19.2985 3.4595001 0.45100001 2
19.311501 3.4495001 0.44400001 2
19.297501 3.4914999 0.44999999 2
19.310499 3.4454999 0.44499999 2
19.306499 3.4784999 0.44499999 2
19.3025 3.4435 0.44999999 2
19.321501 3.4714999 0.43599999 2
19.296499 3.4675 0.45300001 2
19.310499 3.4885001 0.442 2
19.2775 3.4445 0.46599999 2
19.314501 3.4475 0.442 2
19.307501 3.4725001 0.44499999 2
19.310499 3.4454999 0.44499999 2
19.314501 3.5035 0.43799999 2
19.313499 3.4525001 0.44299999 2
19.297501 3.4855001 0.45100001 2
19.3015 3.4985001 0.447 2
19.286501 3.4635 0.45899999 2
19.3025 3.4985001 0.44600001 2
19.3095 3.4795001 0.44299999 2
19.276501 3.4395001 0.46700001 2
19.2995 3.4914999 0.449 2
19.283501 3.4454999 0.46200001 2
19.317499 3.4584999 0.43900001 2
19.3085 3.5174999 0.44100001 2
19.2995 3.4755001 0.44999999 2
19.300501 3.4944999 0.44800001 2
19.289499 3.5595 0.43399999 2
19.2815 3.4865 0.45500001 2
19.286501 3.4944999 0.45199999 2
19.303499 3.5445001 0.43599999 2
19.2875 3.5244999 0.44400001 2
19.283501 3.5225 0.44499999 2
19.2925 3.4944999 0.45100001 2
19.286501 3.5105 0.44800001 2
19.276501 3.4705 0.461 2
19.282499 3.4675 0.46000001 2
19.3055 3.5445001 0.435 2
19.279499 3.4614999 0.46200001 2
19.2945 3.5285001 0.442 2
19.2985 3.5235 0.442 2
19.2815 3.4705 0.46000001 2
19.304501 3.5445001 0.435 2
19.293501 3.4935 0.45100001 2
19.283501 3.4955001 0.45199999 2
19.2875 3.5285001 0.44299999 2
19.290501 3.5195 0.44499999 2
19.283501 3.5014999 0.45100001 2
19.2985 3.5215001 0.442 2
19.286501 3.4825001 0.45500001 2
19.3405 3.2844999 0.43799999 2
19.3265 3.2595 0.45199999 2
19.3295 3.2405 0.45199999 2
19.3265 3.2535 0.45300001 2
19.3335 3.2605 0.44600001 2
19.3405 3.2284999 0.44600001 2
19.317499 3.2744999 0.456 2
19.3465 3.2084999 0.44400001 2
19.324499 3.2535 0.454 2
19.3405 3.2145 0.447 2
19.345501 3.2205 0.44299999 2
19.3325 3.2565 0.44800001 2
19.3465 3.2674999 0.43599999 2
19.3325 3.2495 0.44800001 2
19.331499 3.2755001 0.44600001 2
19.3465 3.2514999 0.43900001 2
19.3395 3.2614999 0.442 2
19.342501 3.2965 0.435 2
19.342501 3.2614999 0.44 2
19.3335 3.2704999 0.44499999 2
19.3465 3.2155001 0.44299999 2
19.3255 3.2795 0.44999999 2
19.3405 3.2614999 0.44100001 2
19.3475 3.2295001 0.44100001 2
19.3375 3.2375 0.447 2
19.342501 3.2414999 0.44299999 2
19.348499 3.2655001 0.435 2
19.341499 3.2125001 0.447 2
18.827499 3.3724999 0.43599999 2
18.865499 3.5585001 0.40799999 2
18.835501 3.4115 0.41600001 2
18.8475 3.4744999 0.40400001 2
18.8445 3.4565001 0.40000001 2
18.8375 3.4235001 0.40799999 2
18.831499 3.3945 0.43099999 2
18.834499 3.4085 0.43399999 2
18.8445 3.4595001 0.41100001 2
18.8515 3.4935 0.41100001 2
18.828501 3.3755 0.43399999 2
18.8475 3.4725001 0.414 2
18.866501 3.5634999 0.40799999 2
18.8375 3.4254999 0.39300001 2
18.838499 3.4275 0.38800001 2
18.842501 3.4475 0.41299999 2
18.8465 3.4675 0.389 2
18.828501 3.3775001 0.43200001 2
18.8505 3.4885001 0.41600001 2
18.8435 3.4535 0.405 2
18.8445 3.4545 0.42500001 2
18.852501 3.4985001 0.40900001 2
18.8505 3.4865 0.41 2
18.8465 3.4684999 0.417 2
18.8305 3.3875 0.41800001 2
18.8325 3.3985 0.41499999 2
18.8395 3.4324999 0.398 2
18.862499 3.5445001 0.41100001 2
18.8305 3.3875 0.42899999 2
18.8445 3.4565001 0.42300001 2
18.849501 3.4825001 0.405 2
18.838499 3.4284999 0.412 2
18.841499 3.4454999 0.40400001 2
18.838499 3.4254999 0.43200001 2
18.8575 3.5195 0.41299999 2
18.838499 3.4275 0.42899999 2
18.863501 3.5515001 0.398 2
18.848499 3.4744999 0.41600001 2
18.8615 3.5425 0.40900001 2
18.838499 3.4275 0.40000001 2
18.8615 3.5385001 0.396 2
18.8305 3.3894999 0.42399999 2
18.852501 3.4944999 0.41 2
18.8395 3.4315 0.43000001 2
18.8465 3.4655001 0.417 2
18.8475 3.4725001 0.391 2
18.848499 3.4775 0.403 2
18.835501 3.4175 0.382 2
18.8395 3.4315 0.42199999 2
18.835501 3.4135001 0.42399999 2
18.8645 3.5565 0.40099999 2
18.8445 3.4605 0.389 2
18.8395 3.4305 0.42899999 2
18.8535 3.5035 0.41100001 2
18.845501 3.4635 0.391 2
18.835501 3.4135001 0.412 2
18.8335 3.4045 0.403 2
18.845501 3.4625001 0.39300001 2
18.8325 3.4005001 0.40000001 2
18.8515 3.4935 0.403 2
18.8365 3.4165001 0.42300001 2
18.8395 3.4354999 0.40599999 2
18.8515 3.4944999 0.403 2
18.863501 3.5485001 0.40200001 2
18.845501 3.4614999 0.39300001 2
18.870501 3.5834999 0.40900001 2
18.8585 3.5244999 0.426 2
18.8365 3.4124999 0.442 2
18.870501 3.5795 0.42500001 2
18.870501 3.5764999 0.43700001 2
18.852501 3.4965 0.426 2
18.849501 3.4795001 0.428 2
18.8645 3.5534999 0.42300001 2
18.8745 3.6005001 0.40700001 2
18.8575 3.5185001 0.421 2
18.8605 3.5344999 0.41800001 2
18.8335 3.4015 0.44 2
18.8615 3.5374999 0.42399999 2
18.8435 3.4465001 0.43799999 2
18.865499 3.5604999 0.41499999 2
18.8465 3.4635 0.43900001 2
18.8645 3.5525 0.421 2
18.859501 3.5255001 0.428 2
18.8605 3.5325 0.428 2
18.8585 3.5185001 0.43599999 2
18.8745 3.5985 0.417 2
18.8715 3.5855 0.41600001 2
18.8745 3.5945001 0.43099999 2
18.842501 3.4435 0.435 2
18.831499 3.3905001 0.44100001 2
18.8745 3.6005001 0.417 2
18.8715 3.5885 0.41800001 2
18.8685 3.5715001 0.417 2
18.8605 3.5355 0.41600001 2
18.869499 3.5725 0.435 2
18.8615 3.5365 0.421 2
18.862499 3.5425 0.41800001 2
18.869499 3.5755 0.421 2
18.869499 3.5734999 0.421 2
18.8615 3.5395 0.41600001 2
18.870501 3.5755 0.43700001 2
18.831499 3.3924999 0.442 2
18.852501 3.4935 0.42500001 2
18.8445 3.4545 0.42899999 2
18.869499 3.5755 0.43000001 2
18.8615 3.5344999 0.43700001 2
18.834499 3.4075 0.43700001 2
18.8755 3.6005001 0.42899999 2
18.8675 3.2385001 0.40799999 2
18.8715 3.2325001 0.44100001 2
18.8675 3.2355001 0.41100001 2
18.873501 3.2045 0.447 2
18.872499 3.2455001 0.45199999 2
18.866501 3.2685001 0.412 2
18.8685 3.2014999 0.403 2
18.8755 3.2214999 0.46599999 2
18.869499 3.2365 0.426 2
18.872499 3.2244999 0.442 2
18.865499 3.2565 0.403 2
18.870501 3.2135 0.42699999 2
18.870501 3.1954999 0.417 2
18.869499 3.2054999 0.41100001 2
18.869499 3.2014999 0.40900001 2
18.870501 3.2505 0.435 2
18.865499 3.2644999 0.405 2
18.873501 3.2225001 0.45300001 2
18.870501 3.2165 0.42899999 2
18.8715 3.1905 0.42199999 2
18.865499 3.2544999 0.40200001 2
18.872499 3.2045 0.44 2
18.870501 3.1845 0.41499999 2
18.8715 3.2014999 0.42899999 2
18.870501 3.2514999 0.43700001 2
18.8675 3.2595 0.417 2
18.8685 3.2405 0.417 2
18.8745 3.2195001 0.45899999 2
18.8675 3.2614999 0.42199999 2
18.865499 3.2625 0.40200001 2
18.869499 3.2335 0.42500001 2
18.870501 3.1675 0.405 2
18.8685 3.2574999 0.426 2
18.873501 3.2235 0.449 2
18.872499 3.1965001 0.435 2
18.8685 3.2244999 0.41100001 2
18.865499 3.2755001 0.40599999 2
18.873501 3.2195001 0.44800001 2
18.870501 3.1984999 0.41600001 2
18.8685 3.2255001 0.41299999 2
18.870501 3.2235 0.43000001 2
18.8755 3.2195001 0.463 2
18.8685 3.2525001 0.42500001 2
18.872499 3.2335 0.447 2
18.872499 3.2225001 0.44499999 2
18.870501 3.2325001 0.428 2
18.8715 3.1984999 0.42300001 2
18.8575 3.2785001 0.454 2
18.859501 3.2934999 0.414 2
18.835501 3.3345001 0.44299999 2
18.855499 3.3045001 0.41299999 2
18.841499 3.3204999 0.44499999 2
18.855499 3.2934999 0.435 2
18.856501 3.2934999 0.42899999 2
18.866501 3.2614999 0.44800001 2
18.866501 3.2715001 0.426 2
18.841499 3.3255 0.43200001 2
18.8515 3.3015001 0.43599999 2
18.873501 3.2385001 0.46599999 2
18.849501 3.3015001 0.44600001 2
18.8615 3.2744999 0.44600001 2
18.8645 3.2804999 0.419 2
18.866501 3.2665 0.44100001 2
18.8375 3.3334999 0.43799999 2
18.8515 3.3015001 0.43599999 2
18.859501 3.2725 0.45699999 2
18.852501 3.3055 0.42399999 2
18.8515 3.2965 0.449 2
18.870501 3.2514999 0.45100001 2
18.852501 3.3034999 0.43000001 2
18.852501 3.2945001 0.447 2
18.8615 3.2855 0.42399999 2
18.8605 3.2825 0.433 2
18.841499 3.3195 0.44600001 2
18.856501 3.2925 0.433 2
18.8645 3.2855 0.41 2
18.862499 3.2925 0.40099999 2
18.8375 3.3285 0.447 2
18.869499 3.2585001 0.442 2
18.841499 3.3175001 0.449 2
18.8505 3.3025 0.44100001 2
18.862499 3.2704999 0.44800001 2
18.863501 3.2715001 0.44299999 2
18.848499 3.3155 0.421 2
18.8585 3.3004999 0.40799999 2
18.852501 3.2925 0.45199999 2
18.845501 3.3215001 0.42399999 2
18.865499 3.2625 0.45500001 2
18.8545 3.3065 0.412 2
18.834499 3.3505001 0.433 2
18.880501 3.3285 0.38499999 2
18.8515 3.3295 0.414 2
18.8515 3.3155 0.414 2
18.880501 3.3455 0.38499999 2
18.8715 3.3494999 0.39500001 2
18.8575 3.3104999 0.40799999 2
18.8645 3.3304999 0.40200001 2
18.842501 3.3425 0.42500001 2
18.873501 3.3164999 0.391 2
18.848499 3.3515 0.419 2
18.870501 3.3125 0.39399999 2
18.834499 3.3534999 0.433 2
18.862499 3.3515 0.40400001 2
18.8365 3.3545001 0.43200001 2
18.8605 3.3104999 0.40400001 2
18.855499 3.3285 0.41 2
18.8755 3.3234999 0.38999999 2
18.8855 3.3355 0.38 2
18.870501 3.3215001 0.39500001 2
18.883499 3.3395 0.382 2
18.8535 3.3175001 0.412 2
18.8505 3.3304999 0.41600001 2
18.859501 3.3434999 0.40700001 2
18.8545 3.3405001 0.412 2
18.838499 3.3464999 0.42899999 2
18.873501 3.3364999 0.39199999 2
18.8545 3.3275001 0.412 2
18.838499 3.3515 0.42899999 2
18.856501 3.3315001 0.41 2
18.845501 3.3385 0.421 2
18.869499 3.3345001 0.396 2
18.849501 3.3645 0.41100001 2
18.831499 3.3724999 0.42399999 2
18.8545 3.3694999 0.40200001 2
18.870501 3.3715 0.38299999 2
18.879499 3.3635001 0.37900001 2
18.8605 3.3885 0.37900001 2
18.8325 3.3905001 0.40799999 2
18.8475 3.3605001 0.417 2
18.8445 3.3905001 0.39399999 2
18.834499 3.3785 0.41600001 2
18.8465 3.4024999 0.382 2
18.838499 3.3905001 0.40099999 2
18.876499 3.3655 0.382 2
18.8305 3.3764999 0.42199999 2
18.869499 3.3675001 0.38699999 2
18.8545 3.3855 0.38800001 2
18.835501 3.3945 0.40099999 2
18.8305 3.3685 0.42899999 2
18.835501 3.3805001 0.41299999 2
18.8535 3.3794999 0.39399999 2
18.848499 3.3694999 0.40799999 2
18.831499 3.3715 0.42500001 2
18.872499 3.3575001 0.39300001 2
18.841499 3.3764999 0.41 2
18.835501 3.4054999 0.391 2
18.8365 3.4054999 0.38999999 2
18.873501 3.3635001 0.38600001 2
18.865499 3.3585 0.39899999 2
18.862499 3.3724999 0.38999999 2
18.865499 3.3615 0.39700001 2
18.8585 3.3775001 0.38999999 2
18.8715 3.3764999 0.377 2
18.8325 3.3625 0.43200001 2
18.841499 3.4024999 0.38699999 2
18.845501 3.3805001 0.40200001 2
18.8535 3.3694999 0.40400001 2
18.8895 3.1724999 0.44400001 2
18.8855 3.1355 0.40400001 2
18.8815 3.1805 0.43900001 2
18.8855 3.1554999 0.42300001 2
18.880501 3.1895001 0.44600001 2
18.8755 3.1805 0.42899999 2
18.9035 3.1164999 0.414 2
18.887501 3.1315 0.40400001 2
18.9035 3.1034999 0.403 2
18.893499 3.1424999 0.42300001 2
18.880501 3.2105 0.465 2
18.879499 3.1754999 0.43200001 2
18.890499 3.1394999 0.41499999 2
18.883499 3.1415 0.40700001 2
18.886499 3.1415 0.41100001 2
18.8965 3.1305001 0.417 2
18.8715 3.1645 0.40799999 2
18.883499 3.1914999 0.45199999 2
18.880501 3.1594999 0.41800001 2
18.886499 3.1624999 0.43000001 2
18.877501 3.1935 0.44400001 2
18.911501 3.0895 0.403 2
18.883499 3.1754999 0.43700001 2
18.894501 3.1405001 0.42300001 2
18.883499 3.1954999 0.456 2
18.9025 3.1194999 0.41600001 2
18.8855 3.1765001 0.442 2
18.8755 3.1775 0.42699999 2
18.877501 3.1524999 0.40700001 2
18.8745 3.1585 0.40700001 2
18.8815 3.1735001 0.43200001 2
18.8895 3.1485 0.42199999 2
18.900499 3.1324999 0.42500001 2
19.2055 3.5975001 0.57599998 2
19.2145 3.5755 0.667 2
19.2015 3.5955 0.616 2
19.2115 3.5815001 0.63999999 2
19.2295 3.5515001 0.722 2
19.206499 3.5925 0.61199999 2
19.223499 3.5615001 0.69999999 2
19.213499 3.5755 0.667 2
19.217501 3.5725 0.66799998 2
19.2085 3.5895 0.61199999 2
19.223499 3.5655 0.67400002 2
19.2145 3.5785 0.64600003 2
19.213499 3.5845001 0.61699998 2
19.206499 3.5945001 0.59200001 2
19.1985 3.6005001 0.61199999 2
19.2005 3.5964999 0.62300003 2
19.1985 3.5994999 0.611 2
19.210501 3.5905001 0.59799999 2
19.217501 3.5755 0.64499998 2
19.203501 3.5915 0.62900001 2
19.261499 3.4655001 0.52499998 2
19.272499 3.4105 0.59299999 2
19.2715 3.4175 0.574 2
19.2745 3.4024999 0.59200001 2
19.2705 3.4254999 0.583 2
19.2675 3.4305 0.537 2
19.2715 3.4115 0.55000001 2
19.2705 3.4145 0.52600002 2
19.2735 3.4054999 0.59399998 2
19.268499 3.4305 0.574 2
19.2645 3.4514999 0.54400003 2
19.268499 3.4265001 0.551 2
19.269501 3.4215 0.53399998 2
19.275499 3.4035001 0.61699998 2
19.2665 3.4375 0.54699999 2
19.2675 3.4324999 0.55199999 2
19.2735 3.4115 0.62 2
19.2775 3.3985 0.64899999 2
19.265499 3.4465001 0.55400002 2
19.2705 3.4205 0.57099998 2
19.2635 3.4545 0.53100002 2
19.2745 3.4045 0.60100001 2
19.2745 3.4115 0.63 2
19.2705 3.4235001 0.58600003 2
19.2705 3.4215 0.565 2
19.2665 3.4454999 0.57499999 2
19.269501 3.4295001 0.60299999 2
19.2665 3.4414999 0.57300001 2
19.2645 3.4525001 0.55299997 2
19.261499 3.4625001 0.52700001 2
19.2645 3.4465001 0.53600001 2
19.2635 3.4505 0.52499998 2
19.265499 3.4475 0.56999999 2
19.265499 3.4495001 0.56599998 2
19.272499 3.4195001 0.61400002 2
19.2635 3.4535 0.52999997 2
19.265499 3.4454999 0.54900002 2
19.265499 3.4395001 0.52700001 2
19.2735 3.4105 0.60900003 2
19.262501 3.4605 0.54699999 2
19.261499 3.4605 0.523 2
19.2705 3.4245 0.59200001 2
19.268499 3.4345 0.588 2
19.2705 3.4175 0.56800002 2
19.268499 3.4375 0.58399999 2
19.265499 3.4484999 0.56800002 2
19.2775 3.3975 0.65799999 2
19.2735 3.4054999 0.58600003 2
19.2705 3.4224999 0.57700002 2
19.2745 3.4094999 0.62900001 2
19.265499 3.4454999 0.56699997 2
19.2705 3.4124999 0.53399998 2
19.2575 3.4705 0.56 2
19.2665 3.4345 0.639 2
19.2575 3.4605 0.61299998 2
19.237499 3.5255001 0.54299998 2
19.2255 3.5525 0.55400002 2
19.255501 3.4684999 0.597 2
19.258499 3.4565001 0.63 2
19.230499 3.5365 0.57999998 2
19.255501 3.4645 0.62199998 2
19.2495 3.4865 0.59299999 2
19.2645 3.4475 0.59500003 2
19.262501 3.4465001 0.62 2
19.2155 3.5775001 0.565 2
19.265499 3.4495001 0.57099998 2
19.234501 3.5215001 0.61000001 2
19.275499 3.4065001 0.66900003 2
19.230499 3.5434999 0.54799998 2
19.2775 3.3994999 0.67500001 2
19.2355 3.5204999 0.59799999 2
19.234501 3.5215001 0.61000001 2
19.2255 3.5474999 0.583 2
19.255501 3.4784999 0.551 2
19.2115 3.5864999 0.565 2
19.2705 3.4165001 0.67000002 2
19.268499 3.4265001 0.64700001 2
19.261499 3.4545 0.59899998 2
19.2465 3.5044999 0.53899997 2
19.2495 3.4865 0.58399999 2
19.2335 3.5335 0.55400002 2
19.251499 3.4725001 0.63999999 2
19.2495 3.4875 0.57700002 2
19.2705 3.4175 0.66500002 2
19.2395 3.5065 0.62099999 2
19.247499 3.4885001 0.60000002 2
19.224501 3.5525 0.57300001 2
19.2535 3.4855001 0.54400003 2
19.2675 3.4265001 0.66900003 2
19.272499 3.4094999 0.67900002 2
19.240499 3.5155001 0.56400001 2
19.2365 3.5204999 0.58200002 2
19.2335 3.5304999 0.56900001 2
19.2715 3.4145 0.67000002 2
19.2465 3.4974999 0.56400001 2
19.2395 3.5165 0.56800002 2
19.244499 3.4944999 0.60699999 2
19.2705 3.4184999 0.66900003 2
19.230499 3.5355 0.58999997 2
19.2435 3.5095 0.546 2
19.2565 3.4705 0.57200003 2
19.244499 3.4995 0.583 2
19.2365 3.5204999 0.57999998 2
19.248501 3.4885001 0.59500003 2
19.2435 3.5044999 0.57599998 2
19.251499 3.4755001 0.616 2
19.269501 3.4265001 0.62900001 2
19.217501 3.5704999 0.57999998 2
19.2115 3.5855 0.574 2
19.2435 3.4974999 0.60699999 2
19.248501 3.4855001 0.60000002 2
19.240499 3.5144999 0.56099999 2
19.255501 3.4714999 0.58700001 2
19.2575 3.4645 0.60000002 2
19.259501 3.4584999 0.59899998 2
19.2335 3.5344999 0.55400002 2
19.2295 3.5335 0.60100001 2
19.254499 3.4775 0.56599998 2
19.261499 3.4645 0.54299998 2
19.2425 3.5044999 0.58700001 2
19.245501 3.4905 0.62300003 2
19.2255 3.5525 0.565 2
19.255501 3.4705 0.59600002 2
19.241501 3.5095 0.57099998 2
19.2355 3.5204999 0.59399998 2
19.2665 3.4435 0.58899999 2
19.2425 3.4974999 0.62800002 2
19.244499 3.5005 0.574 2
19.234501 3.5265 0.58399999 2
19.2425 3.5074999 0.565 2
19.234501 3.5274999 0.57099998 2
19.2425 3.5055001 0.57700002 2
19.2425 3.5065 0.58099997 2
19.2715 3.4195001 0.64499998 2
19.262501 3.4465001 0.62699997 2
19.2285 3.5434999 0.57499999 2
19.224501 3.5504999 0.58600003 2
19.272499 3.4124999 0.671 2
19.2505 3.4925001 0.542 2
19.234501 3.5315001 0.54900002 2
19.2535 3.4865 0.53299999 2
19.237499 3.5114999 0.61299998 2
19.2335 3.5274999 0.57800001 2
19.265499 3.4475 0.58399999 2
19.272499 3.4165001 0.64600003 2
19.2665 3.4295001 0.66000003 2
19.227501 3.5445001 0.57800001 2
19.245501 3.4985001 0.58600003 2
19.254499 3.4625001 0.64899999 2
19.2335 3.5304999 0.57499999 2
19.252501 3.4825001 0.57499999 2
19.2505 3.4865 0.57800001 2
19.2495 3.4935 0.55400002 2
19.2325 3.5335 0.565 2
19.2465 3.4905 0.61299998 2
19.2425 3.4974999 0.625 2
19.240499 3.5014999 0.62400001 2
19.2435 3.4955001 0.62800002 2
19.254499 3.4744999 0.58600003 2
19.261499 3.4565001 0.59100002 2
19.259501 3.4695001 0.54500002 2
19.276501 3.4035001 0.66500002 2
19.234501 3.5304999 0.56099999 2
19.259501 3.4495001 0.65100002 2
19.2705 3.4195001 0.66500002 2
19.2745 3.4115 0.65100002 2
19.255501 3.4605 0.639 2
19.241501 3.5165 0.54500002 2
19.258499 3.4525001 0.64099997 2
19.255501 3.4725001 0.58399999 2
19.224501 3.5525 0.57800001 2
19.255501 3.4625001 0.63 2
19.262501 3.4445 0.63099998 2
19.252501 3.4795001 0.583 2
19.265499 3.4425001 0.61000001 2
19.2575 3.4584999 0.62599999 2
19.2195 3.5634999 0.58499998 2
19.224501 3.5504999 0.58700001 2
19.268499 3.4235001 0.67000002 2
19.231501 3.5355 0.574 2
19.2635 3.4375 0.66000003 2
19.261499 3.4484999 0.62400001 2
19.261499 3.4554999 0.59600002 2
19.2735 3.4135001 0.65499997 2
19.252501 3.4705 0.634 2
19.238501 3.5105 0.611 2
19.2645 3.4414999 0.62300003 2
19.230499 3.5344999 0.58399999 2
19.2255 3.5485001 0.58399999 2
19.227501 3.5425 0.616 2
19.2195 3.5615001 0.59100002 2
19.223499 3.5595 0.65200001 2
19.247499 3.4885001 0.66900003 2
19.2335 3.5385001 0.69999999 2
19.2565 3.4614999 0.69199997 2
19.2395 3.5185001 0.69999999 2
19.231501 3.5404999 0.67500001 2
19.2435 3.4955001 0.64600003 2
19.2535 3.4675 0.662 2
19.2125 3.5834999 0.58399999 2
19.234501 3.5285001 0.662 2
19.254499 3.4614999 0.65600002 2
19.2335 3.5395 0.71100003 2
19.2145 3.5834999 0.60900003 2
19.2425 3.5114999 0.71700001 2
19.251499 3.4844999 0.71100003 2
19.251499 3.4825001 0.71200001 2
19.275499 3.4015 0.69999999 2
19.230499 3.5325 0.61699998 2
19.2355 3.5374999 0.72899997 2
19.2495 3.4825001 0.676 2
19.2295 3.5504999 0.70099998 2
19.2265 3.5465 0.62800002 2
19.223499 3.5525 0.60699999 2
19.2145 3.5845001 0.61199999 2
19.224501 3.5604999 0.66500002 2
19.2395 3.5065 0.639 2
19.2325 3.5455 0.71399999 2
19.262501 3.4384999 0.67199999 2
19.2565 3.4665 0.70599997 2
19.268499 3.4215 0.68199998 2
19.2215 3.5615001 0.61000001 2
19.268499 3.4265001 0.70099998 2
19.2435 3.5044999 0.699 2
19.237499 3.5235 0.68199998 2
19.241501 3.5195 0.72899997 2
19.234501 3.5304999 0.68699998 2
19.2505 3.4855001 0.708 2
19.2395 3.5105 0.65899998 2
19.237499 3.5135 0.63700002 2
19.2325 3.5474999 0.72500002 2
19.227501 3.5495 0.65499997 2
19.2605 3.4505 0.704 2
19.2565 3.4635 0.70300001 2
19.227501 3.5555 0.69 2
19.2425 3.4985001 0.63300002 2
19.2395 3.5125 0.67199999 2
19.234501 3.5415001 0.727 2
19.2295 3.5355 0.61299998 2
19.238501 3.5074999 0.62900001 2
19.2425 3.5014999 0.65600002 2
19.209499 3.5915 0.57800001 2
19.275499 3.4024999 0.699 2
19.2185 3.5685 0.60399997 2
19.241501 3.5014999 0.63700002 2
19.2635 3.4375 0.67000002 2
19.2495 3.4844999 0.68099999 2
19.258499 3.4525001 0.67199999 2
19.213499 3.5845001 0.60100001 2
19.2215 3.5585001 0.60500002 2
19.238501 3.5235 0.713 2
19.2465 3.4944999 0.69199997 2
19.2495 3.4835 0.68099999 2
19.2255 3.5595 0.68199998 2
19.248501 3.4885001 0.69599998 2
19.2295 3.5374999 0.62 2
19.255501 3.4655001 0.68199998 2
19.2295 3.5365 0.61199999 2
19.2605 3.4484999 0.68800002 2
19.2325 3.5274999 0.62099999 2
19.2145 3.5795 0.59799999 2
19.2575 3.4635 0.70700002 2
19.241501 3.5165 0.72799999 2
19.231501 3.5455 0.708 2
19.227501 3.5534999 0.685 2
19.262501 3.4445 0.70099998 2
19.2335 3.5325 0.67000002 2
19.2465 3.4914999 0.67699999 2
19.255501 3.4684999 0.70200002 2
19.261499 3.4425001 0.67500001 2
19.2195 3.5685 0.63099998 2
19.2465 3.4885001 0.65100002 2
19.231501 3.5485001 0.713 2
19.2565 3.4575 0.65799999 2
19.251499 3.4735 0.65399998 2
19.2365 3.5325 0.73100001 2
19.244499 3.4955001 0.65700001 2
19.2355 3.5235 0.65700001 2
19.269501 3.4205 0.68000001 2
19.2425 3.5105 0.70599997 2
19.238501 3.5285001 0.73400003 2
19.237499 3.5304999 0.72399998 2
19.230499 3.5344999 0.62099999 2
19.2195 3.5645001 0.59399998 2
19.237499 3.5174999 0.65200001 2
19.2255 3.5485001 0.62300003 2
19.2425 3.5144999 0.722 2
19.252501 3.4795001 0.70499998 2
19.2125 3.5834999 0.58899999 2
19.268499 3.4254999 0.68900001 2
19.217501 3.5755 0.61799997 2
19.240499 3.5055001 0.648 2
19.2355 3.5265 0.68099999 2
19.2195 3.5715001 0.639 2
19.251499 3.4825001 0.71600002 2
19.2645 3.4354999 0.69099998 2
19.2505 3.4814999 0.67900002 2
19.2395 3.5114999 0.65700001 2
19.216499 3.5775001 0.61900002 2
19.2715 3.4145 0.685 2
19.2395 3.5135 0.671 2
19.2535 3.4714999 0.68599999 2
19.2365 3.5295 0.70200002 2
19.238501 3.5265 0.72899997 2
19.272499 3.4135001 0.70099998 2
19.2505 3.4755001 0.66399997 2
19.227501 3.5415001 0.60900003 2
19.230499 3.5434999 0.68300003 2
19.2395 3.5114999 0.65200001 2
19.2535 3.4725001 0.68300003 2
19.2505 3.4835 0.69599998 2
19.2185 3.5645001 0.58999997 2
19.2505 3.4795001 0.67799997 2
19.262501 3.4414999 0.67799997 2
19.2425 3.5155001 0.727 2
19.223499 3.5595 0.64600003 2
19.2335 3.5395 0.71200001 2
19.2395 3.5044999 0.63 2
19.2195 3.5675001 0.61799997 2
19.230499 3.5495 0.70700002 2
19.234501 3.5265 0.65799999 2
19.2665 3.4305 0.69800001 2
19.2495 3.4825001 0.67799997 2
19.231501 3.5474999 0.72100002 2
19.254499 3.4735 0.708 2
19.2335 3.5304999 0.66000003 2
19.241501 3.4985001 0.63 2
19.227501 3.5404999 0.61000001 2
19.272499 3.4094999 0.68400002 2
19.2425 3.5144999 0.727 2
19.2265 3.5474999 0.62699997 2
19.2395 3.5165 0.67799997 2
19.2335 3.5304999 0.65700001 2
19.2505 3.4814999 0.69099998 2
19.2155 3.5764999 0.60000002 2
19.2465 3.4995 0.71100003 2
19.259501 3.4484999 0.676 2
19.261499 3.4495001 0.70499998 2
19.269501 3.4215 0.69599998 2
19.2265 3.5465 0.62400001 2
19.2535 3.4765 0.722 2
19.2225 3.5534999 0.59600002 2
19.2435 3.5014999 0.67299998 2
19.2645 3.4395001 0.70899999 2
19.2635 3.4354999 0.67000002 2
19.2185 3.5755 0.551 2
19.2225 3.5655 0.54799998 2
19.247499 3.5044999 0.52700001 2
19.2255 3.5555 0.551 2
19.2285 3.5545001 0.53399998 2
19.255501 3.4844999 0.52499998 2
19.2365 3.5285001 0.54100001 2
19.2325 3.5434999 0.53399998 2
19.2435 3.5155001 0.53200001 2
19.255501 3.4835 0.52700001 2
19.2495 3.4995 0.52600002 2
19.2125 3.5855 0.56300002 2
19.234501 3.5365 0.53799999 2
19.241501 3.5174999 0.53799999 2
19.245501 3.5114999 0.52899998 2
19.230499 3.5455 0.54000002 2
19.238501 3.5235 0.54000002 2
19.2115 3.5964999 0.64399999 2
19.2325 3.5845001 0.69499999 2
19.223499 3.5734999 0.69 2
19.224501 3.5945001 0.66900003 2
19.2325 3.5845001 0.69499999 2
19.2155 3.5895 0.65899998 2
19.234501 3.5875001 0.69400001 2
19.2225 3.5664999 0.69599998 2
19.2395 3.5785 0.71399999 2
19.237499 3.5855 0.70200002 2
19.231501 3.5495 0.73199999 2
19.2215 3.5664999 0.69400001 2
19.231501 3.5945001 0.68199998 2
19.2435 3.5875001 0.71100003 2
19.231501 3.5595 0.72000003 2
19.237499 3.5555 0.736 2
19.2195 3.5804999 0.67500001 2
19.2015 3.5985 0.62400001 2
19.240499 3.5775001 0.71700001 2
19.238501 3.5825 0.70700002 2
19.2295 3.5845001 0.69 2
19.241501 3.5905001 0.70499998 2
19.2225 3.5685 0.69400001 2
19.210501 3.5875001 0.65100002 2
19.2535 3.5875001 0.72899997 2
19.240499 3.5664999 0.72799999 2
19.2325 3.5764999 0.70300001 2
19.2055 3.5925 0.63700002 2
19.2045 3.5905001 0.63700002 2
19.2145 3.5864999 0.66100001 2
19.2115 3.5855 0.65600002 2
19.2185 3.5795 0.676 2
19.2575 3.5864999 0.73799998 2
19.2365 3.5604999 0.72799999 2
19.227501 3.5574999 0.71499997 2
19.230499 3.5825 0.69400001 2
19.2925 3.1364999 0.66600001 2
19.3265 3.1255 0.70700002 2
19.2635 3.1684999 0.65499997 2
19.268499 3.1675 0.66100001 2
19.3025 3.1415 0.68599999 2
19.2735 3.1524999 0.653 2
19.296499 3.1405001 0.676 2
19.286501 3.1545 0.67500001 2
19.2815 3.1594999 0.67400002 2
19.307501 3.1364999 0.68800002 2
19.2715 3.1424999 0.63999999 2
19.317499 3.1324999 0.70099998 2
19.259501 3.1515 0.63 2
19.283501 3.1164999 0.63200003 2
19.2855 3.1505001 0.66900003 2
19.3325 3.1245 0.71499997 2
19.303499 3.1164999 0.662 2
19.3195 3.1315 0.70200002 2
19.261499 3.1565001 0.63800001 2
19.2745 3.1205001 0.62199998 2
19.293501 3.1155 0.64399999 2
19.2875 3.1394999 0.662 2
19.2745 3.1215 0.62199998 2
19.2805 3.1445 0.65600002 2
19.2505 3.1675 0.634 2
19.3255 3.1245 0.70300001 2
19.283501 3.1535001 0.67000002 2
19.2705 3.1275001 0.62400001 2
19.2925 3.1485 0.67799997 2
19.3165 3.1264999 0.69300002 2
19.2635 3.1594999 0.64499998 2
19.2985 3.1345 0.67400002 2
19.269501 3.1454999 0.639 2
19.3095 3.1424999 0.69700003 2
19.2775 3.1364999 0.64300001 2
19.289499 3.1305001 0.65600002 2
19.2715 3.1624999 0.66000003 2
19.269501 3.1355 0.62900001 2
19.296499 3.1424999 0.67799997 2
19.2925 3.1315 0.66100001 2
19.254499 3.1594999 0.63300002 2
19.2575 3.1684999 0.64499998 2
19.307501 3.1394999 0.69199997 2
19.293501 3.1465001 0.67900002 2
19.297501 3.1454999 0.68199998 2
19.282499 3.1125 0.62599999 2
19.275499 3.1605 0.66500002 2
19.2675 3.1605 0.65200001 2
19.313499 3.1364999 0.69800001 2
19.2645 3.1445 0.63200003 2
19.286501 3.1175001 0.63599998 2
19.282499 3.1515 0.66600001 2
19.3235 3.1294999 0.70599997 2
19.2745 3.1205001 0.62199998 2
19.320499 3.1255 0.69700003 2
19.3195 3.1245 0.69499999 2
19.251499 3.1754999 0.64300001 2
19.2745 3.2715001 0.53600001 2
19.2745 3.1895001 0.55400002 2
19.2665 3.2614999 0.56 2
19.2665 3.2375 0.56599998 2
19.2505 3.2114999 0.616 2
19.2665 3.2395 0.565 2
19.259501 3.2915001 0.57300001 2
19.255501 3.1895001 0.60500002 2
19.2675 3.3855 0.53399998 2
19.2505 3.1865001 0.62099999 2
19.2705 3.2755001 0.54799998 2
19.269501 3.2614999 0.55400002 2
19.269501 3.2665 0.55000001 2
19.2495 3.2284999 0.61400002 2
19.258499 3.2574999 0.58499998 2
19.279499 3.1945 0.53799999 2
19.276501 3.2785001 0.52999997 2
19.2745 3.2265 0.54699999 2
19.2775 3.2205 0.53799999 2
19.2535 3.2344999 0.60299999 2
19.262501 3.3204999 0.56 2
19.252501 3.2444999 0.60299999 2
19.262501 3.3195 0.56 2
19.2735 3.2225001 0.54900002 2
19.275499 3.2765 0.53399998 2
19.2465 3.1854999 0.63200003 2
19.2735 3.3405001 0.52700001 2
19.2715 3.2904999 0.54000002 2
19.268499 3.3855 0.53100002 2
19.2605 3.3234999 0.56599998 2
19.2785 3.2054999 0.53799999 2
19.248501 3.1884999 0.62400001 2
19.268499 3.3545001 0.53600001 2
19.268499 3.2605 0.55500001 2
19.2575 3.2365 0.59200001 2
19.2635 3.3405001 0.55400002 2
19.269501 3.3915 0.52700001 2
19.2665 3.3104999 0.551 2
19.2735 3.3225 0.52899998 2
19.259501 3.2695 0.579 2
19.2715 3.3255 0.53500003 2
19.275499 3.2595 0.537 2
19.272499 3.3085001 0.53399998 2
19.2645 3.3375001 0.55199999 2
19.2735 3.3095 0.53299999 2
19.2785 3.2405 0.53200001 2
19.269501 3.3924999 0.52600002 2
19.265499 3.2735 0.56 2
19.2785 3.2425001 0.53299999 2
19.258499 3.2184999 0.59200001 2
19.2705 3.1984999 0.56199998 2
19.2645 3.2974999 0.55900002 2
19.2635 3.3204999 0.55699998 2
19.272499 3.2574999 0.54400003 2
19.2675 3.2635 0.55699998 2
19.2705 3.2035 0.56 2
19.252501 3.2455001 0.60299999 2
19.2665 3.3775001 0.53799999 2
19.261499 3.2544999 0.57700002 2
19.265499 3.2535 0.56599998 2
19.269501 3.3455 0.53600001 2
19.2665 3.3104999 0.55000001 2
19.2505 3.1954999 0.61900002 2
19.268499 3.2674999 0.55400002 2
19.268499 3.3015001 0.54699999 2
19.2715 3.2774999 0.54500002 2
19.272499 3.2934999 0.537 2
19.2705 3.1914999 0.56300002 2
19.2665 3.2275 0.56599998 2
19.2675 3.2045 0.56999999 2
19.261499 3.2855 0.56900001 2
19.2495 3.2065001 0.61900002 2
19.2715 3.1895001 0.56099999 2
19.261499 3.2774999 0.57200003 2
19.261499 3.2774999 0.57099998 2
19.254499 3.2465 0.59600002 2
19.269501 3.2284999 0.55800003 2
19.2745 3.2985001 0.52999997 2
19.268499 3.4015 0.52600002 2
19.275499 3.2874999 0.53200001 2
19.265499 3.2214999 0.57200003 2
19.251499 3.1984999 0.61400002 2
19.2785 3.2235 0.53600001 2
19.251499 3.2495 0.60399997 2
19.2645 3.2175 0.57499999 2
19.2675 3.2835 0.55199999 2
19.2745 3.2145 0.54900002 2
19.269501 3.3505001 0.53600001 2
19.2785 3.2114999 0.53899997 2
19.2635 3.3415 0.55199999 2
19.269501 3.3115001 0.54100001 2
19.2705 3.3415 0.53299999 2
19.2775 3.2365 0.53600001 2
19.2675 3.3215001 0.54699999 2
19.2635 3.3034999 0.56099999 2
19.276501 3.2184999 0.54100001 2
19.279499 3.2155001 0.53500003 2
19.2605 3.2644999 0.57599998 2
19.2645 3.2555001 0.56800002 2
19.261499 3.1875 0.58999997 2
19.268499 3.2054999 0.56599998 2
19.2635 3.3515 0.55000001 2
19.2675 3.2755001 0.55500001 2
19.2605 3.2674999 0.57499999 2
19.2715 3.2054999 0.55800003 2
19.2675 3.2614999 0.55900002 2
19.2565 3.2774999 0.58600003 2
19.2785 3.2574999 0.528 2
19.2705 3.2904999 0.54400003 2
19.259501 3.2804999 0.57599998 2
19.2645 3.2435 0.56900001 2
19.2735 3.2925 0.53500003 2
19.2565 3.2715001 0.58700001 2
19.268499 3.3155 0.54400003 2
19.265499 3.3375001 0.55000001 2
19.265499 3.1884999 0.579 2
19.248501 3.1965001 0.62400001 2
19.268499 3.2184999 0.565 2
19.2715 3.2955 0.54000002 2
19.2575 3.1945 0.59899998 2
19.2575 3.2455001 0.58999997 2
19.2705 3.3255 0.53600001 2
19.2735 3.3074999 0.53100002 2
19.2465 3.2035 0.62699997 2
19.2635 3.1895001 0.58399999 2
19.2645 3.2025001 0.57700002 2
19.2715 3.3785 0.52499998 2
19.2635 3.2335 0.57499999 2
19.259501 3.2725 0.57800001 2
19.2775 3.3845 0.66000003 2
19.2735 3.3824999 0.61699998 2
19.262501 3.2995 0.64200002 2
19.2715 3.3705001 0.61199999 2
19.2675 3.3715 0.56800002 2
19.265499 3.3375001 0.60399997 2
19.2745 3.3534999 0.68099999 2
19.2705 3.3965001 0.56400001 2
19.269501 3.3685 0.60100001 2
19.265499 3.3635001 0.56300002 2
19.2715 3.3794999 0.597 2
19.268499 3.3945 0.53500003 2
19.2715 3.3545001 0.64600003 2
19.2715 3.3954999 0.56699997 2
19.2735 3.3485 0.68099999 2
19.272499 3.3954999 0.58700001 2
19.2635 3.3065 0.63700002 2
19.269501 3.3575001 0.61299998 2
19.2745 3.3905001 0.61500001 2
19.2745 3.3505001 0.68400002 2
19.268499 3.3805001 0.56 2
19.2675 3.3905001 0.54000002 2
19.252501 3.2395 0.62900001 2
19.2775 3.3915 0.64399999 2
19.2665 3.3045001 0.67199999 2
19.2605 3.2995 0.61699998 2
19.258499 3.2904999 0.61000001 2
19.2735 3.3994999 0.58700001 2
19.276501 3.3945 0.63599998 2
19.2675 3.3664999 0.57300001 2
19.2675 3.3775001 0.55699998 2
19.2535 3.2665 0.59899998 2
19.269501 3.3815 0.57599998 2
19.2665 3.3415 0.61000001 2
19.261499 3.3264999 0.58499998 2
19.2775 3.3664999 0.68900001 2
19.2735 3.3635001 0.648 2
19.2715 3.3724999 0.60799998 2
19.2715 3.3415 0.66900003 2
19.2715 3.3605001 0.62900001 2
19.269501 3.3525 0.62300003 2
19.272499 3.3415 0.67500001 2
19.258499 3.2674999 0.65399998 2
19.261499 3.3325 0.57099998 2
19.269501 3.3515 0.62800002 2
19.261499 3.3285 0.57200003 2
19.254499 3.2435 0.64999998 2
19.269501 3.3894999 0.56400001 2
19.2575 3.2815001 0.61000001 2
19.2705 3.3534999 0.634 2
19.272499 3.4035001 0.56900001 2
19.272499 3.3885 0.59600002 2
19.262501 3.3215001 0.59600002 2
19.255501 3.2844999 0.588 2
19.2785 3.3715 0.69199997 2
19.2735 3.3845 0.616 2
19.2605 3.3164999 0.58700001 2
19.2675 3.3775001 0.55699998 2
19.2675 3.3164999 0.66600001 2
19.2665 3.3175001 0.64899999 2
19.2665 3.3055 0.667 2
19.2645 3.3295 0.60399997 2
19.2675 3.3304999 0.63599998 2
19.2565 3.2755001 0.61199999 2
19.2635 3.3515 0.56099999 2
19.2735 3.3835001 0.61400002 2
19.2675 3.3145001 0.67299998 2
19.262501 3.3415 0.56099999 2
19.2675 3.3885 0.54299998 2
19.259501 3.2655001 0.65899998 2
19.2715 3.3845 0.58600003 2
19.2705 3.3605001 0.61900002 2
19.259501 3.2835 0.62800002 2
19.2575 3.2965 0.58999997 2
19.2635 3.3195 0.61299998 2
19.2645 3.3425 0.59100002 2
19.2565 3.2895 0.59299999 2
19.2565 3.2544999 0.64499998 2
19.2645 3.3055 0.65200001 2
19.2565 3.2595 0.64600003 2
19.272499 3.3505001 0.66500002 2
19.2675 3.3475001 0.60699999 2
19.2645 3.3415 0.58399999 2
19.2735 3.3685 0.63700002 2
19.265499 3.3285 0.625 2
19.2635 3.3195 0.61799997 2
19.254499 3.2565 0.62699997 2
19.275499 3.3864999 0.62900001 2
19.258499 3.2765 0.63 2
19.2635 3.3464999 0.56400001 2
19.269501 3.3605001 0.61299998 2
19.2635 3.2955 0.66000003 2
19.2735 3.3685 0.639 2
19.269501 3.3605001 0.61299998 2
19.2605 3.3004999 0.61799997 2
19.2775 3.3764999 0.676 2
19.2665 3.3655 0.56599998 2
19.2635 3.3065 0.634 2
19.275499 3.3715 0.65799999 2
19.268499 3.3785 0.56400001 2
19.2745 3.3525 0.685 2
19.251499 3.2244999 0.64999998 2
19.2705 3.3824999 0.58899999 2
19.269501 3.3464999 0.634 2
19.2775 3.3745 0.67500001 2
19.254499 3.2725 0.60100001 2
19.265499 3.3055 0.66600001 2
19.2715 3.3395 0.66399997 2
19.276501 3.3615 0.68599999 2
19.2735 3.3935001 0.60100001 2
19.2675 3.3445001 0.61500001 2
19.2675 3.3345001 0.63599998 2
19.2575 3.2635 0.64899999 2
19.272499 3.3585 0.648 2
19.2665 3.3325 0.62300003 2
19.2715 3.3915 0.58600003 2
19.268499 3.3585 0.60799998 2
19.2635 3.3125 0.63 2
19.2565 3.2665 0.63200003 2
19.2715 3.3935001 0.57300001 2
19.258499 3.2925 0.60900003 2
19.2775 3.3675001 0.68599999 2
19.254499 3.2644999 0.61299998 2
19.2675 3.3894999 0.542 2
19.262501 3.3445001 0.56099999 2
19.2785 3.3775001 0.68699998 2
19.2715 3.3705001 0.61699998 2
19.268499 3.3475001 0.625 2
19.2705 3.3694999 0.60699999 2
19.269501 3.3355 0.65700001 2
19.254499 3.2685001 0.59899998 2
19.2665 3.3735001 0.55400002 2
19.254499 3.2444999 0.63800001 2
19.2465 3.2035 0.63 2
19.2785 3.3855 0.67000002 2
19.252501 3.2395 0.62699997 2
19.261499 3.3045001 0.61500001 2
19.2665 3.3295 0.62599999 2
19.2565 3.2744999 0.61900002 2
19.2565 3.2874999 0.59500003 2
19.2715 3.4065001 0.54900002 2
19.2645 3.3115001 0.63800001 2
19.269501 3.3564999 0.61900002 2
19.2645 3.3445001 0.583 2
19.272499 3.3855 0.60100001 2
19.259501 3.2715001 0.65200001 2
19.2745 3.3845 0.62699997 2
19.272499 3.3794999 0.61699998 2
19.2665 3.3515 0.59299999 2
19.258499 3.3004999 0.59399998 2
19.2605 3.2804999 0.648 2
19.2675 3.3185 0.66600001 2
19.2745 3.3555 0.68099999 2
19.2645 3.2945001 0.66399997 2
19.258499 3.2695 0.64300001 2
19.2675 3.3805001 0.55299997 2
19.2665 3.3175001 0.65499997 2
19.2645 3.3115001 0.63499999 2
19.268499 3.3894999 0.55400002 2
19.2565 3.2514999 0.65100002 2
19.262501 3.3255 0.59600002 2
19.275499 3.3945 0.61299998 2
19.2705 3.3594999 0.62800002 2
19.265499 3.3334999 0.60699999 2
19.2675 3.3494999 0.61199999 2
19.2635 3.3104999 0.634 2
19.2715 3.3395 0.667 2
19.276501 3.3594999 0.68800002 2
19.2565 3.2844999 0.602 2
19.2705 3.3735001 0.59600002 2
19.2705 3.3664999 0.61299998 2
19.262501 3.2895 0.65100002 2
19.2735 3.3745 0.62900001 2
19.2605 3.2915001 0.63300002 2
19.272499 3.3545001 0.653 2
19.2495 3.2235 0.62400001 2
19.269501 3.3375001 0.65100002 2
19.258499 3.3004999 0.59299999 2
19.269501 3.3585 0.611 2
19.268499 3.3694999 0.58899999 2
19.265499 3.3315001 0.61900002 2
19.2575 3.2925 0.59100002 2
19.2775 3.3824999 0.66399997 2
19.258499 3.2674999 0.653 2
19.2645 3.3505001 0.57599998 2
19.2735 3.3835001 0.611 2
19.2575 3.2635 0.64300001 2
19.2605 3.3234999 0.57099998 2
19.261499 3.2934999 0.63700002 2
19.2715 3.3315001 0.67799997 2
19.255501 3.2505 0.64700001 2
19.2735 3.3285 0.523 2
19.2735 3.3025 0.52100003 2
19.2705 3.3855 0.52200001 2
19.2715 3.3164999 0.51899999 2
19.2745 3.3185 0.523 2
19.2715 3.3515 0.52100003 2
19.2705 3.3965001 0.52200001 2
19.2745 3.3275001 0.52399999 2
19.269501 3.3245001 0.51700002 2
19.2705 3.3875 0.51999998 2
19.324499 3.1375 0.71600002 2
19.334499 3.1524999 0.73699999 2
19.303499 3.1675 0.70599997 2
19.3295 3.2035 0.76099998 2
19.3125 3.1914999 0.73299998 2
19.297501 3.1545 0.69099998 2
19.2915 3.1835001 0.69999999 2
19.2845 3.1875 0.69400001 2
19.2945 3.1835001 0.70499998 2
19.286501 3.1845 0.69400001 2
19.342501 3.2175 0.78500003 2
19.3305 3.2205 0.77200001 2
19.3375 3.2235 0.78299999 2
19.3265 3.1605 0.73199999 2
19.3325 3.1845 0.75400001 2
19.2915 3.1565001 0.685 2
19.335501 3.1385 0.73000002 2
19.345501 3.1914999 0.77399999 2
19.3195 3.1665001 0.727 2
19.290501 3.1805 0.69700003 2
19.321501 3.2155001 0.75800002 2
19.2735 3.1835001 0.67699999 2
19.331499 3.1615 0.74000001 2
19.338499 3.1364999 0.73400003 2
19.3395 3.2135 0.77999997 2
19.268499 3.1895001 0.67500001 2
19.328501 3.2075 0.76200002 2
19.324499 3.1965001 0.75099999 2
19.3305 3.1635001 0.73900002 2
19.3295 3.1624999 0.73699999 2
19.320499 3.1645 0.72600001 2
19.320499 3.1445 0.71399999 2
19.289499 3.1905 0.70200002 2
19.293501 3.1594999 0.68900001 2
19.265499 3.1745 0.662 2
19.289499 3.1735001 0.69199997 2
19.279499 3.1805 0.68300003 2
19.2845 3.1724999 0.685 2
19.3265 3.2105 0.76099998 2
19.282499 3.1765001 0.685 2
19.3025 3.1754999 0.70899999 2
19.3165 3.2135 0.75099999 2
19.282499 3.1925001 0.69499999 2
19.3025 3.1835001 0.71499997 2
19.335501 3.2165 0.77600002 2
19.314501 3.2114999 0.74699998 2
19.3095 3.2095001 0.73900002 2
19.2705 3.1775 0.67000002 2
19.3335 3.1995001 0.764 2
19.268499 3.1815 0.67000002 2
19.293501 3.1875 0.70499998 2
19.2575 3.1835001 0.65700001 2
19.2945 3.1884999 0.708 2
19.261499 3.1775 0.65799999 2
19.321501 3.1424999 0.71499997 2
19.2855 3.1845 0.69300002 2
19.2955 3.1935 0.71100003 2
19.279499 3.1884999 0.68800002 2
19.3125 3.1594999 0.713 2
19.3405 3.1754999 0.75800002 2
19.3475 3.2275 0.79900002 2
19.342501 3.1845 0.76700002 2
19.324499 3.2195001 0.764 2
19.345501 3.2054999 0.78299999 2
19.318501 3.1805 0.73299998 2
19.313499 3.1954999 0.73500001 2
19.3465 3.2175 0.792 2
19.304501 3.1575 0.70200002 2
19.327499 3.2054999 0.75999999 2
19.2715 3.1935 0.68000001 2
19.318501 3.2155001 0.755 2
19.3225 3.1945 0.74699998 2
19.3395 3.1454999 0.74000001 2
19.3435 3.1355 0.73799998 2
19.345501 3.1875 0.77200001 2
19.313499 3.1695001 0.72100002 2
19.276501 3.1705 0.67400002 2
19.2665 3.1745 0.66299999 2
19.3235 3.1605 0.72799999 2
19.3335 3.2195001 0.77600002 2
19.3475 3.1984999 0.78100002 2
19.317499 3.1965001 0.741 2
19.300501 3.1984999 0.72100002 2
19.3305 3.1335001 0.722 2
19.338499 3.1535001 0.74299997 2
19.335501 3.1524999 0.73799998 2
19.2775 3.1845 0.68300003 2
19.338499 3.1405001 0.736 2
19.327499 3.2114999 0.76300001 2
19.303499 3.2045 0.72799999 2
19.265499 3.1824999 0.66600001 2
19.318501 3.1554999 0.71899998 2
19.3375 3.2225001 0.78299999 2
19.3015 3.1745 0.708 2
19.300501 3.1684999 0.70300001 2
19.3465 3.1645 0.75999999 2
19.304501 3.1654999 0.70599997 2
19.3375 3.1454999 0.73699999 2
19.3125 3.2505 0.74699998 2
19.282499 3.2614999 0.69999999 2
19.286501 3.2614999 0.70499998 2
19.3125 3.3074999 0.74699998 2
19.282499 3.3824999 0.69999999 2
19.3235 3.2715001 0.764 2
19.272499 3.2214999 0.68300003 2
19.3155 3.2275 0.75199997 2
19.2535 3.2295001 0.653 2
19.2945 3.2205 0.71700001 2
19.282499 3.3485 0.69999999 2
19.272499 3.2035 0.68300003 2
19.265499 3.2765 0.67199999 2
19.321501 3.2195001 0.75999999 2
19.2635 3.2225001 0.66900003 2
19.272499 3.2674999 0.68400002 2
19.2855 3.2135 0.704 2
19.307501 3.2184999 0.73900002 2
19.3085 3.2375 0.74000001 2
19.293501 3.2895 0.71700001 2
19.3255 3.2555001 0.76700002 2
19.317499 3.2425001 0.75400001 2
19.2675 3.2725 0.67500001 2
19.3365 3.2435 0.78399998 2
19.3055 3.3085001 0.73500001 2
19.2855 3.3585 0.704 2
19.328501 3.2255001 0.77200001 2
19.3015 3.2485001 0.73000002 2
19.265499 3.2695 0.67199999 2
19.282499 3.2655001 0.699 2
19.276501 3.1995001 0.68900001 2
19.3155 3.2344999 0.75 2
19.283501 3.3434999 0.70200002 2
19.2745 3.3395 0.68699998 2
19.2665 3.2715001 0.67400002 2
19.3025 3.2135 0.73000002 2
19.2815 3.2525001 0.69800001 2
19.3255 3.2585001 0.76599997 2
19.2815 3.2295001 0.69800001 2
19.2785 3.2655001 0.69300002 2
19.279499 3.2325001 0.69400001 2
19.283501 3.2414999 0.70099998 2
19.259501 3.2644999 0.66299999 2
19.2805 3.3645 0.69700003 2
19.289499 3.3034999 0.71100003 2
19.2775 3.2385001 0.69199997 2
19.2875 3.2435 0.70700002 2
19.254499 3.2295001 0.65499997 2
19.3335 3.2444999 0.77899998 2
19.3095 3.2795 0.741 2
19.3365 3.2474999 0.78399998 2
19.2805 3.2895 0.69599998 2
19.2995 3.3125 0.72600001 2
19.3195 3.2325001 0.75800002 2
19.2995 3.3225 0.727 2
19.3295 3.2375 0.773 2
19.2855 3.3505001 0.70499998 2
19.3095 3.3074999 0.741 2
19.283501 3.2065001 0.70099998 2
19.313499 3.2255001 0.74699998 2
19.310499 3.2844999 0.74299997 2
19.2845 3.3245001 0.70200002 2
19.275499 3.3115001 0.68800002 2
19.251499 3.2045 0.64999998 2
19.2805 3.2555001 0.69700003 2
19.3165 3.2765 0.75300002 2
19.3375 3.2275 0.78500003 2
19.3255 3.2625 0.76700002 2
19.290501 3.3085001 0.713 2
19.311501 3.2655001 0.745 2
19.3165 3.2314999 0.75300002 2
19.320499 3.2544999 0.759 2
19.2805 3.3664999 0.69700003 2
19.2785 3.2054999 0.69300002 2
19.3095 3.2644999 0.741 2
19.2915 3.2105 0.713 2
19.313499 3.3074999 0.74900001 2
19.3225 3.2825 0.76200002 2
19.327499 3.2744999 0.76999998 2
19.2815 3.2365 0.69700003 2
19.282499 3.3225 0.699 2
19.2875 3.3195 0.70700002 2
19.3055 3.2835 0.736 2
19.2645 3.2054999 0.67000002 2
19.282499 3.3315001 0.69999999 2
19.272499 3.2375 0.68400002 2
19.317499 3.2455001 0.755 2
19.3305 3.2565 0.77399999 2
19.286501 3.2574999 0.70599997 2
19.2575 3.2514999 0.66000003 2
19.3305 3.2455001 0.77399999 2
19.2845 3.2715001 0.70200002 2
19.2915 3.3215001 0.713 2
19.286501 3.2175 0.70499998 2
19.2705 3.2934999 0.68000001 2
19.2775 3.3065 0.69199997 2
19.2995 3.2895 0.727 2
19.293501 3.3425 0.71700001 2
19.2775 3.3555 0.69099998 2
19.2805 3.1995001 0.69499999 2
19.2735 3.2595 0.68400002 2
19.317499 3.2644999 0.75400001 2
19.3225 3.2915001 0.76200002 2
19.2605 3.2585001 0.66500002 2
19.3055 3.2284999 0.736 2
19.282499 3.3794999 0.69999999 2
19.2705 3.2275 0.68000001 2
19.304501 3.2114999 0.73299998 2
19.2565 3.2155001 0.65799999 2
19.2915 3.2574999 0.71399999 2
19.276501 3.3125 0.69 2
19.297501 3.2155001 0.722 2
19.290501 3.3555 0.71200001 2
19.2715 3.2665 0.68199998 2
19.279499 3.3225 0.69499999 2
19.282499 3.3055 0.69999999 2
19.2505 3.2025001 0.64899999 2
19.279499 3.2744999 0.69400001 2
19.2565 3.2414999 0.65899998 2
19.2915 3.2874999 0.713 2
19.2735 3.2704999 0.685 2
19.2875 3.2804999 0.708 2
19.2995 3.2205 0.72500002 2
19.268499 3.2054999 0.676 2
19.2715 3.3045001 0.68199998 2
19.3265 3.2665 0.76899999 2
19.2915 3.2344999 0.713 2
19.3265 3.2585001 0.76800001 2
19.3165 3.2295001 0.75199997 2
19.296499 3.2135 0.72100002 2
19.3015 3.2205 0.72799999 2
19.320499 3.2605 0.759 2
19.2995 3.3264999 0.727 2
19.2855 3.3164999 0.70499998 2
19.297501 3.2715001 0.722 2
19.276501 3.3164999 0.69099998 2
19.304501 3.3185 0.73500001 2
19.304501 3.2225001 0.73299998 2
19.2885 3.3355 0.70999998 2
19.2885 3.2425001 0.708 2
19.2915 3.3185 0.71399999 2
19.265499 3.2385001 0.67199999 2
19.2715 3.2595 0.68199998 2
19.255501 3.2244999 0.65600002 2
19.2715 3.3315001 0.68199998 2
19.3165 3.2904999 0.75300002 2
19.307501 3.2255001 0.73900002 2
19.2955 3.2435 0.72000003 2
19.286501 3.3485 0.70599997 2
19.286501 3.2625 0.70499998 2
19.282499 3.2995 0.699 2
19.283501 3.3605001 0.70099998 2
19.303499 3.3185 0.73199999 2
19.3025 3.2295001 0.73000002 2
19.3155 3.2785001 0.75099999 2
19.290501 3.3015001 0.713 2
19.2845 3.2065001 0.70300001 2
19.300501 3.2555001 0.727 2
19.2815 3.3594999 0.699 2
19.283501 3.2835 0.70099998 2
19.313499 3.2835 0.74800003 2
19.269501 3.3004999 0.67900002 2
19.289499 3.2555001 0.71100003 2
19.2675 3.2755001 0.67500001 2
19.265499 3.2574999 0.67199999 2
19.3095 3.3204999 0.74199998 2
19.282499 3.2505 0.699 2
19.2745 3.2495 0.68599999 2
19.2985 3.2235 0.72500002 2
19.268499 3.2655001 0.67799997 2
19.293501 3.3545001 0.71700001 2
19.3225 3.2785001 0.76200002 2
19.314501 3.2695 0.75 2
19.3015 3.3295 0.73000002 2
19.2805 3.3724999 0.69700003 2
19.2945 3.2075 0.71799999 2
19.2785 3.2375 0.69300002 2
19.2915 3.2825 0.713 2
19.306499 3.2335 0.73699999 2
19.276501 3.2214999 0.69 2
19.310499 3.4805 0.77200001 2
19.2845 3.5185001 0.76899999 2
19.2665 3.5114999 0.75099999 2
19.258499 3.5255001 0.75099999 2
19.289499 3.5025001 0.76499999 2
19.2855 3.5225 0.77200001 2
19.3395 3.4955001 0.80400002 2
19.2705 3.4684999 0.73199999 2
19.279499 3.4324999 0.72100002 2
19.307501 3.4955001 0.77700001 2
19.275499 3.4224999 0.71200001 2
19.289499 3.5105 0.76899999 2
19.265499 3.4784999 0.73199999 2
19.2845 3.4705 0.745 2
19.290501 3.4384999 0.73299998 2
19.2855 3.4925001 0.75599998 2
19.297501 3.4905 0.76499999 2
19.275499 3.4675 0.73500001 2
19.279499 3.4295001 0.71899998 2
19.2735 3.4145 0.70700002 2
19.2705 3.4324999 0.71399999 2
19.269501 3.4275 0.70899999 2
19.3125 3.4725001 0.76899999 2
19.2785 3.4925001 0.75 2
19.3025 3.4475 0.74800003 2
19.314501 3.4985001 0.78399998 2
19.3235 3.4885001 0.787 2
19.2985 3.4974999 0.76999998 2
19.2665 3.4445 0.71600002 2
19.2855 3.4835 0.75199997 2
19.2575 3.4914999 0.73299998 2
19.276501 3.5235 0.76499999 2
19.2815 3.4885001 0.75099999 2
19.2885 3.5174999 0.77200001 2
19.2745 3.5105 0.75700003 2
19.283501 3.4905 0.75400001 2
19.320499 3.4584999 0.76899999 2
19.3015 3.4245 0.73500001 2
19.2995 3.4245 0.73299998 2
19.244499 3.5274999 0.74000001 2
19.2945 3.4375 0.736 2
19.286501 3.4295001 0.72500002 2
19.248501 3.4955001 0.727 2
19.276501 3.4305 0.71700001 2
19.3335 3.4855001 0.79299998 2
19.3095 3.4895 0.77499998 2
19.2995 3.4995 0.77200001 2
19.2845 3.4955001 0.75800002 2
19.317499 3.5005 0.78799999 2
19.272499 3.4375 0.71799999 2
19.3025 3.5074999 0.77899998 2
19.240499 3.5274999 0.736 2
19.2735 3.5044999 0.75300002 2
19.2995 3.4245 0.73299998 2
19.3015 3.4645 0.75599998 2
19.272499 3.5155001 0.75700003 2
19.314501 3.4525001 0.75999999 2
19.3195 3.4584999 0.76800001 2
19.2645 3.4595001 0.722 2
19.2715 3.5265 0.76300001 2
19.2815 3.4124999 0.71200001 2
19.248501 3.5065 0.73299998 2
19.2885 3.4414999 0.73299998 2
19.307501 3.4465001 0.75199997 2
19.258499 3.4835 0.72899997 2
19.3165 3.5065 0.79000002 2
19.311501 3.4445 0.75400001 2
19.2785 3.5074999 0.759 2
19.300501 3.4514999 0.74800003 2
19.2605 3.5055001 0.74299997 2
19.2815 3.5085001 0.76099998 2
19.2925 3.4675 0.75 2
19.2675 3.4405 0.71399999 2
19.303499 3.4755001 0.76300001 2
19.241501 3.5225 0.73500001 2
19.276501 3.4575 0.73100001 2
19.3395 3.4895 0.801 2
19.2775 3.4505 0.72799999 2
19.2505 3.5125 0.73699999 2
19.269501 3.5235 0.759 2
19.252501 3.5074999 0.73699999 2
19.290501 3.4035001 0.71499997 2
19.259501 3.4944999 0.736 2
19.3085 3.4675 0.764 2
19.2875 3.4465001 0.73400003 2
19.269501 3.4814999 0.73699999 2
19.3255 3.4895 0.78899997 2
19.286501 3.4645 0.74299997 2
19.2675 3.4865 0.73799998 2
19.286501 3.4584999 0.74000001 2
19.248501 3.5144999 0.73699999 2
19.303499 3.4435 0.74599999 2
19.2565 3.4714999 0.722 2
19.265499 3.4575 0.722 2
19.286501 3.4974999 0.75999999 2
19.3015 3.5144999 0.78200001 2
19.262501 3.5274999 0.755 2
19.2705 3.4315 0.713 2
19.259501 3.5255001 0.75199997 2
19.286501 3.4215 0.72100002 2
19.282499 3.4195001 0.71600002 2
19.324499 3.4895 0.78799999 2
19.2635 3.4625001 0.722 2
19.2875 3.4605 0.74199998 2
19.2985 3.4895 0.76599997 2
19.2915 3.4224999 0.72600001 2
19.297501 3.4235001 0.73100001 2
19.261499 3.5035 0.74199998 2
19.2955 3.4224999 0.72899997 2
19.342501 3.4545 0.80400002 2
19.342501 3.4944999 0.80699998 2
19.342501 3.2774999 0.79500002 2
19.307501 3.4105 0.74299997 2
19.3335 3.4635 0.79000002 2
19.331499 3.3485 0.77999997 2
19.3395 3.3334999 0.79299998 2
19.3155 3.3145001 0.75199997 2
19.296499 3.3794999 0.72299999 2
19.3375 3.3615 0.79100001 2
19.3235 3.4105 0.76899999 2
19.345501 3.3055 0.801 2
19.304501 3.3345001 0.73400003 2
19.3405 3.3385 0.79400003 2
19.3225 3.4584999 0.77100003 2
19.313499 3.3185 0.74800003 2
19.342501 3.3275001 0.79699999 2
19.3165 3.4065001 0.75800002 2
19.3395 3.3645 0.79500002 2
19.331499 3.3395 0.77999997 2
19.3435 3.3525 0.801 2
19.3235 3.3204999 0.76499999 2
19.3155 3.3835001 0.755 2
19.341499 3.3434999 0.796 2
19.3235 3.4224999 0.76999998 2
19.311501 3.3175001 0.74599999 2
19.3195 3.4425001 0.76499999 2
19.3235 3.3585 0.76800001 2
19.311501 3.3855 0.74800003 2
19.3305 3.2755001 0.77499998 2
19.307501 3.3835001 0.74199998 2
19.3265 3.3954999 0.77399999 2
19.3445 3.2525001 0.79799998 2
19.2995 3.3985 0.72899997 2
19.3225 3.3935001 0.76700002 2
19.318501 3.3864999 0.76099998 2
19.342501 3.4135001 0.801 2
