# .PCD v0.7 - Point Cloud Data file format
VERSION 0.7
FIELDS x y z label
SIZE 4 4 4 4
TYPE F F F U
COUNT 1 1 1 1
WIDTH 1634
HEIGHT 1
VIEWPOINT 0 0 0 1 0 0 0
POINTS 1634
DATA ascii
19.1215 3.7934999 0.47099999 2
19.2255 3.7305 0.44299999 2
19.209499 3.7155001 0.43399999 2
19.143499 3.7314999 0.414 2
19.144501 3.7244999 0.41299999 2
19.1415 3.7325001 0.414 2
19.234501 3.7284999 0.44499999 2
19.143499 3.7295001 0.414 2
19.199499 3.7295001 0.433 2
19.2085 3.7284999 0.43599999 2
19.189501 3.7155001 0.42699999 2
19.213499 3.7135 0.435 2
19.1975 3.7155001 0.43000001 2
19.195499 3.7235 0.43099999 2
19.192499 3.7255001 0.43000001 2
19.1915 3.7344999 0.43200001 2
19.2015 3.7114999 0.43000001 2
19.1775 3.7284999 0.426 2
19.161501 3.7305 0.421 2
19.2255 3.7344999 0.44400001 2
19.238501 3.7375 0.449 2
19.244499 3.7365 0.45100001 2
19.206499 3.7155001 0.433 2
19.185499 3.7225001 0.42699999 2
19.188499 3.7225001 0.428 2
19.186501 3.7135 0.42500001 2
19.127501 3.7325001 0.40900001 2
19.1675 3.7305 0.42300001 2
19.2225 3.7284999 0.44100001 2
19.178499 3.7214999 0.42399999 2
19.189501 3.7225001 0.428 2
19.1525 3.9505 0.458 2
19.210501 4.0365 0.456 2
19.1395 4.0524998 0.46700001 2
19.2565 3.9805 0.44600001 2
19.105499 4.0475001 0.47099999 2
19.161501 4.1034999 0.46799999 2
19.1285 4.1044998 0.472 2
19.1215 4.0685 0.47099999 2
19.0905 3.9905 0.46900001 2
19.129499 4.1385002 0.47499999 2
19.240499 3.9625001 0.447 2
19.3305 3.9425001 0.433 2
19.115499 4.0335002 0.46900001 2
19.3255 3.9215 0.43200001 2
19.2255 3.9584999 0.449 2
19.081499 4.0105 0.472 2
19.175501 3.9614999 0.456 2
19.3445 3.9184999 0.43000001 2
19.140499 4.1195002 0.472 2
19.2495 4.0174999 0.44999999 2
19.171499 4.0595002 0.463 2
19.106501 3.9625001 0.465 2
19.1595 4.0774999 0.46599999 2
19.136499 3.9725001 0.46200001 2
19.261499 3.9635 0.44400001 2
19.2735 3.9645 0.44299999 2
19.122499 4.0324998 0.46799999 2
19.2335 4.0015001 0.45100001 2
19.1875 4.0584998 0.461 2
19.172501 4.1094999 0.46700001 2
19.1395 4.0374999 0.46599999 2
19.2225 4.0235 0.454 2
19.129499 3.9625001 0.46200001 2
19.230499 4.0475001 0.454 2
19.209499 4.0685 0.45899999 2
19.304501 3.9595001 0.43799999 2
19.2365 4.0085001 0.45100001 2
19.1945 4.0524998 0.46000001 2
19.2015 4.0275002 0.45699999 2
19.2605 3.9605 0.44400001 2
19.1675 3.9565001 0.456 2
19.1915 4.0875001 0.46200001 2
19.1875 3.9944999 0.456 2
19.1605 4.0865002 0.46700001 2
19.1735 4.0834999 0.465 2
19.0935 3.9895 0.46900001 2
19.1565 3.9435 0.45699999 2
19.147499 4.1104999 0.47 2
19.3195 3.9245 0.433 2
19.1745 4.1005001 0.46599999 2
19.136499 3.9914999 0.463 2
19.290501 3.9855001 0.442 2
19.182501 3.9514999 0.454 2
19.317499 3.9305 0.43399999 2
19.1415 4.0395002 0.46599999 2
19.1215 4.0964999 0.47299999 2
19.1555 3.9744999 0.45899999 2
19.105499 4.0654998 0.47299999 2
19.181499 4.0904999 0.46399999 2
19.1245 4.0945001 0.472 2
19.247499 3.9965 0.44800001 2
19.113501 3.9744999 0.465 2
19.223499 3.9545 0.449 2
19.0975 3.9835 0.46799999 2
19.2225 4.0545001 0.456 2
19.2425 4.0085001 0.44999999 2
19.2995 3.9765 0.44 2
19.220501 4.0235 0.454 2
19.2505 4.0114999 0.449 2
19.247499 3.9384999 0.44400001 2
19.2665 3.9765 0.44400001 2
19.209499 3.9665 0.45100001 2
19.227501 3.9414999 0.447 2
19.283501 3.9944999 0.44299999 2
19.175501 4.0495 0.46200001 2
19.189501 3.9765 0.45500001 2
19.245501 3.9614999 0.44600001 2
19.1075 4.0054998 0.46799999 2
19.120501 4.0675001 0.47099999 2
19.1675 4.0275002 0.461 2
19.1735 4.0555 0.463 2
19.1285 4.0205002 0.46599999 2
19.265499 3.9735 0.44400001 2
19.1395 3.9805 0.46200001 2
19.244499 4.0285001 0.45100001 2
19.157499 4.0584998 0.465 2
19.1015 4.0555 0.472 2
19.3445 3.9324999 0.43099999 2
19.0935 3.9825001 0.46799999 2
19.1415 4.0415001 0.46599999 2
19.1735 3.9965 0.458 2
19.2085 4.0565 0.458 2
19.2705 3.9384999 0.44100001 2
19.181499 4.0415001 0.46000001 2
19.130501 3.9985001 0.46399999 2
19.092501 3.9784999 0.46799999 2
19.1455 4.1005001 0.47 2
19.179501 4.0124998 0.45899999 2
19.3235 3.9484999 0.435 2
19.185499 4.0365 0.46000001 2
19.154499 4.0984998 0.46799999 2
19.133499 3.9925001 0.463 2
19.2945 3.9545 0.43900001 2
19.151501 4.1185002 0.47 2
19.189501 4.0834999 0.46200001 2
19.2195 4.0265002 0.454 2
19.1215 3.9914999 0.465 2
19.186501 3.9875 0.456 2
19.113501 3.9684999 0.46399999 2
19.136499 4.0964999 0.47099999 2
19.341499 3.9235001 0.43000001 2
19.161501 4.0805001 0.46599999 2
19.195499 3.9765 0.454 2
19.188499 4.0285001 0.45899999 2
19.150499 4.0465002 0.465 2
19.154499 3.9725001 0.45899999 2
19.1495 4.0135002 0.463 2
19.1005 3.9755001 0.46700001 2
19.2805 3.9495001 0.44 2
19.122499 4.0205002 0.46700001 2
19.1105 3.9725001 0.465 2
19.088499 3.9995 0.47 2
19.1565 4.0005002 0.461 2
19.0895 3.9705 0.46799999 2
19.129499 3.9755001 0.463 2
19.290501 3.9354999 0.43799999 2
19.199499 3.9605 0.45199999 2
19.1675 4.0395002 0.46200001 2
19.241501 3.9865 0.449 2
19.1455 4.1325002 0.472 2
19.1705 4.0355 0.46200001 2
19.2885 3.9755001 0.44100001 2
19.154499 3.9525001 0.458 2
19.2855 3.9565001 0.44 2
19.290501 3.9345 0.43799999 2
19.0805 3.9565001 0.46799999 2
19.3375 3.9354999 0.43200001 2
19.196501 4.0495 0.45899999 2
19.1385 3.9875 0.46200001 2
19.182501 4.0745001 0.463 2
19.158501 4.1125002 0.46900001 2
19.2295 4.0114999 0.45199999 2
19.2085 3.9495001 0.44999999 2
19.199499 3.9925001 0.45500001 2
19.1105 3.9875 0.46599999 2
19.1105 3.9935 0.46700001 2
19.1145 4.0384998 0.46900001 2
19.1605 4.0174999 0.46200001 2
19.095501 3.9905 0.46799999 2
19.120501 3.9835 0.465 2
19.1395 4.0844998 0.46900001 2
19.1495 4.0625 0.46599999 2
19.2125 4.0244999 0.45500001 2
19.216499 3.9635 0.44999999 2
19.1465 4.0984998 0.46900001 2
19.1185 4.0345001 0.46900001 2
19.1495 4.0695 0.46700001 2
19.085501 3.9605 0.46799999 2
19.2125 4.0075002 0.454 2
19.192499 4.0374999 0.45899999 2
19.091499 4.0035 0.47 2
19.328501 3.9454999 0.43399999 2
19.1905 3.9744999 0.454 2
19.175501 3.9855001 0.45699999 2
19.276501 3.9744999 0.44299999 2
19.223499 4.0235 0.45300001 2
19.251499 3.9445 0.44400001 2
19.0865 3.9645 0.46799999 2
19.1495 4.0415001 0.465 2
19.130501 4.0815001 0.47 2
19.181499 4.0304999 0.46000001 2
19.259501 4.0005002 0.447 2
19.112499 4.0974998 0.47400001 2
19.1425 4.0805001 0.46900001 2
19.1145 4.0355 0.46900001 2
19.3025 3.9584999 0.43799999 2
19.1485 4.0095 0.463 2
19.1185 4.0704999 0.47099999 2
19.126499 4.0805001 0.47099999 2
19.133499 4.0885 0.47 2
19.1875 3.9775 0.45500001 2
19.255501 3.9835 0.44600001 2
19.209499 4.0124998 0.45500001 2
19.129499 3.9695001 0.46200001 2
19.157499 4.1135001 0.46900001 2
19.1665 3.9625001 0.45699999 2
19.137501 4.0565 0.46799999 2
19.2295 3.9635 0.44800001 2
19.237499 3.9324999 0.44499999 2
19.175501 4.0955 0.465 2
19.244499 4.0265002 0.45100001 2
19.206499 4.0644999 0.45899999 2
19.258499 4.0015001 0.447 2
19.1525 4.0425 0.46399999 2
19.1145 3.9914999 0.46599999 2
19.1775 4.0095 0.45899999 2
19.158501 4.0035 0.461 2
19.2745 3.9744999 0.44299999 2
19.275499 3.9925001 0.44400001 2
19.1385 4.0155001 0.465 2
19.091499 3.9865 0.46900001 2
19.2845 3.9435 0.44 2
19.1695 4.0155001 0.46000001 2
19.0945 4.0105 0.47 2
19.1285 4.1224999 0.47400001 2
19.0765 3.9725001 0.47 2
19.164499 4.1174998 0.46799999 2
19.1945 4.0595002 0.46000001 2
19.2355 3.9875 0.449 2
19.133499 3.9814999 0.463 2
19.1745 3.9435 0.454 2
19.3195 3.9535 0.435 2
19.230499 3.9365001 0.44600001 2
19.217501 4.0225 0.454 2
19.300501 3.9315 0.43700001 2
19.269501 3.9315 0.44100001 2
19.2575 3.9744999 0.44499999 2
19.230499 4.0485001 0.454 2
19.1255 3.9855001 0.46399999 2
19.213499 3.9875 0.45199999 2
19.258499 3.9965 0.447 2
19.2365 3.9505 0.447 2
19.2115 3.9744999 0.45199999 2
19.2335 3.9935 0.44999999 2
19.1565 4.0784998 0.46700001 2
19.123501 4.1224999 0.47400001 2
19.165501 3.9425001 0.456 2
19.1045 3.9614999 0.465 2
19.265499 3.9584999 0.44299999 2
19.265499 3.9635 0.44400001 2
19.2145 3.9595001 0.44999999 2
19.213499 4.0444999 0.456 2
19.105499 4.0495 0.47099999 2
19.116501 4.0454998 0.47 2
19.1325 4.1285 0.47299999 2
19.158501 3.9765 0.45899999 2
19.2855 3.9295001 0.43799999 2
19.1905 4.0795002 0.46200001 2
19.1035 3.9875 0.46700001 2
19.068501 3.9805 0.47099999 2
19.1325 4.0095 0.465 2
19.1665 3.9944999 0.45899999 2
19.123501 4.1055002 0.47299999 2
19.3515 3.9184999 0.42899999 2
19.213499 3.9925001 0.45300001 2
19.0975 4.0215001 0.47 2
19.2055 3.9465001 0.44999999 2
19.234501 3.9974999 0.44999999 2
19.1455 4.0945001 0.46900001 2
19.2145 4.0504999 0.45699999 2
19.2785 3.9844999 0.44299999 2
19.240499 4.0085001 0.44999999 2
19.120501 3.9735 0.46399999 2
19.220501 3.9735 0.44999999 2
19.150499 3.9505 0.458 2
19.2505 4.0015001 0.44800001 2
19.1425 4.0254998 0.465 2
19.2355 4.0244999 0.45199999 2
19.115499 4.0504999 0.47 2
19.150499 3.9755001 0.46000001 2
19.195499 4.0584998 0.46000001 2
19.203501 4.0605001 0.45899999 2
19.217501 3.9645 0.44999999 2
19.0965 4.0035 0.46900001 2
19.1175 4.0405002 0.46900001 2
19.286501 3.9905 0.44299999 2
19.2195 4.0314999 0.45500001 2
19.1765 4.0124998 0.45899999 2
19.179501 4.0475001 0.461 2
19.112499 3.9554999 0.46399999 2
19.0895 3.9914999 0.46900001 2
19.2325 3.9414999 0.44600001 2
19.1325 3.9645 0.46200001 2
19.185499 3.9705 0.45500001 2
19.241501 4.0174999 0.45100001 2
19.113501 3.9705 0.465 2
19.0765 3.9655001 0.46900001 2
19.1735 4.0865002 0.465 2
19.188499 4.0064998 0.45699999 2
19.172501 4.0935001 0.46599999 2
19.109501 4.0415001 0.47 2
19.300501 3.9525001 0.43799999 2
19.112499 4.0415001 0.47 2
19.1595 3.9985001 0.46000001 2
19.224501 4.0225 0.45300001 2
19.2435 3.9735 0.447 2
19.2365 4.0135002 0.45100001 2
19.122499 3.9765 0.46399999 2
19.1245 4.1015 0.472 2
19.2255 3.9755001 0.44999999 2
19.2955 3.9505 0.43900001 2
19.1045 4.0784998 0.47400001 2
19.206499 4.0015001 0.454 2
19.1045 4.0595002 0.472 2
19.327499 3.9235001 0.43200001 2
19.1455 3.9855001 0.461 2
19.099501 3.9614999 0.46599999 2
19.158501 4.0704999 0.46599999 2
19.1565 3.9505 0.45699999 2
19.165501 4.0304999 0.46200001 2
19.2215 3.9345 0.447 2
19.1395 3.9584999 0.46000001 2
19.120501 4.0925002 0.472 2
19.1495 4.0335002 0.46399999 2
19.1635 4.0365 0.463 2
19.213499 4.0095 0.454 2
19.2075 3.9925001 0.454 2
19.179501 4.0825 0.46399999 2
19.1355 3.9775 0.46200001 2
19.1625 3.9974999 0.46000001 2
19.181499 4.0174999 0.45899999 2
19.1555 3.9825001 0.46000001 2
19.2195 4.0275002 0.454 2
19.178499 4.0205002 0.45899999 2
19.2735 3.9865 0.44400001 2
19.1915 3.9484999 0.45300001 2
19.324499 3.6854999 0.44 2
19.269501 3.7275 0.45199999 2
19.251499 3.7195001 0.44600001 2
19.254499 3.7155001 0.44400001 2
19.3675 3.6715 0.44 2
19.2295 3.7145 0.44 2
19.2735 3.6925001 0.43599999 2
19.2395 3.6975 0.433 2
19.306499 3.6805 0.435 2
19.2255 3.7075 0.43599999 2
19.2605 3.7105 0.44299999 2
19.2535 3.7335 0.45300001 2
19.2645 3.7235 0.44999999 2
19.237499 3.7054999 0.43700001 2
19.3195 3.6765001 0.435 2
19.2845 3.7065001 0.44400001 2
19.2635 3.6914999 0.43399999 2
19.2215 3.7005 0.43200001 2
19.2265 3.6984999 0.43200001 2
19.3755 3.6665001 0.43900001 2
19.318501 3.6975 0.44499999 2
19.293501 3.6884999 0.43700001 2
19.290501 3.6884999 0.43599999 2
19.311501 3.6835001 0.43700001 2
19.338499 3.6875 0.44299999 2
19.304501 3.6854999 0.43700001 2
19.3015 3.6884999 0.43799999 2
19.2425 3.7135 0.442 2
19.282499 3.7035 0.442 2
19.2715 3.6975 0.43799999 2
19.297501 3.6965001 0.44100001 2
19.338499 3.6845 0.442 2
19.252501 3.6965001 0.435 2
19.335501 3.6745 0.43599999 2
19.3505 3.6815 0.442 2
19.2635 3.7314999 0.45300001 2
19.244499 3.7265 0.44800001 2
19.258499 3.7114999 0.44299999 2
19.3235 3.6775 0.43599999 2
19.272499 3.7125001 0.44600001 2
19.341499 3.6765001 0.43799999 2
19.262501 3.7045 0.44 2
19.247499 3.7014999 0.43599999 2
19.3365 3.6784999 0.43799999 2
19.2645 3.7054999 0.44100001 2
19.247499 3.7195001 0.44499999 2
19.2505 3.7075 0.44 2
19.3195 3.6795001 0.43700001 2
19.238501 3.6954999 0.433 2
19.2745 3.7095001 0.44400001 2
19.244499 3.8115001 0.45199999 2
19.238501 3.8345001 0.45100001 2
19.289499 3.8415 0.44299999 2
19.2335 3.7444999 0.458 2
19.206499 3.7655001 0.461 2
19.196501 3.7774999 0.461 2
19.230499 3.7755001 0.456 2
19.0975 3.7774999 0.47600001 2
19.1595 3.7715001 0.46700001 2
19.2395 3.7755001 0.45500001 2
19.255501 3.7375 0.45500001 2
19.290501 3.7995 0.44600001 2
19.2715 3.7644999 0.45100001 2
19.265499 3.8245001 0.44800001 2
19.318501 3.8885 0.435 2
19.192499 3.7874999 0.461 2
19.1985 3.8185 0.458 2
19.3225 3.8724999 0.43599999 2
19.1315 3.7625 0.472 2
19.168501 3.7595 0.46599999 2
19.272499 3.8494999 0.44499999 2
19.1075 3.7744999 0.47499999 2
19.327499 3.8655 0.43599999 2
19.1735 3.7974999 0.463 2
19.2575 3.8525 0.447 2
19.2115 3.8034999 0.45699999 2
19.1695 3.7774999 0.465 2
19.1775 3.8025 0.46200001 2
19.1915 3.7904999 0.461 2
19.227501 3.7995 0.45500001 2
19.241501 3.8334999 0.45100001 2
19.193501 3.7614999 0.463 2
19.231501 3.7635 0.45699999 2
19.3055 3.8585 0.43900001 2
19.240499 3.7514999 0.456 2
19.286501 3.8705001 0.44100001 2
19.1465 3.7744999 0.46900001 2
19.2645 3.8364999 0.447 2
19.341499 3.8985 0.43099999 2
19.1465 3.7985001 0.46700001 2
19.1695 3.7895 0.46399999 2
19.2565 3.7425001 0.45500001 2
19.158501 3.7855 0.46599999 2
19.1595 3.8055 0.465 2
19.307501 3.8494999 0.44 2
19.255501 3.7695 0.45300001 2
19.2805 3.8635001 0.44299999 2
19.1605 3.7574999 0.46799999 2
19.1245 3.7895 0.47099999 2
19.1665 3.7785001 0.46599999 2
19.2775 3.7765 0.449 2
19.2085 3.7985001 0.458 2
19.1395 3.7635 0.47099999 2
19.165501 3.7585001 0.46700001 2
19.268499 3.8334999 0.447 2
19.165501 3.7904999 0.465 2
19.227501 3.8215001 0.45300001 2
19.296499 3.8494999 0.44100001 2
19.2465 3.7925 0.45300001 2
19.334499 3.8794999 0.43399999 2
19.2365 3.8295 0.45199999 2
19.2635 3.8215001 0.44800001 2
19.2715 3.7644999 0.45100001 2
19.209499 3.8315001 0.456 2
19.185499 3.7674999 0.46399999 2
19.2015 3.8034999 0.45899999 2
19.2435 3.7904999 0.45300001 2
19.1635 3.7885001 0.465 2
19.178499 3.7535 0.46599999 2
19.1105 3.7665 0.47499999 2
19.2215 3.7704999 0.458 2
19.2395 3.7735 0.45500001 2
19.2265 3.7925 0.456 2
19.251499 3.8534999 0.44800001 2
19.245501 3.7704999 0.454 2
19.282499 3.7995 0.447 2
19.310499 3.8615 0.43799999 2
19.1915 3.7795 0.46200001 2
19.185499 3.7865 0.46200001 2
19.254499 3.7725 0.45300001 2
19.2155 3.8334999 0.454 2
19.133499 3.7934999 0.46900001 2
19.1605 3.7804999 0.46599999 2
19.2575 3.8104999 0.44999999 2
19.1425 3.7915001 0.46799999 2
19.252501 3.7995 0.45100001 2
19.3015 3.8255 0.442 2
19.206499 3.8065 0.458 2
19.2855 3.8735001 0.44100001 2
19.334499 3.8824999 0.43399999 2
19.259501 3.8515 0.447 2
19.1485 3.7855 0.46799999 2
19.154499 3.7625 0.46799999 2
19.216499 3.8275001 0.45500001 2
19.2815 3.8204999 0.44600001 2
19.2185 3.8045001 0.456 2
19.2505 3.8295 0.449 2
19.1675 3.7695 0.46599999 2
19.192499 3.7535 0.463 2
19.220501 3.7444999 0.46000001 2
19.2225 3.8395 0.45300001 2
19.1115 3.7774999 0.47400001 2
19.1875 3.7625 0.463 2
19.2005 3.7774999 0.46000001 2
19.254499 3.7804999 0.45199999 2
19.147499 3.7965 0.46700001 2
19.1845 3.7995 0.461 2
19.203501 3.7555001 0.46200001 2
19.269501 3.8545001 0.44499999 2
19.134501 3.7904999 0.46900001 2
19.2155 3.8065 0.456 2
19.245501 3.7835 0.45300001 2
19.327499 3.8864999 0.43399999 2
19.193501 3.8164999 0.45899999 2
19.216499 3.7735 0.458 2
19.1745 3.7585001 0.46599999 2
19.1695 3.7785001 0.465 2
19.310499 3.8735001 0.43799999 2
19.268499 3.8295 0.447 2
19.2015 3.8285 0.45699999 2
19.286501 3.8145001 0.44499999 2
19.3325 3.8785 0.43399999 2
19.1945 3.7955 0.46000001 2
19.220501 3.8255 0.454 2
19.185499 3.7955 0.46200001 2
19.282499 3.8295 0.44499999 2
19.175501 3.7704999 0.465 2
19.2925 3.7995 0.44499999 2
19.199499 3.8025 0.45899999 2
19.3055 3.8245001 0.442 2
19.2185 3.7744999 0.458 2
19.328501 3.8755 0.435 2
19.2565 3.7635 0.45300001 2
19.1695 3.7715001 0.46599999 2
19.1565 3.7965 0.46599999 2
19.3165 3.8475001 0.43900001 2
19.175501 3.8074999 0.46200001 2
19.293501 3.8594999 0.44100001 2
19.2665 3.8204999 0.44800001 2
19.286501 3.8225 0.44499999 2
19.1705 3.7704999 0.465 2
19.2565 3.8345001 0.44800001 2
19.341499 3.8975 0.43099999 2
19.2855 3.8085001 0.44600001 2
19.261499 3.8334999 0.44800001 2
19.1675 3.7735 0.46599999 2
19.2565 3.7945001 0.45100001 2
19.262501 3.7735 0.45199999 2
19.1425 3.7655001 0.47 2
19.144501 3.7995 0.46700001 2
19.245501 3.7934999 0.45300001 2
19.331499 3.8764999 0.43399999 2
19.2265 3.7844999 0.456 2
19.1425 3.7585001 0.47 2
19.282499 3.8355 0.44400001 2
19.2225 3.8145001 0.45500001 2
19.231501 3.7605 0.45699999 2
19.2635 3.8445001 0.447 2
19.1975 3.7685001 0.46200001 2
19.2805 3.8415 0.44400001 2
19.210501 3.7925 0.458 2
19.261499 3.8115001 0.449 2
19.2355 3.7974999 0.454 2
19.231501 3.7585001 0.45699999 2
19.307501 3.8415 0.44 2
19.237499 3.8415 0.45100001 2
19.2875 3.8025 0.44600001 2
19.2635 3.7555001 0.45300001 2
19.3325 3.8745 0.43399999 2
19.252501 3.7585001 0.454 2
19.2125 3.7495 0.461 2
19.247499 3.8004999 0.45199999 2
19.2145 3.8245001 0.45500001 2
19.192499 3.7755001 0.46200001 2
19.195499 3.8285 0.458 2
19.3305 3.8845 0.43399999 2
19.327499 3.8785 0.435 2
19.2435 3.7735 0.454 2
19.2575 4.0625 0.454 2
19.255501 4.0535002 0.45300001 2
19.2915 4.0904999 0.45500001 2
19.3095 4.0675001 0.45100001 2
19.2155 4.1135001 0.46399999 2
19.238501 4.0904999 0.45899999 2
19.252501 4.0914998 0.458 2
19.2925 3.9985001 0.44299999 2
19.258499 4.1364999 0.463 2
19.283501 4.0475001 0.44999999 2
19.254499 4.0935001 0.458 2
19.293501 4.0434999 0.449 2
19.2435 4.0995002 0.46000001 2
19.297501 4.0335002 0.447 2
19.1675 4.1415 0.47099999 2
19.317499 4.0295 0.44499999 2
19.2955 4.0454998 0.449 2
19.2195 4.1304998 0.46599999 2
19.259501 4.1075001 0.46000001 2
19.2665 4.1174998 0.46000001 2
19.1835 4.1104999 0.46599999 2
19.2915 4.0654998 0.45199999 2
19.2005 4.1345 0.46799999 2
19.2465 4.0514998 0.45300001 2
19.247499 4.0854998 0.458 2
19.227501 4.1304998 0.465 2
19.2565 4.0504999 0.45300001 2
19.1665 4.1314998 0.47 2
19.3155 4.0405002 0.447 2
19.2735 4.1155 0.46000001 2
19.1705 4.1314998 0.47 2
19.2885 4.0314999 0.44800001 2
19.1915 4.1224999 0.46700001 2
19.3465 3.9535 0.433 2
19.2915 4.1164999 0.458 2
19.224501 4.0675001 0.45699999 2
19.2885 4.0634999 0.45199999 2
19.276501 4.0654998 0.45300001 2
19.2675 4.0174999 0.447 2
19.275499 4.0054998 0.44499999 2
19.2945 4.0215001 0.44600001 2
19.2855 4.0984998 0.456 2
19.2665 4.0345001 0.44999999 2
19.2285 4.0795002 0.458 2
19.223499 4.0695 0.458 2
19.224501 4.0995002 0.461 2
19.2705 4.0465002 0.45100001 2
19.320499 4.0324998 0.44499999 2
19.283501 4.1094999 0.458 2
19.3055 4.0105 0.44400001 2
19.290501 4.0914998 0.45500001 2
19.334499 3.9525001 0.43399999 2
19.317499 3.9995 0.44100001 2
19.231501 4.0755 0.458 2
19.3085 4.0454998 0.44800001 2
19.2435 4.1364999 0.465 2
19.2855 4.0384998 0.449 2
19.331499 3.9905 0.43900001 2
19.3225 3.9614999 0.43599999 2
19.2845 4.1085 0.458 2
19.3335 3.9985001 0.44 2
19.318501 4.0314999 0.44499999 2
19.1805 4.1085 0.46599999 2
19.3265 3.9655001 0.43599999 2
19.144501 4.1395001 0.47299999 2
19.1905 4.1104999 0.465 2
19.2815 4.0565 0.45100001 2
19.1625 4.1205001 0.46900001 2
19.2705 4.0685 0.454 2
19.1745 4.1424999 0.47099999 2
19.289499 3.9985001 0.44299999 2
19.3015 4.0904999 0.454 2
19.293501 4.0914998 0.45500001 2
19.283501 4.0345001 0.44800001 2
19.2995 3.9885001 0.44100001 2
19.2435 4.0764999 0.45699999 2
19.2465 4.0844998 0.458 2
19.283501 4.1094999 0.458 2
19.199499 4.1174998 0.46599999 2
19.275499 4.1005001 0.45699999 2
19.2335 4.0565 0.45500001 2
19.2435 4.0834999 0.458 2
19.3235 3.9714999 0.43700001 2
19.2505 4.0365 0.45100001 2
19.2845 4.0244999 0.447 2
19.1985 4.1285 0.46700001 2
19.303499 4.1015 0.45500001 2
19.2885 4.0945001 0.456 2
19.331499 4.0135002 0.442 2
19.268499 4.1314998 0.46200001 2
19.310499 4.0634999 0.44999999 2
19.223499 4.1174998 0.46399999 2
19.185499 4.1145 0.46599999 2
19.289499 3.9905 0.442 2
19.310499 4.0365 0.447 2
19.247499 4.1314998 0.46399999 2
19.151501 4.1455002 0.47299999 2
19.282499 4.1304998 0.461 2
19.2115 4.0974998 0.46200001 2
19.307501 4.0085001 0.44299999 2
19.296499 4.0955 0.45500001 2
19.2885 4.0555 0.45100001 2
19.217501 4.0865002 0.46000001 2
19.321501 4.0254998 0.44400001 2
19.255501 4.1374998 0.46399999 2
19.1805 4.1185002 0.46700001 2
19.262501 4.0285001 0.449 2
19.217501 4.0695 0.458 2
19.237499 4.1005001 0.46000001 2
19.2285 4.1415 0.46599999 2
19.2185 4.1275001 0.465 2
19.307501 4.0925002 0.454 2
19.2285 4.1275001 0.465 2
19.2845 4.1164999 0.45899999 2
19.2195 4.1034999 0.46200001 2
19.352501 3.9324999 0.43000001 2
19.283501 4.1185002 0.45899999 2
19.196501 4.1034999 0.46399999 2
19.2575 4.0885 0.45699999 2
19.1595 4.1475 0.472 2
19.189501 4.1185002 0.46700001 2
19.2665 4.0384998 0.44999999 2
19.2985 4.0504999 0.449 2
19.195499 4.1455002 0.47 2
19.206499 4.0805001 0.46000001 2
19.1775 4.1294999 0.46900001 2
19.262501 4.1185002 0.461 2
19.1845 4.1265001 0.46799999 2
19.293501 4.0025001 0.44299999 2
19.3545 3.9245 0.42899999 2
19.2885 4.1364999 0.461 2
19.290501 4.0054998 0.44400001 2
19.255501 4.1345 0.463 2
19.2925 4.0275002 0.447 2
19.303499 4.0995002 0.45500001 2
19.324499 3.9625001 0.43599999 2
19.165501 4.1265001 0.46900001 2
19.2575 4.0914998 0.458 2
19.179501 4.1094999 0.46599999 2
19.259501 4.0704999 0.45500001 2
19.2635 4.0764999 0.45500001 2
19.3295 3.9814999 0.43799999 2
19.3195 3.9595001 0.43599999 2
19.2285 4.1364999 0.46599999 2
19.324499 3.9565001 0.435 2
19.269501 4.1345 0.46200001 2
19.321501 4.0395002 0.44600001 2
19.3195 4.0405002 0.44600001 2
19.290501 4.0805001 0.454 2
19.261499 4.1015 0.45899999 2
19.2125 4.1065001 0.463 2
19.2885 4.1345 0.461 2
19.279499 4.0355 0.449 2
19.2675 4.0755 0.45500001 2
19.3095 4.0545001 0.449 2
19.2075 4.0854998 0.461 2
19.272499 4.0425 0.44999999 2
19.2365 4.1215 0.463 2
19.3055 4.0355 0.447 2
19.175501 4.1265001 0.46900001 2
19.1665 4.1415 0.47099999 2
19.328501 4.0165 0.44299999 2
19.3335 3.9545 0.43399999 2
19.279499 4.0054998 0.44499999 2
19.2955 4.0384998 0.44800001 2
19.290501 4.1374998 0.461 2
19.2885 4.0634999 0.45199999 2
19.3095 4.0685 0.45100001 2
19.3435 3.9554999 0.43399999 2
19.2745 4.1224999 0.46000001 2
19.306499 3.9944999 0.44100001 2
19.1975 4.1345 0.46799999 2
19.2785 4.0135002 0.44600001 2
19.2665 4.0335002 0.44999999 2
19.2985 4.0935001 0.45500001 2
19.2285 4.1224999 0.46399999 2
19.2805 4.0755 0.454 2
19.220501 4.0665002 0.45699999 2
19.393499 3.7025001 0.472 2
19.428499 3.6835001 0.46900001 2
19.356501 3.6984999 0.45699999 2
19.3375 3.7054999 0.456 2
19.379499 3.6905 0.458 2
19.3435 3.7084999 0.461 2
19.2805 3.7275 0.45500001 2
19.293501 3.7275 0.45899999 2
19.2705 3.7314999 0.45500001 2
19.304501 3.7214999 0.45899999 2
19.355499 3.6824999 0.44299999 2
19.369499 3.7025001 0.46399999 2
19.3375 3.7125001 0.46200001 2
19.3265 3.7005 0.449 2
19.3435 3.7095001 0.461 2
19.438499 3.6905 0.47799999 2
19.3295 3.7184999 0.46399999 2
19.4175 3.6905 0.47099999 2
19.379499 3.6954999 0.46200001 2
19.3785 3.6675 0.44 2
19.370501 3.6835001 0.44999999 2
19.4025 3.6695001 0.449 2
19.380501 3.6854999 0.45500001 2
19.349501 3.6965001 0.45300001 2
19.356501 3.7025001 0.46000001 2
19.386499 3.6724999 0.44600001 2
19.4205 3.6965001 0.477 2
19.3675 3.6925001 0.456 2
19.2955 3.7235 0.45699999 2
19.4265 3.6835001 0.46799999 2
19.3195 3.7065001 0.45100001 2
19.4195 3.6945 0.47499999 2
19.320499 3.7084999 0.45300001 2
19.3575 3.6945 0.454 2
19.3405 3.7035 0.45500001 2
19.4415 3.6905 0.479 2
19.369499 3.7065001 0.46799999 2
19.377501 3.6684999 0.44 2
19.3335 3.7084999 0.458 2
19.3055 3.7165 0.45500001 2
19.356501 3.6984999 0.45699999 2
19.352501 3.6895001 0.44800001 2
19.3985 3.6735001 0.45100001 2
19.3925 3.6835001 0.45699999 2
19.3785 3.6695001 0.44100001 2
19.3605 3.6945 0.45500001 2
19.3085 3.7145 0.454 2
19.320499 3.7145 0.458 2
19.397499 3.6705 0.44800001 2
19.3325 3.7035 0.45300001 2
19.3195 3.7095001 0.454 2
19.3825 3.6975 0.465 2
19.3855 3.6715 0.44499999 2
19.3955 3.7135 0.47099999 2
19.379499 3.7375 0.465 2
19.3995 3.7095001 0.472 2
19.4375 3.7314999 0.47099999 2
19.4095 3.7255001 0.47 2
19.3785 3.7095001 0.47 2
19.314501 3.7474999 0.458 2
19.377501 3.7605 0.46000001 2
19.3365 3.7325001 0.46200001 2
19.341499 3.7314999 0.463 2
19.422501 3.7005 0.47600001 2
19.3955 3.7625 0.461 2
19.3825 3.7544999 0.46200001 2
19.3465 3.7284999 0.46399999 2
19.4135 3.7365 0.46799999 2
19.3645 3.7165 0.46799999 2
19.282499 3.7355001 0.458 2
19.3645 3.7505 0.461 2
19.432501 3.7295001 0.47099999 2
19.3745 3.7325001 0.46599999 2
19.345501 3.7414999 0.46200001 2
19.373501 3.7235 0.46700001 2
19.3225 3.7455001 0.45899999 2
19.356501 3.7145 0.46799999 2
19.373501 3.7465 0.463 2
19.4335 3.7035 0.47600001 2
19.4095 3.7385001 0.46700001 2
19.3785 3.7574999 0.461 2
19.327499 3.7465 0.45899999 2
19.4375 3.7205 0.47299999 2
19.3475 3.7414999 0.46200001 2
19.338499 3.7184999 0.465 2
19.3675 3.7444999 0.463 2
19.429501 3.6975 0.477 2
19.318501 3.7395 0.46000001 2
19.331499 3.7195001 0.465 2
19.334499 3.7205 0.465 2
19.2785 3.7355001 0.45699999 2
19.3615 3.7375 0.46399999 2
19.348499 3.7395 0.46200001 2
19.3825 3.7195001 0.46900001 2
19.425501 3.7155001 0.47299999 2
19.3165 3.7385001 0.46000001 2
19.4195 3.7665 0.463 2
19.3965 3.7565 0.463 2
19.307501 3.7395 0.45899999 2
19.3815 3.7455001 0.46399999 2
19.369499 3.7235 0.46700001 2
19.3055 3.7405 0.458 2
19.436501 3.7715001 0.463 2
19.3825 3.7365 0.46599999 2
19.369499 3.7605 0.46000001 2
19.4235 3.7344999 0.46900001 2
19.407499 3.7625 0.46200001 2
19.4305 3.7735 0.46200001 2
19.3745 3.7175 0.46900001 2
19.394501 3.7474999 0.46399999 2
19.431499 3.7555001 0.46599999 2
19.2945 3.7355001 0.458 2
19.327499 3.7414999 0.46000001 2
19.436501 3.7485001 0.46799999 2
19.4415 3.7155001 0.47499999 2
19.356501 3.7184999 0.46700001 2
19.3305 3.7225001 0.46399999 2
19.383499 3.7395 0.465 2
19.4245 3.7365 0.46900001 2
19.4195 3.7255001 0.47099999 2
19.3615 3.7214999 0.46700001 2
19.4265 3.7544999 0.465 2
19.3085 3.7395 0.45899999 2
19.4205 3.7045 0.47499999 2
19.379499 3.7165 0.46900001 2
19.422501 3.7084999 0.47400001 2
19.342501 3.7175 0.46599999 2
19.372499 3.7205 0.46799999 2
19.3575 3.7444999 0.46200001 2
19.3855 3.7585001 0.461 2
19.2915 3.7385001 0.458 2
19.3305 3.7365 0.461 2
19.359501 3.8675001 0.43700001 2
19.3545 3.8125 0.44800001 2
19.425501 3.7934999 0.458 2
19.397499 3.8355 0.44600001 2
19.387501 3.7955 0.454 2
19.341499 3.8195 0.44499999 2
19.318501 3.8304999 0.44100001 2
19.3745 3.8415 0.44299999 2
19.362499 3.8745 0.43599999 2
19.306499 3.8185 0.442 2
19.286501 3.7674999 0.45100001 2
19.3715 3.7934999 0.45300001 2
19.349501 3.8594999 0.43799999 2
19.377501 3.8615 0.44 2
19.3225 3.7915001 0.449 2
19.3995 3.8455 0.44499999 2
19.372499 3.8175001 0.44800001 2
19.3685 3.8935001 0.43200001 2
19.3895 3.8055 0.45199999 2
19.3155 3.8345001 0.44 2
19.2845 3.7655001 0.45100001 2
19.3585 3.7985001 0.45100001 2
19.394501 3.7774999 0.458 2
19.300501 3.8034999 0.44499999 2
19.386499 3.7685001 0.45899999 2
19.386499 3.8225 0.44800001 2
19.369499 3.7825 0.45500001 2
19.3985 3.8045001 0.45300001 2
19.370501 3.7744999 0.45699999 2
19.338499 3.8664999 0.435 2
19.393499 3.7755001 0.45899999 2
19.370501 3.8835001 0.43399999 2
19.3435 3.8575001 0.43799999 2
19.3615 3.8164999 0.447 2
19.422501 3.7865 0.45899999 2
19.3505 3.8065 0.449 2
19.404499 3.8334999 0.447 2
19.334499 3.7985001 0.449 2
19.429501 3.7865 0.45899999 2
19.3645 3.8275001 0.44600001 2
19.338499 3.8264999 0.44299999 2
19.407499 3.8275001 0.449 2
19.4195 3.7804999 0.46000001 2
19.3405 3.7765 0.454 2
19.3855 3.8295 0.447 2
19.3225 3.7715001 0.45300001 2
19.3435 3.7795 0.45300001 2
19.3715 3.8355 0.44400001 2
19.2995 3.7925 0.447 2
19.355499 3.7765 0.45500001 2
19.272499 3.7444999 0.45500001 2
19.348499 3.8334999 0.44299999 2
19.3615 3.9015 0.43000001 2
19.397499 3.8434999 0.44499999 2
19.411501 3.7725 0.461 2
19.341499 3.8585 0.43700001 2
19.283501 3.7465 0.45500001 2
19.348499 3.8164999 0.44600001 2
19.400499 3.8425 0.44499999 2
19.3165 3.8015001 0.447 2
19.3445 3.8845 0.43200001 2
19.314501 3.7974999 0.447 2
19.3375 3.8715 0.43399999 2
19.370501 3.8164999 0.44800001 2
19.3265 3.8395 0.44 2
19.411501 3.7885001 0.45699999 2
19.3475 3.7965 0.44999999 2
19.4065 3.7874999 0.45699999 2
19.3685 3.9005001 0.43099999 2
19.303499 3.7555001 0.45500001 2
19.300501 3.8085001 0.44400001 2
19.373501 3.7844999 0.45500001 2
19.429501 3.7925 0.458 2
19.2875 3.7585001 0.45300001 2
19.272499 3.7544999 0.45300001 2
19.4065 3.8155 0.45100001 2
19.379499 3.7795 0.45699999 2
19.383499 3.8445001 0.44400001 2
19.380501 3.8655 0.43900001 2
19.4055 3.8055 0.45300001 2
19.3475 3.8864999 0.43200001 2
19.2995 3.7825 0.449 2
19.331499 3.8115001 0.44600001 2
19.387501 3.8575001 0.44100001 2
19.3435 3.8585 0.43700001 2
19.380501 3.8805001 0.43599999 2
19.3955 3.8015001 0.45300001 2
19.3995 3.7674999 0.461 2
19.3265 3.8104999 0.44600001 2
19.338499 3.7585001 0.45699999 2
19.3155 3.8255 0.442 2
19.3505 3.8824999 0.433 2
19.386499 3.7685001 0.46000001 2
19.355499 3.7785001 0.45500001 2
19.4055 3.8315001 0.44800001 2
19.362499 3.8375001 0.44299999 2
19.3435 3.7804999 0.45300001 2
19.3675 3.8625 0.43900001 2
19.331499 3.8425 0.44 2
19.355499 3.7885001 0.45300001 2
19.362499 3.8475001 0.44100001 2
19.3445 3.8264999 0.44400001 2
19.342501 3.8345001 0.442 2
19.355499 3.8525 0.43900001 2
19.304501 3.8085001 0.44400001 2
19.356501 3.8464999 0.44100001 2
19.394501 3.7825 0.45699999 2
19.383499 3.7915001 0.454 2
19.3925 3.8185 0.44999999 2
19.377501 3.8675001 0.43799999 2
19.334499 3.7744999 0.454 2
19.307501 3.7804999 0.44999999 2
19.428499 3.7735 0.46200001 2
19.387501 3.8295 0.447 2
19.334499 3.7605 0.45699999 2
19.390499 3.8505001 0.44299999 2
19.314501 3.8204999 0.44299999 2
19.369499 3.8494999 0.44100001 2
19.3915 3.8395 0.44499999 2
19.3755 3.7844999 0.45500001 2
19.3825 3.8585 0.44 2
19.418501 3.7844999 0.45899999 2
19.289499 3.7795 0.449 2
19.3535 3.8155 0.447 2
19.311501 3.8034999 0.44600001 2
19.3225 3.7985001 0.44800001 2
19.3715 3.8494999 0.442 2
19.3745 3.7795 0.456 2
19.3815 3.7895 0.45500001 2
19.411501 3.8195 0.45100001 2
19.376499 3.7655001 0.45899999 2
19.348499 3.8905001 0.43099999 2
19.363501 3.8545001 0.44 2
19.373501 3.7744999 0.45699999 2
19.3885 3.8025 0.45300001 2
19.3825 3.8505001 0.442 2
19.3445 3.8635001 0.43599999 2
19.3885 3.7865 0.456 2
19.3675 3.7795 0.45500001 2
19.327499 3.7915001 0.44999999 2
19.3305 3.8275001 0.44299999 2
19.386499 3.8615 0.44 2
19.317499 3.7505 0.45699999 2
19.379499 3.7915001 0.454 2
19.3225 3.7585001 0.456 2
19.310499 3.8125 0.44400001 2
19.3515 3.8245001 0.44499999 2
19.432501 3.8815 0.45300001 2
19.4575 3.8924999 0.461 2
19.3885 3.8794999 0.43799999 2
19.400499 3.8764999 0.44299999 2
19.4405 3.8385 0.45899999 2
19.438499 3.9445 0.45100001 2
19.4335 3.8295 0.45699999 2
19.4405 3.8655 0.45699999 2
19.3755 3.9115 0.43200001 2
19.449499 3.9795001 0.45300001 2
19.445499 3.8915 0.45699999 2
19.445499 3.8785 0.458 2
19.435499 3.9605 0.449 2
19.4785 3.9925001 0.46200001 2
19.4545 3.8805001 0.461 2
19.4205 3.8864999 0.449 2
19.436501 3.8004999 0.46000001 2
19.4555 3.8815 0.461 2
19.446501 3.9175 0.456 2
19.408501 3.8794999 0.44499999 2
19.411501 3.8405001 0.449 2
19.3925 3.8885 0.43900001 2
19.449499 3.9625001 0.454 2
19.3925 3.8835001 0.43900001 2
19.422501 3.9195001 0.447 2
19.425501 3.9124999 0.449 2
19.4195 3.8334999 0.45199999 2
19.386499 3.9215 0.435 2
19.4475 3.9254999 0.456 2
19.4175 3.8985 0.447 2
19.439501 3.9085 0.454 2
19.3965 3.8664999 0.442 2
19.421499 3.8555 0.45100001 2
19.4035 3.8564999 0.44499999 2
19.401501 3.9235001 0.44 2
19.4415 3.8705001 0.45699999 2
19.4175 3.9454999 0.44400001 2
19.456499 3.9215 0.45899999 2
19.4205 3.9105 0.447 2
19.421499 3.9235001 0.447 2
19.429501 3.8225 0.456 2
19.446501 3.9054999 0.45699999 2
19.4305 3.8434999 0.45500001 2
19.456499 3.8924999 0.461 2
19.4265 3.8605001 0.45199999 2
19.4445 3.9205 0.45500001 2
19.3925 3.8864999 0.43900001 2
19.456499 3.8745 0.46200001 2
19.439501 3.7774999 0.46200001 2
19.436501 3.8475001 0.45699999 2
19.425501 3.8445001 0.45300001 2
19.4125 3.9124999 0.44400001 2
19.428499 3.9405 0.44800001 2
19.449499 3.9354999 0.456 2
19.4485 3.9224999 0.456 2
19.431499 3.9475 0.449 2
19.449499 3.9045 0.458 2
19.4345 3.9595001 0.449 2
19.4545 3.9595001 0.456 2
19.3925 3.8685 0.44 2
19.4025 3.9454999 0.43900001 2
19.4405 3.8635001 0.45699999 2
19.446501 3.8334999 0.461 2
19.408501 3.8485 0.447 2
19.4555 3.9445 0.45699999 2
19.4645 3.9844999 0.458 2
19.414499 3.8994999 0.44600001 2
19.4475 3.9035001 0.45699999 2
19.436501 3.8104999 0.45899999 2
19.439501 3.9035001 0.454 2
19.432501 3.9645 0.44800001 2
19.4025 3.9135001 0.44100001 2
19.431499 3.8364999 0.456 2
19.4575 3.9105 0.46000001 2
19.466499 3.9614999 0.46000001 2
19.4105 3.8464999 0.44800001 2
19.4305 3.8355 0.456 2
19.373501 3.8994999 0.43200001 2
19.414499 3.9445 0.44299999 2
19.429501 3.8564999 0.454 2
19.4335 3.8304999 0.45699999 2
19.428499 3.8225 0.456 2
19.4685 3.9705 0.46000001 2
19.393499 3.9024999 0.43900001 2
19.4345 3.9354999 0.44999999 2
19.4415 3.7945001 0.46200001 2
19.4165 3.9445 0.44400001 2
19.4245 3.8775001 0.45100001 2
19.4205 3.8234999 0.45300001 2
19.4305 3.8405001 0.45500001 2
19.4505 3.9705 0.454 2
19.4195 3.9565001 0.44400001 2
19.4445 3.8824999 0.45699999 2
19.4515 3.9035001 0.45899999 2
19.4235 3.8145001 0.45500001 2
19.4505 3.8475001 0.46200001 2
19.377501 3.8915 0.43399999 2
19.4235 3.9245 0.447 2
19.431499 3.8885 0.45300001 2
19.4245 3.8625 0.45199999 2
19.443501 3.8555 0.45899999 2
19.3825 3.9045 0.435 2
19.439501 3.9275 0.45300001 2
19.446501 3.8464999 0.46000001 2
19.438499 3.9145 0.45300001 2
19.414499 3.8715 0.44800001 2
19.4125 3.8434999 0.449 2
19.3925 3.9354999 0.43599999 2
19.4505 3.9105 0.458 2
19.4575 3.9035001 0.46000001 2
19.425501 3.9365001 0.447 2
19.4205 3.8875 0.449 2
19.4165 3.8405001 0.44999999 2
19.422501 3.9414999 0.44600001 2
19.414499 3.8625 0.44800001 2
19.439501 3.8455 0.458 2
19.4245 3.9175 0.44800001 2
19.456499 3.9655001 0.456 2
19.4405 3.8215001 0.46000001 2
19.4475 3.9265001 0.456 2
19.362499 3.9154999 0.42699999 2
19.452499 3.9565001 0.45500001 2
19.394501 3.8775001 0.44100001 2
19.3815 3.8975 0.435 2
19.4065 3.9695001 0.44400001 2
19.366501 4.0324998 0.45100001 2
19.352501 4.0285001 0.44800001 2
19.331499 4.0145001 0.442 2
19.3825 3.9795001 0.44299999 2
19.438499 4.0235 0.46000001 2
19.3255 4.0444999 0.447 2
19.3885 3.9605 0.44 2
19.4165 3.9645 0.44499999 2
19.356501 4.0595002 0.45500001 2
19.3605 3.9684999 0.43700001 2
19.3925 3.9875 0.44600001 2
19.317499 4.0714998 0.45100001 2
19.463499 3.9914999 0.45699999 2
19.362499 3.9554999 0.435 2
19.3295 4.0885 0.456 2
19.383499 4.0114999 0.449 2
19.3605 4.0844998 0.46000001 2
19.4505 3.9895 0.45500001 2
19.331499 4.0865002 0.456 2
19.369499 4.0384998 0.45199999 2
19.4335 4.0085001 0.456 2
19.4135 3.9844999 0.44800001 2
19.366501 4.0064998 0.44600001 2
19.373501 3.9605 0.43799999 2
19.4135 3.9875 0.449 2
19.4105 3.9855001 0.44800001 2
19.436501 4.0235 0.46000001 2
19.438499 4.0244999 0.46000001 2
19.4275 4.0165 0.45699999 2
19.328501 4.1044998 0.46000001 2
19.4175 4.0434999 0.461 2
19.3885 4.0444999 0.45699999 2
19.3445 3.9914999 0.43900001 2
19.4105 3.9705 0.44499999 2
19.3785 3.9974999 0.44600001 2
19.3685 4.0145001 0.44800001 2
19.4475 3.9805 0.45300001 2
19.445499 3.9784999 0.45199999 2
19.453501 4.0215001 0.46200001 2
19.4175 4.0015001 0.45199999 2
19.335501 4.0035 0.44100001 2
19.3305 4.0925002 0.45699999 2
19.3615 3.9184999 0.42699999 2
19.3885 3.9495001 0.43799999 2
19.3545 3.9795001 0.43799999 2
19.3155 4.0895 0.45500001 2
19.3575 4.0774999 0.458 2
19.3855 4.0345001 0.454 2
19.422501 4.0295 0.45899999 2
19.380501 3.9665 0.44 2
19.394501 4.0035 0.449 2
19.408501 4.0105 0.45300001 2
19.386499 3.9844999 0.44400001 2
19.3925 3.9684999 0.442 2
19.415501 3.9775 0.447 2
19.3645 3.9844999 0.44100001 2
19.3955 4.0124998 0.45100001 2
19.3745 3.9684999 0.43900001 2
19.376499 4.0745001 0.461 2
19.370501 4.0374999 0.45199999 2
19.384501 4.0044999 0.44800001 2
19.411501 3.9914999 0.449 2
19.4515 3.9814999 0.45300001 2
19.4095 4.0405002 0.45899999 2
19.3755 3.9414999 0.43399999 2
19.3515 3.9825001 0.43900001 2
19.390499 3.9825001 0.44499999 2
19.438499 4.0304999 0.461 2
19.431499 3.9705 0.44800001 2
19.356501 4.0275002 0.449 2
19.3965 4.0145001 0.45199999 2
19.397499 4.0205002 0.45300001 2
19.394501 4.0025001 0.449 2
19.3915 3.9784999 0.44400001 2
19.3895 3.9914999 0.44600001 2
19.390499 4.0085001 0.44999999 2
19.397499 4.0535002 0.46000001 2
19.3155 4.0745001 0.45199999 2
19.355499 4.0324998 0.449 2
19.3925 3.9735 0.44299999 2
19.435499 3.9905 0.45300001 2
19.3435 4.0205002 0.44499999 2
19.3955 3.9414999 0.43700001 2
19.3585 4.0205002 0.447 2
19.3785 3.9895 0.44400001 2
19.446501 3.9875 0.454 2
19.432501 3.9695001 0.44800001 2
19.3375 4.1034999 0.461 2
19.397499 4.0244999 0.454 2
19.4025 3.9925001 0.44800001 2
19.352501 4.0895 0.46000001 2
19.356501 3.9875 0.44 2
19.442499 3.9895 0.454 2
19.3715 3.9965 0.44499999 2
19.4205 3.9855001 0.44999999 2
19.386499 3.9635 0.44 2
19.4265 4.0225 0.458 2
19.352501 4.0205002 0.44600001 2
19.300501 4.1244998 0.45899999 2
19.3815 4.0384998 0.454 2
19.345501 4.0784998 0.45699999 2
19.3915 4.0405002 0.456 2
19.328501 4.0495 0.449 2
19.4415 4.0254998 0.461 2
19.372499 4.0085001 0.447 2
19.3535 4.0415001 0.45100001 2
19.400499 3.9675 0.44299999 2
19.348499 4.0425 0.44999999 2
19.3925 4.0025001 0.449 2
19.4135 4.0275002 0.45699999 2
19.320499 4.0914998 0.456 2
19.3405 4.0465002 0.44999999 2
19.4095 4.0475001 0.46000001 2
19.377501 3.9725001 0.44100001 2
19.397499 3.9855001 0.44600001 2
19.387501 4.0704999 0.461 2
19.4175 4.0005002 0.45199999 2
19.4345 4.0054998 0.456 2
19.4655 3.9995 0.45899999 2
19.3685 3.9695001 0.43900001 2
19.3785 4.0275002 0.45199999 2
19.342501 4.0295 0.447 2
19.387501 4.0605001 0.45899999 2
19.4035 4.0384998 0.458 2
19.3915 3.9885001 0.44600001 2
19.3365 4.0194998 0.44400001 2
19.3395 4.0174999 0.44400001 2
19.377501 4.0105 0.44800001 2
19.3195 4.0565 0.449 2
19.3685 3.9765 0.44 2
19.3375 4.0075002 0.442 2
19.362499 3.9725001 0.43799999 2
19.4055 4.0015001 0.45100001 2
19.373501 3.9354999 0.433 2
19.4405 4.0194998 0.45899999 2
19.3685 3.9905 0.44299999 2
19.387501 3.9665 0.44100001 2
19.386499 4.0444999 0.456 2
19.446501 4.0064998 0.458 2
19.3295 4.0335002 0.44600001 2
19.4415 4.0165 0.45899999 2
19.386499 4.0035 0.44800001 2
19.3545 3.9554999 0.43399999 2
19.3675 3.9825001 0.44100001 2
19.376499 3.9514999 0.43599999 2
19.4405 4.0194998 0.45899999 2
19.3465 4.0784998 0.45699999 2
19.387501 4.0304999 0.454 2
19.3925 4.0265002 0.454 2
19.3575 3.9744999 0.43799999 2
19.3515 4.0054998 0.44299999 2
19.3615 3.9784999 0.43900001 2
19.3375 4.0844998 0.45699999 2
19.3885 4.0514998 0.458 2
19.3465 4.0654998 0.454 2
19.4195 3.9705 0.44600001 2
19.415501 3.9775 0.447 2
19.376499 4.0735002 0.461 2
19.338499 4.0425 0.449 2
19.415501 4.0165 0.45500001 2
19.386499 3.9875 0.44499999 2
19.404499 3.9744999 0.44499999 2
19.394501 3.9505 0.43900001 2
19.4275 4.0135002 0.456 2
19.4405 3.9825001 0.45199999 2
19.355499 4.0265002 0.44800001 2
19.4065 4.0415001 0.45899999 2
19.342501 4.0574999 0.45199999 2
19.445499 3.7585001 0.461 2
19.445499 3.7035 0.47499999 2
19.449499 3.7084999 0.47 2
19.453501 3.7414999 0.45899999 2
19.453501 3.7105 0.46599999 2
19.4415 3.7644999 0.46399999 2
19.443501 3.7125001 0.47400001 2
19.442499 3.7685001 0.46200001 2
19.4505 3.7325001 0.46399999 2
19.4545 3.7214999 0.463 2
19.4645 3.7365 0.44999999 2
19.453501 3.7114999 0.465 2
19.442499 3.7425001 0.46799999 2
19.4585 3.7314999 0.45699999 2
19.4475 3.7135 0.47099999 2
19.4505 3.7284999 0.46399999 2
19.460501 3.7955 0.44600001 2
19.4715 3.8045001 0.43700001 2
19.474501 3.8104999 0.435 2
19.4515 3.7725 0.454 2
19.445499 3.7695 0.45899999 2
19.4695 3.7444999 0.44400001 2
19.456499 3.7855 0.44999999 2
19.4725 3.8104999 0.43599999 2
19.474501 3.8295 0.433 2
19.4485 3.7815001 0.456 2
19.4555 3.8015001 0.449 2
19.4695 3.8045001 0.43900001 2
19.473499 3.7934999 0.43700001 2
19.4645 3.8085001 0.442 2
19.4695 3.7865 0.44100001 2
19.4655 3.7795 0.44400001 2
19.456499 3.7904999 0.44999999 2
19.449499 3.7785001 0.45500001 2
19.4655 3.7855 0.44299999 2
19.470501 3.7414999 0.44400001 2
19.463499 3.7715001 0.44600001 2
19.494499 4.1255002 0.43799999 2
19.342501 4.1244998 0.458 2
19.422501 4.0545001 0.46000001 2
19.407499 4.0945001 0.45500001 2
19.495501 4.0595002 0.44999999 2
19.5135 4.1155 0.43700001 2
19.4645 4.0685 0.45199999 2
19.355499 4.1185002 0.45699999 2
19.3615 4.1125002 0.458 2
19.4835 4.0345001 0.456 2
19.4025 4.1195002 0.45100001 2
19.497499 4.0755 0.447 2
19.466499 4.0904999 0.44800001 2
19.4445 4.0725002 0.454 2
19.4505 4.0844998 0.45100001 2
19.3855 4.1164999 0.454 2
19.397499 4.0784998 0.45899999 2
19.452499 4.0935001 0.449 2
19.400499 4.0964999 0.456 2
19.429501 4.0434999 0.46200001 2
19.429501 4.1155 0.44800001 2
19.3815 4.1145 0.454 2
19.408501 4.0875001 0.456 2
19.3885 4.0784998 0.46000001 2
19.3405 4.1285 0.45699999 2
19.4245 4.0654998 0.458 2
19.4345 4.0654998 0.45699999 2
19.4765 4.0365 0.45699999 2
19.4765 4.0704999 0.44999999 2
19.4375 4.0885 0.45199999 2
19.3855 4.1265001 0.45199999 2
19.526501 4.1195002 0.435 2
19.484501 4.1125002 0.44100001 2
19.4785 4.0304999 0.45699999 2
19.460501 4.0384998 0.458 2
19.4195 4.0935001 0.45300001 2
19.3475 4.1055002 0.461 2
19.4165 4.0764999 0.45699999 2
19.3885 4.0704999 0.46200001 2
19.491501 4.0755 0.447 2
19.4475 4.0574999 0.45699999 2
19.453501 4.0875001 0.44999999 2
19.3575 4.1255002 0.456 2
19.494499 4.1265001 0.43799999 2
19.5035 4.0815001 0.44499999 2
19.466499 4.1044998 0.44499999 2
19.494499 4.0935001 0.44400001 2
19.470501 4.1085 0.44400001 2
19.4855 4.0285001 0.45699999 2
19.3685 4.1244998 0.454 2
19.5075 4.0675001 0.447 2
19.3995 4.1265001 0.44999999 2
19.3375 4.1335001 0.45699999 2
19.3995 4.1294999 0.449 2
19.408501 4.0755 0.458 2
19.4655 4.0995002 0.44600001 2
19.4205 4.0644999 0.45899999 2
19.397499 4.0695 0.461 2
19.4345 4.0774999 0.45500001 2
19.5065 4.0904999 0.44299999 2
19.443501 4.1185002 0.44600001 2
19.394501 4.1335001 0.449 2
19.377501 4.1325002 0.45199999 2
19.428499 4.1075001 0.44999999 2
19.335501 4.1265001 0.458 2
19.422501 4.0895 0.454 2
19.5065 4.1114998 0.43900001 2
19.3365 4.1314998 0.45699999 2
19.504499 4.1005001 0.44100001 2
19.4335 4.1104999 0.449 2
19.4025 4.1085 0.45300001 2
19.3325 4.1135001 0.461 2
19.5145 4.0885 0.442 2
19.4795 4.0254998 0.458 2
19.4415 4.1215 0.44499999 2
19.484501 4.0745001 0.44800001 2
19.4695 4.0145001 0.46200001 2
19.474501 4.0605001 0.45199999 2
19.4865 4.0434999 0.454 2
19.4305 4.1285 0.44600001 2
19.515499 4.1265001 0.435 2
19.4195 4.1244998 0.44800001 2
19.453501 4.0485001 0.45699999 2
19.394501 4.1015 0.45500001 2
19.4725 4.0935001 0.447 2
19.379499 4.0914998 0.45899999 2
19.4415 4.0345001 0.46200001 2
19.3535 4.1114998 0.45899999 2
19.494499 4.0925002 0.44400001 2
19.4725 4.1025 0.44499999 2
19.3125 4.1294999 0.461 2
19.372499 4.0895 0.46000001 2
19.4235 4.0605001 0.45899999 2
19.5305 4.1255002 0.433 2
19.491501 4.0584998 0.45100001 2
19.460501 4.0945001 0.44800001 2
19.460501 4.1285 0.442 2
19.4035 4.0764999 0.45899999 2
19.3675 4.1075001 0.458 2
19.4685 4.1185002 0.44299999 2
19.3755 4.1104999 0.456 2
19.335501 4.1104999 0.461 2
19.3715 4.0904999 0.46000001 2
19.484501 4.0165 0.45899999 2
19.4625 4.0205002 0.461 2
19.4965 4.0865002 0.44499999 2
19.411501 4.1085 0.45199999 2
19.452499 4.0314999 0.461 2
19.3995 4.0844998 0.458 2
19.383499 4.1255002 0.45199999 2
19.334499 4.1275001 0.458 2
19.5005 4.1195002 0.43799999 2
19.3515 4.1304998 0.45500001 2
19.460501 4.1114998 0.44499999 2
19.4195 4.1325002 0.44600001 2
19.3675 4.1325002 0.45300001 2
19.4835 4.0265002 0.458 2
19.467501 4.0904999 0.44800001 2
19.4405 4.0565 0.458 2
19.4765 4.0825 0.44800001 2
19.425501 4.0755 0.456 2
19.497499 4.1265001 0.43700001 2
19.4715 4.0194998 0.46000001 2
19.376499 4.1215 0.454 2
19.481501 4.0295 0.45699999 2
19.352501 4.1075001 0.46000001 2
19.4545 4.0584998 0.45500001 2
19.4375 4.0595002 0.458 2
19.390499 4.0745001 0.461 2
19.386499 4.1155 0.454 2
19.431499 4.1094999 0.449 2
19.428499 4.0555 0.45899999 2
19.459499 4.1244998 0.44299999 2
19.3825 4.0974998 0.458 2
19.3545 4.1135001 0.458 2
19.407499 4.0745001 0.458 2
19.459499 4.0565 0.45500001 2
19.480499 4.0774999 0.449 2
19.466499 4.0745001 0.45100001 2
19.470501 4.0615001 0.45300001 2
19.4165 4.0854998 0.45500001 2
19.470501 4.0335002 0.458 2
19.4245 4.0444999 0.46200001 2
19.509501 4.0974998 0.44100001 2
19.383499 4.0984998 0.45699999 2
19.400499 4.1145 0.45199999 2
19.466499 4.1285 0.44100001 2
19.463499 4.0695 0.45199999 2
19.5005 4.0865002 0.44400001 2
19.4195 4.0914998 0.454 2
19.4175 4.0774999 0.45699999 2
19.5075 4.1015 0.44100001 2
19.522499 4.1145 0.43599999 2
19.487499 4.0465002 0.45300001 2
19.4575 4.1005001 0.447 2
19.470501 4.0865002 0.44800001 2
19.432501 4.1085 0.449 2
19.495501 4.1294999 0.43599999 2
19.4345 4.1325002 0.44400001 2
19.4125 4.1374998 0.44400001 2
19.429501 4.1345 0.44299999 2
19.446501 4.1335001 0.44100001 2
19.387501 4.1395001 0.44600001 2
19.376499 4.1385002 0.449 2
19.3825 4.1355 0.44999999 2
19.4025 4.1385002 0.44400001 2
19.4035 4.1355 0.44600001 2
19.422501 4.1345 0.44400001 2
19.394501 4.1345 0.449 2
19.404499 4.1345 0.44800001 2
19.5425 3.7525001 0.456 2
19.519501 3.7744999 0.44800001 2
19.511499 3.7505 0.44999999 2
19.4935 3.7795 0.442 2
19.5375 3.7635 0.45300001 2
19.508499 3.7865 0.44400001 2
19.5105 3.7835 0.44499999 2
19.511499 3.7644999 0.44800001 2
19.4965 3.7965 0.44 2
19.4935 3.8045001 0.43799999 2
19.5205 3.7455001 0.45300001 2
19.5005 3.8085001 0.43900001 2
19.4825 3.8085001 0.435 2
19.5005 3.7574999 0.447 2
19.488501 3.8234999 0.43399999 2
19.481501 3.7985001 0.43700001 2
19.4835 3.7965 0.43700001 2
19.4965 3.8074999 0.43799999 2
19.494499 3.8145001 0.43599999 2
19.504499 3.7945001 0.442 2
19.5415 3.7474999 0.456 2
19.4925 3.7795 0.442 2
19.5275 3.7685001 0.44999999 2
19.4785 3.7514999 0.44400001 2
19.518499 3.7574999 0.44999999 2
19.4925 3.8195 0.435 2
19.4835 3.8185 0.43399999 2
19.4835 3.7735 0.44100001 2
19.487499 3.7695 0.442 2
19.480499 3.7925 0.43700001 2
19.512501 3.7474999 0.45100001 2
19.502501 3.7625 0.44600001 2
19.4995 3.7795 0.44299999 2
19.487499 3.8125 0.435 2
19.477501 3.7765 0.43900001 2
19.5005 3.7765 0.44400001 2
19.5215 3.7514999 0.45199999 2
19.505501 3.7555001 0.44800001 2
19.4995 3.7774999 0.44299999 2
19.502501 3.7744999 0.44400001 2
19.480499 3.8385 0.43000001 2
19.495501 3.7425001 0.44800001 2
19.504499 3.7995 0.44100001 2
19.511499 3.9675 0.433 2
19.495501 3.9484999 0.44 2
19.4825 3.9085 0.43900001 2
19.491501 3.9825001 0.44999999 2
19.501499 3.9885001 0.44499999 2
19.4965 3.9635 0.44299999 2
19.511499 3.9825001 0.43700001 2
19.488501 3.9914999 0.45500001 2
19.4825 3.9145 0.44 2
19.4865 3.9414999 0.44400001 2
19.495501 3.9805 0.447 2
19.519501 3.9985001 0.435 2
19.4835 3.9514999 0.449 2
19.5065 3.9974999 0.44400001 2
19.490499 3.9324999 0.43900001 2
19.515499 3.9974999 0.43799999 2
19.5175 3.9855001 0.43399999 2
19.4865 3.9614999 0.449 2
19.4895 3.9514999 0.44499999 2
19.5135 3.9755001 0.43399999 2
19.4795 3.9375 0.44800001 2
19.4895 3.9625001 0.447 2
19.480499 3.9414999 0.44800001 2
19.4995 3.9985001 0.449 2
19.501499 3.9914999 0.44600001 2
19.525499 4.0124998 0.435 2
19.4825 3.9475 0.44800001 2
19.4895 3.9795001 0.45100001 2
19.497499 3.9484999 0.43799999 2
19.491501 3.9635 0.44600001 2
19.5205 3.9885001 0.43200001 2
19.515499 3.9895 0.43599999 2
19.504499 3.9655001 0.43799999 2
19.4825 3.9895 0.458 2
19.4925 3.9554999 0.44299999 2
19.5005 3.9844999 0.44499999 2
19.480499 3.8975 0.43799999 2
19.509501 3.9684999 0.435 2
19.4835 3.9065001 0.43799999 2
19.494499 3.9475 0.44 2
19.526501 3.9965 0.43000001 2
19.4965 3.9065001 0.435 2
19.508499 3.8815 0.433 2
19.5245 3.9614999 0.43099999 2
19.4865 3.9015 0.43599999 2
19.5005 3.8965001 0.43399999 2
19.515499 3.9124999 0.43200001 2
19.5065 3.8875 0.43399999 2
19.5065 3.9375 0.433 2
19.512501 3.9175 0.433 2
19.5275 3.9865 0.43000001 2
19.511499 3.9284999 0.43200001 2
19.518499 3.9315 0.43200001 2
19.5075 3.8915 0.433 2
19.4865 3.8885 0.43599999 2
19.4925 3.9035001 0.435 2
19.494499 3.8954999 0.435 2
19.487499 3.9024999 0.43599999 2
19.5205 3.8855 0.43200001 2
