# .PCD v0.7 - Point Cloud Data file format
VERSION 0.7
FIELDS x y z label
SIZE 4 4 4 4
TYPE F F F U
COUNT 1 1 1 1
WIDTH 1768
HEIGHT 1
VIEWPOINT 0 0 0 1 0 0 0
POINTS 1768
DATA ascii
14.5745 0.87650001 1.3200001 5
14.5545 0.86549997 1.323 5
14.5665 0.87150002 1.321 5
14.5675 0.88950002 1.319 5
14.5145 0.85650003 1.326 5
14.6125 0.88849998 1.316 5
14.6045 0.87150002 1.318 5
14.5945 0.91350001 1.314 5
14.5685 0.9095 1.317 5
14.6035 0.89450002 1.316 5
14.5195 0.86049998 1.325 5
14.5545 0.9375 1.3150001 5
14.5705 0.87349999 1.321 5
14.6115 0.89649999 1.3150001 5
14.5265 0.86650002 1.324 5
14.5765 0.88050002 1.319 5
14.5175 0.85149997 1.327 5
14.5945 0.91649997 1.314 5
14.6165 0.88749999 1.316 5
14.5565 0.87849998 1.321 5
14.5455 0.87050003 1.323 5
14.5105 0.82749999 1.33 5
14.5945 0.88450003 1.318 5
14.5155 0.89349997 1.322 5
14.5615 0.92150003 1.316 5
14.6155 0.88150001 1.317 5
14.5455 0.86949998 1.323 5
14.5785 0.89649999 1.317 5
14.5905 0.88050002 1.318 5
14.5515 0.89050001 1.3200001 5
14.5165 0.88349998 1.323 5
14.5115 0.8865 1.323 5
14.6195 0.89450002 1.3150001 5
14.5565 0.91250002 1.317 5
14.5675 0.85750002 1.323 5
14.5975 0.91250002 1.314 5
14.5805 0.8915 1.318 5
14.5915 0.8915 1.317 5
14.5365 0.94749999 1.3150001 5
14.5575 0.91850001 1.316 5
14.5345 0.85549998 1.325 5
14.5755 0.89249998 1.318 5
14.5495 0.93449998 1.3150001 5
14.6145 0.88450003 1.316 5
14.5415 0.8915 1.321 5
14.5485 0.86949998 1.323 5
14.5535 0.93049997 1.3150001 5
14.5265 0.95050001 1.3150001 5
14.5495 0.93150002 1.316 5
14.5735 0.92750001 1.314 5
14.5465 0.90249997 1.319 5
14.6275 0.88950002 1.3150001 5
14.6175 0.89950001 1.314 5
14.5685 0.87949997 1.3200001 5
14.5245 0.88849998 1.322 5
14.6035 0.87150002 1.319 5
14.5235 0.88249999 1.323 5
14.5285 0.85250002 1.326 5
14.5975 0.90850002 1.3150001 5
14.5205 0.83350003 1.329 5
14.5325 0.90750003 1.319 5
14.6025 0.86650002 1.319 5
14.5685 0.90350002 1.317 5
14.6315 0.8915 1.314 5
14.5115 0.84850001 1.327 5
14.6075 0.88249999 1.317 5
14.5685 0.9325 1.314 5
14.5175 0.90149999 1.321 5
14.5745 0.87449998 1.3200001 5
14.5655 0.88349998 1.3200001 5
14.5685 0.89850003 1.318 5
14.5505 0.89249998 1.3200001 5
14.5235 0.92250001 1.318 5
14.6135 0.90249997 1.314 5
14.5415 0.90149999 1.319 5
14.5965 0.88050002 1.318 5
14.6175 0.87349999 1.317 5
14.5655 0.91250002 1.317 5
14.5485 0.86849999 1.323 5
14.5455 0.90750003 1.319 5
14.5365 0.92549998 1.317 5
14.5385 0.8545 1.325 5
14.5695 0.90750003 1.317 5
14.5765 0.91850001 1.3150001 5
14.5225 0.86049998 1.325 5
14.5115 0.88849998 1.323 5
14.5225 0.9515 1.3150001 5
14.5775 0.89249998 1.318 5
14.5945 0.86849999 1.319 5
14.5195 0.86949998 1.325 5
14.6355 0.88849998 1.314 5
14.5355 0.88849998 1.321 5
14.5705 0.87349999 1.321 5
14.5155 0.85949999 1.326 5
14.5975 0.88150001 1.318 5
14.5605 0.88950002 1.3200001 5
14.5205 0.93049997 1.318 5
14.5085 0.86049998 1.326 5
14.5495 0.95950001 1.304 5
14.6065 0.9465 1.288 5
14.5445 0.94950002 1.313 5
14.6115 0.95349997 1.281 5
14.6295 0.92049998 1.296 5
14.5695 0.9325 1.314 5
14.5885 0.94849998 1.294 5
14.5845 0.95950001 1.288 5
14.6315 0.91549999 1.298 5
14.6205 0.9465 1.281 5
14.6085 0.9095 1.313 5
14.5945 0.91750002 1.313 5
14.5685 0.94849998 1.303 5
14.6025 0.91549999 1.311 5
14.5705 0.95950001 1.294 5
14.5465 0.95550001 1.308 5
14.5735 0.93449998 1.311 5
14.6095 0.92250001 1.303 5
14.5575 0.9425 1.312 5
14.5965 0.94050002 1.296 5
14.6195 0.93049997 1.293 5
14.6035 0.91250002 1.313 5
14.6255 0.92049998 1.298 5
14.5665 0.94050002 1.3099999 5
14.5965 0.93650001 1.299 5
14.5925 0.92250001 1.311 5
14.5705 0.94150001 1.307 5
14.6335 0.89349997 1.313 5
14.6005 0.93550003 1.298 5
14.5895 0.93650001 1.302 5
14.6225 0.93449998 1.289 5
14.5825 0.93650001 1.3049999 5
14.5895 0.95950001 1.286 5
14.6005 0.95749998 1.283 5
14.5925 0.92049998 1.313 5
14.6085 0.95749998 1.279 5
14.6165 0.95850003 1.275 5
14.5505 0.95749998 1.3049999 5
14.5655 0.94550002 1.307 5
14.5875 0.94050002 1.3 5
14.5335 0.95850003 1.311 5
14.6205 0.91649997 1.303 5
14.5585 0.9425 1.312 5
14.5795 0.9375 1.306 5
14.5935 0.95349997 1.289 5
14.6325 0.93049997 1.288 5
14.5815 0.92549998 1.313 5
14.6125 0.92549998 1.3 5
14.5955 0.94349998 1.295 5
14.5785 0.9375 1.307 5
14.5895 0.9425 1.298 5
14.6315 0.8265 1.312 5
14.6215 0.83350003 1.313 5
14.6375 0.81550002 1.314 5
14.6225 0.83149999 1.314 5
14.6355 0.81950003 1.313 5
14.6275 0.83149999 1.312 5
14.6205 0.83749998 1.312 5
14.6415 0.82349998 1.308 5
14.6485 0.82249999 1.3049999 5
14.6425 0.8265 1.307 5
14.6395 0.82249999 1.3099999 5
14.6615 0.91949999 1.3049999 5
14.6425 0.90549999 1.303 5
14.6545 0.90249997 1.3099999 5
14.6415 0.9285 1.2920001 5
14.6295 0.95249999 1.275 5
14.6585 0.91350001 1.306 5
14.6475 0.8955 1.3099999 5
14.6485 0.90450001 1.306 5
14.6485 0.89850003 1.309 5
14.6455 0.91250002 1.301 5
14.6555 0.90649998 1.309 5
14.6435 0.90750003 1.302 5
14.6285 0.95450002 1.274 5
14.6455 0.9285 1.294 5
14.6385 0.92449999 1.2920001 5
14.5885 1.0425 2.1440001 5
14.5785 1.0415 2.1429999 5
14.5745 1.0415 2.142 5
14.5705 1.0405 2.1500001 5
14.5775 1.0415 2.1459999 5
14.6755 1.0415 2.1500001 5
14.6715 1.0434999 2.1530001 5
14.9895 1.0265 0.73199999 5
14.9645 1.0535001 0.73400003 5
14.9815 1.0095 0.72799999 5
15.0085 0.99949998 0.72799999 5
14.9585 1.0605 0.73500001 5
14.9895 1.0085 0.72899997 5
15.0005 1.0055 0.72899997 5
14.9795 1.0235 0.73000002 5
15.0095 1.0055 0.72899997 5
14.9715 1.0385 0.73199999 5
14.9895 1.0125 0.72899997 5
15.0155 1.0025001 0.72899997 5
14.9725 1.0215 0.73000002 5
15.0115 1.0005 0.72899997 5
14.9945 1.0135 0.73000002 5
15.0035 1.0135 0.73000002 5
15.0035 1.0005 0.72799999 5
14.9905 1.0525 0.736 5
14.9995 1.0555 0.73799998 5
15.0265 1.0055 0.73100001 5
14.9705 1.0605 0.736 5
15.0035 1.0525 0.73699999 5
14.9855 1.0434999 0.73400003 5
15.0335 1.0225 0.73400003 5
15.0515 1.0434999 0.74000001 5
15.0375 1.0425 0.73900002 5
15.0155 1.0535001 0.73900002 5
15.0075 1.0434999 0.736 5
15.0215 1.0215 0.73299998 5
15.0395 1.0225 0.73500001 5
15.0505 1.0325 0.73799998 5
15.0165 1.0235 0.73299998 5
14.9985 1.0425 0.73500001 5
15.0165 1.0095 0.73100001 5
15.0435 1.0415 0.73900002 5
15.0155 1.0105 0.73100001 5
15.0095 1.0355 0.73500001 5
15.0375 1.0395 0.73799998 5
15.0245 1.0515 0.73900002 5
14.9715 1.0645 0.73699999 5
14.9665 1.0595 0.736 5
14.9785 1.0585001 0.736 5
15.0475 1.0345 0.73799998 5
15.0335 1.0395 0.73799998 5
15.0125 1.0255001 0.73299998 5
15.0185 1.0275 0.73400003 5
15.0145 1.0505 0.73799998 5
15.0095 1.0305001 0.73400003 5
15.0045 1.0434999 0.736 5
15.0215 1.0035 0.73000002 5
15.0505 1.0265 0.73699999 5
15.0135 1.0225 0.73299998 5
15.0555 1.0355 0.73900002 5
14.9915 1.0365 0.73400003 5
15.0635 1.0714999 0.75300002 5
14.9655 1.0695 0.73799998 5
15.0615 1.0535001 0.745 5
14.9925 1.0595 0.73799998 5
15.0825 1.0775 0.759 5
15.0865 1.0845 0.76300001 5
14.9835 1.0645 0.73900002 5
14.9765 1.0735 0.74199998 5
14.9775 1.0735 0.74199998 5
14.9965 1.0605 0.73900002 5
15.0305 1.0705 0.74800003 5
15.0695 1.0615 0.75 5
15.0835 1.0495 0.74699998 5
15.0375 1.0795 0.75300002 5
15.0835 1.0625 0.75300002 5
15.0565 1.0455 0.741 5
15.0675 1.0725 0.755 5
15.0875 1.0785 0.75999999 5
15.0805 1.0815001 0.76099998 5
15.0155 1.0565 0.74000001 5
15.0225 1.0675 0.74599999 5
14.9985 1.0625 0.74000001 5
15.0085 1.0725 0.74599999 5
15.0845 1.0875 0.764 5
15.0505 1.0735 0.75300002 5
15.0805 1.0795 0.75999999 5
15.0485 1.0625 0.74699998 5
15.0965 1.0855 0.76499999 5
15.0265 1.0785 0.75099999 5
15.0045 1.0775 0.74800003 5
15.0995 1.0905 0.76800001 5
14.9885 1.0725 0.74299997 5
15.0605 1.0755 0.755 5
15.0225 1.0595 0.74199998 5
15.0815 1.0855 0.76300001 5
15.0705 1.0845 0.76099998 5
15.0305 1.0775 0.75099999 5
15.0765 1.0725 0.75599998 5
15.0835 1.0505 0.74699998 5
15.0395 1.0725 0.75099999 5
15.0465 1.0765001 0.75300002 5
14.9995 1.0685 0.74299997 5
15.0545 1.0545 0.745 5
15.0835 1.0625 0.75300002 5
15.0015 1.0735 0.745 5
15.0595 1.0835 0.16500001 5
15.0425 1.0805 0.164 5
15.0775 1.0795 0.16599999 5
15.0965 1.0714999 0.168 5
15.0825 1.0755 0.167 5
15.1205 1.0825 0.168 5
15.0645 1.0765001 0.16599999 5
15.0385 1.0795 0.164 5
15.1105 1.0725 0.168 5
15.0515 1.0825 0.164 5
15.1215 1.0835 0.168 5
15.0925 1.0845 0.16599999 5
15.0775 1.0725 0.167 5
15.0955 1.0795 0.167 5
15.0705 0.82749999 2.1489999 5
15.1705 0.8125 2.1400001 5
15.1265 0.81349999 2.1429999 5
15.1935 0.8175 2.1400001 5
15.1735 0.81449997 2.141 5
15.1165 0.82349998 2.1459999 5
15.1495 0.82749999 2.145 5
15.0855 0.83149999 2.1500001 5
15.1395 0.82550001 2.145 5
15.1605 0.8265 2.1440001 5
15.1665 0.82450002 2.1440001 5
15.1305 0.83649999 2.148 5
15.0485 0.82349998 2.1500001 5
15.1545 0.8265 2.145 5
15.1265 0.81650001 2.1440001 5
15.1525 0.81950003 2.1429999 5
15.1175 0.8405 2.1500001 5
15.1865 0.8175 2.141 5
15.0905 0.82249999 2.1470001 5
15.0945 0.8175 2.1459999 5
15.1455 0.82849997 2.1459999 5
15.1585 0.8175 2.142 5
15.1305 0.83249998 2.148 5
15.0735 0.82249999 2.148 5
15.1005 0.83350003 2.1489999 5
15.1075 0.8265 2.1470001 5
15.1165 0.82050002 2.145 5
15.0785 0.82550001 2.148 5
15.1265 0.90549999 2.132 5
15.1015 0.88749999 2.1359999 5
15.1235 0.91350001 2.125 5
15.1125 0.89050001 2.1370001 5
15.1305 0.91250002 2.1289999 5
15.1055 0.88450003 2.1389999 5
15.1055 0.89649999 2.131 5
15.1085 0.88249999 2.141 5
15.1295 0.9095 2.131 5
15.1125 0.8915 2.1370001 5
15.1735 1.0785 0.168 5
15.1765 1.0775 0.168 5
15.1545 1.0745 0.168 5
15.1915 1.0845 0.168 5
15.2005 1.0835 0.168 5
15.2105 1.0835 0.168 5
15.1735 1.0765001 0.168 5
15.1585 1.0714999 0.168 5
15.1615 1.0825 0.168 5
15.1765 1.0845 0.168 5
15.1875 1.0765001 0.168 5
15.2185 1.0835 0.168 5
15.1135 1.0664999 0.169 5
15.1725 1.0535001 0.745 5
15.2885 1.0845 0.76099998 5
15.2095 1.0625 0.75 5
15.2245 1.0695 0.75400001 5
15.2025 1.0635 0.75099999 5
15.1645 1.0465 0.73900002 5
15.1945 1.0555 0.74400002 5
15.1865 1.0505 0.741 5
15.1265 1.0395 0.73799998 5
15.1795 1.0545 0.74599999 5
15.1935 1.0585001 0.74699998 5
15.1515 1.0434999 0.73900002 5
15.2335 1.0675 0.75099999 5
15.2005 1.0575 0.74599999 5
15.2095 1.0585001 0.745 5
15.1545 1.0484999 0.74299997 5
15.1495 1.0475 0.74199998 5
15.1945 1.0535001 0.74299997 5
15.1985 1.0575 0.74599999 5
15.1325 1.0445 0.74199998 5
15.1685 1.0565 0.75 5
15.1305 1.0455 0.74400002 5
15.2735 1.0585001 1.352 5
15.2225 1.0275 1.348 5
15.1725 1.0315 1.351 5
15.2145 1.0565 1.354 5
15.1455 1.0135 1.349 5
15.1485 1.0395 1.354 5
15.2055 1.0145 1.346 5
15.1675 0.97750002 1.34 5
15.1945 1.0025001 1.344 5
15.2635 1.0605 1.353 5
15.1755 1.0515 1.355 5
15.1225 1.0475 1.357 5
15.1945 1.0305001 1.35 5
15.1135 1.0434999 1.357 5
15.1785 1.0434999 1.353 5
15.2135 1.0595 1.355 5
15.1825 1.0425 1.353 5
15.1585 0.99349999 1.344 5
15.1645 1.0515 1.3559999 5
15.2115 1.0235 1.348 5
15.1965 1.0545 1.355 5
15.2355 1.0375 1.349 5
15.1125 1.0635 1.3609999 5
15.1555 1.0005 1.346 5
15.1235 1.0495 1.357 5
15.1455 1.0135 1.349 5
15.1465 1.0135 1.349 5
15.2175 1.0365 1.35 5
15.2285 1.0275 1.348 5
15.1895 1.0055 1.345 5
15.2125 1.0175 1.347 5
15.1995 1.0225 1.348 5
15.1165 1.0475 1.357 5
15.1765 1.0025001 1.345 5
15.1425 1.0434999 1.355 5
15.1825 1.0445 1.354 5
15.1995 1.0375 1.351 5
15.1215 1.0645 1.36 5
15.1645 1.0065 1.346 5
15.2125 1.0625 1.3559999 5
15.1735 1.0434999 1.354 5
15.2795 1.0625 1.352 5
15.2485 1.0605 1.354 5
15.1885 1.0075001 1.346 5
15.1625 0.99550003 1.344 5
15.1855 1.0075001 1.346 5
15.1635 1.0235 1.35 5
15.2075 1.0215 1.348 5
15.1105 1.0605 1.36 5
15.2305 1.0375 1.35 5
15.1475 1.0045 1.347 5
15.1865 1.0075001 1.346 5
15.1105 1.0475 1.357 5
15.1215 1.0395 1.355 5
15.2085 1.0595 1.355 5
15.1705 1.0105 1.347 5
15.1965 1.0025001 1.344 5
15.1155 1.0545 1.359 5
15.1185 1.0335 1.354 5
15.1715 1.0385 1.353 5
15.1615 1.0575 1.357 5
15.2095 1.0465 1.353 5
15.2205 1.0285 1.348 5
15.2075 1.0455 1.353 5
15.1995 1.0335 1.351 5
15.1895 1.0415 1.353 5
15.2155 1.0165 1.346 5
15.1565 1.0555 1.357 5
15.1855 1.0145 1.347 5
15.1315 1.0255001 1.352 5
15.2045 1.0095 1.345 5
15.1565 1.0185 1.349 5
15.1925 1.0015 1.344 5
15.1355 1.0235 1.352 5
15.1605 1.0215 1.35 5
15.1655 1.0295 1.351 5
15.1705 1.0355 1.352 5
15.1155 1.0525 1.358 5
15.1825 1.0185 1.348 5
15.2445 1.0385 1.349 5
15.1815 1.0525 1.355 5
15.1055 1.0595 1.36 5
15.2265 1.0625 1.355 5
15.1625 1.0145 1.348 5
15.1385 1.0365 1.354 5
15.1315 1.0555 1.358 5
15.1995 1.0235 1.348 5
15.1845 0.9885 1.342 5
15.1765 1.0185 1.349 5
15.1695 0.98449999 1.342 5
15.1095 1.0445 0.74400002 5
15.1535 1.0705 0.75700003 5
15.1055 1.0525 0.74900001 5
15.1055 1.0915 0.76800001 5
15.2105 1.0795 0.75999999 5
15.0985 1.0745 0.75999999 5
15.1825 1.0835 0.76300001 5
15.1105 1.0475 0.74599999 5
15.1755 1.0905 0.76700002 5
15.2595 1.0875 0.76300001 5
15.1545 1.0895 0.76700002 5
15.3065 1.0915 0.76499999 5
15.1035 1.0725 0.759 5
15.2125 1.0805 0.76099998 5
15.1175 1.0695 0.75700003 5
15.1015 1.0434999 0.74400002 5
15.2565 1.0855 0.76200002 5
15.1415 1.0885 0.76599997 5
15.1415 1.0615 0.75300002 5
15.1735 1.0755 0.759 5
15.2145 1.0845 0.76300001 5
15.1215 1.0484999 0.74599999 5
15.2265 1.0775 0.759 5
15.2615 1.0785 0.759 5
15.1735 1.0815001 0.76200002 5
15.2495 1.0925 0.76599997 5
15.1225 1.0595 0.75199997 5
15.1285 1.0605 0.75199997 5
15.1525 1.0595 0.75099999 5
15.1755 1.0795 0.76099998 5
15.1225 1.0555 0.75 5
15.1205 1.0805 0.76200002 5
15.1195 1.0545 0.74900001 5
15.1005 1.0735 0.759 5
15.1725 1.0895 0.76599997 5
15.1215 1.0535001 0.74900001 5
15.1515 1.0655 0.75400001 5
15.1145 1.0855 0.76499999 5
15.1675 1.0835 0.76300001 5
15.2465 1.0845 0.76200002 5
15.1075 1.0805 0.76300001 5
15.1055 1.0725 0.759 5
15.1285 1.0785 0.76200002 5
15.1955 1.0865 0.764 5
15.2165 1.0714999 0.75599998 5
15.2135 1.0755 0.75800002 5
15.1565 1.0765001 0.75999999 5
15.0985 1.0785 0.76200002 5
15.2495 1.0875 0.764 5
15.2515 1.0915 0.76599997 5
15.2185 1.0705 0.75599998 5
15.0985 1.0675 0.75599998 5
15.1425 1.0515 0.74800003 5
15.1565 1.0685 0.75599998 5
15.1225 1.0825 0.764 5
15.1465 1.0605 0.75199997 5
15.1145 1.0775 0.76099998 5
15.1535 1.0835 0.76300001 5
15.2335 1.0765001 0.75800002 5
15.1175 1.0855 0.76499999 5
15.1045 1.0885 0.76700002 5
15.1655 1.0825 0.76300001 5
15.1235 1.0565 0.75099999 5
15.1005 1.0525 0.74900001 5
15.1375 1.0905 0.76800001 5
15.1675 1.0915 0.76700002 5
15.1665 1.0605 0.75199997 5
15.2945 1.0915 0.76499999 5
15.2075 1.0525 2.108 5
15.1855 1.0605 2.1010001 5
15.1885 1.0755 2.0869999 5
15.1945 1.0515 2.109 5
15.1935 1.0865 2.0769999 5
15.1825 1.0645 2.098 5
15.2135 1.0495 2.1099999 5
15.2145 1.0484999 2.1110001 5
15.1835 1.0835 2.079 5
15.1975 1.0585001 2.102 5
15.1875 1.0565 2.105 5
15.2165 1.0505 2.109 5
15.1855 1.0484999 2.112 5
15.1775 1.0655 2.0969999 5
15.1945 1.0645 2.0969999 5
15.1895 1.0495 2.1110001 5
15.1985 1.0525 2.108 5
15.2075 1.0625 2.099 5
15.2095 1.0565 2.1029999 5
15.1815 1.0725 1.3559999 5
15.1885 1.0664999 1.357 5
15.2375 1.0664999 1.354 5
15.1115 1.0695 1.3609999 5
15.0315 1.0845 1.362 5
15.0805 1.0745 1.362 5
15.1005 1.0745 1.3609999 5
15.0925 1.0755 1.3609999 5
15.0865 1.0795 1.36 5
15.2735 1.0635 1.353 5
15.0525 1.0845 1.3609999 5
15.1285 1.0725 1.359 5
15.0705 1.0735 1.363 5
15.1585 1.0685 1.359 5
15.0995 1.0745 1.3609999 5
15.0745 1.0805 1.36 5
15.0665 1.0745 1.362 5
15.2215 1.0675 1.355 5
15.2505 1.0664999 1.354 5
15.0765 1.0725 1.362 5
15.1435 1.0714999 1.359 5
15.0425 1.0845 1.3609999 5
15.1015 1.0815001 1.358 5
15.1435 1.0714999 1.359 5
15.1675 1.0705 1.357 5
15.0225 1.0975 1.365 5
15.2855 1.1005 1.378 5
15.2175 1.0895 1.368 5
15.1565 1.0805 1.359 5
15.1505 1.0805 1.359 5
15.2575 1.0944999 1.373 5
15.2515 1.0685 1.355 5
15.1195 1.0905 1.364 5
15.2215 1.0725 1.3559999 5
15.1605 1.0955 1.369 5
15.1975 1.0805 1.3609999 5
15.1775 1.0875 1.365 5
15.1355 1.0795 1.358 5
15.2435 1.0775 1.3609999 5
15.1345 1.0815001 1.359 5
15.1255 1.0885 1.363 5
15.2935 1.0944999 1.375 5
15.1945 1.0845 1.364 5
15.0875 1.0895 1.363 5
15.0635 1.0905 1.362 5
15.1235 1.0835 1.36 5
15.1545 1.0975 1.37 5
15.1385 1.0825 1.36 5
15.2565 1.0935 1.372 5
15.2565 1.0785 1.362 5
15.1815 1.0944999 1.369 5
15.2435 1.0815001 1.364 5
15.3035 1.0865 1.369 5
15.0635 1.0915 1.363 5
15.1415 1.0975 1.37 5
15.2245 1.0714999 1.3559999 5
15.1205 1.0835 1.36 5
15.2345 1.0865 1.367 5
15.1765 1.0815001 1.3609999 5
15.0805 1.0925 1.364 5
15.0065 1.0944999 1.362 5
15.2505 1.0714999 1.357 5
15.2965 1.0885 1.37 5
15.2725 1.0785 1.362 5
15.2235 1.0985 1.374 5
15.2665 1.0925 1.372 5
15.1645 1.0765001 1.357 5
15.1025 1.0994999 1.369 5
15.1105 1.0865 1.3609999 5
15.2105 1.0735 1.357 5
15.2185 1.0755 1.358 5
15.1895 1.0825 1.362 5
15.1895 1.0875 1.365 5
15.2785 1.0875 1.369 5
15.2235 1.0875 1.367 5
15.0715 1.0915 1.363 5
15.0165 1.0944999 1.363 5
15.1765 1.0944999 1.37 5
15.2945 1.0795 1.364 5
15.2655 1.0825 1.365 5
15.1215 1.0855 1.3609999 5
15.1725 1.0805 1.36 5
15.2715 1.0985 1.376 5
15.2975 1.0835 1.367 5
15.1585 1.0915 1.3660001 5
15.2535 1.0705 1.3559999 5
15.1155 1.0845 1.36 5
15.2585 1.0795 1.363 5
15.2545 1.0845 1.3660001 5
15.2395 1.0985 1.375 5
15.0975 1.0985 1.368 5
15.2905 1.0975 1.376 5
15.1895 1.0775 1.359 5
15.2925 1.0935 1.374 5
15.0515 1.0915 1.362 5
15.2085 1.0925 1.369 5
15.0915 1.0905 1.363 5
15.1905 1.0845 1.363 5
15.2185 1.0895 1.368 5
15.0045 1.0955 1.363 5
15.0905 1.0855 1.36 5
15.1295 1.0944999 1.367 5
15.2865 1.0985 1.377 5
15.1895 1.0925 1.369 5
15.2405 1.0735 1.358 5
15.1955 1.0865 1.364 5
15.1695 1.0785 1.358 5
15.2445 1.1015 1.377 5
15.2595 1.0725 1.358 5
15.1465 1.0925 1.3660001 5
15.2285 0.82950002 2.1210001 5
15.2655 0.83050001 2.109 5
15.1705 0.83350003 2.138 5
15.3095 0.83950001 2.0880001 5
15.2745 0.81849998 2.1129999 5
15.2135 0.81349999 2.1370001 5
15.2155 0.82950002 2.1259999 5
15.2655 0.84249997 2.1010001 5
15.1875 0.82749999 2.1359999 5
15.3005 0.83050001 2.0969999 5
15.1965 0.82450002 2.135 5
15.1705 0.8265 2.1429999 5
15.2475 0.82849997 2.1159999 5
15.2915 0.82849997 2.102 5
15.2135 0.82950002 2.1270001 5
15.2695 0.84350002 2.099 5
15.3175 0.83950001 2.085 5
15.2225 0.81349999 2.1340001 5
15.1045 0.84750003 2.151 5
15.1735 0.83249998 2.138 5
15.2545 0.82349998 2.1170001 5
15.1395 0.84549999 2.141 5
15.2225 0.81849998 2.131 5
15.1585 0.84649998 2.1340001 5
15.2465 0.82749999 2.1170001 5
15.2985 0.82749999 2.0999999 5
15.2075 0.84450001 2.119 5
15.2115 0.81449997 2.1359999 5
15.1965 0.8175 2.1400001 5
15.2475 0.81449997 2.125 5
15.1695 0.84549999 2.131 5
15.2695 0.82550001 2.1110001 5
15.1715 0.84850001 2.1289999 5
15.1995 0.83649999 2.1270001 5
15.1985 0.82349998 2.135 5
15.1505 0.8355 2.1429999 5
15.1715 0.83149999 2.1389999 5
15.2755 0.83350003 2.1029999 5
15.1295 0.84149998 2.1470001 5
15.1325 0.84450001 2.1440001 5
15.2215 0.81449997 2.1329999 5
15.1715 0.8405 2.1340001 5
15.1905 0.8215 2.1400001 5
15.2465 0.82249999 2.1199999 5
15.2155 0.82050002 2.131 5
15.1625 0.82849997 2.1440001 5
15.1735 0.83450001 2.1359999 5
15.2865 0.84549999 2.092 5
15.2655 0.8405 2.102 5
15.2985 0.84450001 2.089 5
15.1855 0.83249998 2.1340001 5
15.1395 0.84249997 2.1429999 5
15.2275 0.84149998 2.1140001 5
15.2025 0.83249998 2.128 5
15.1265 0.8495 2.1429999 5
15.2485 0.83850002 2.109 5
15.2365 0.84149998 2.1110001 5
15.2235 0.82050002 2.1289999 5
15.3005 0.82550001 2.0999999 5
15.1385 0.83749998 2.1470001 5
15.2305 0.83149999 2.1199999 5
15.2055 0.82550001 2.132 5
15.2455 0.84149998 2.108 5
15.2495 0.83450001 2.112 5
15.1565 0.84649998 2.135 5
15.1335 0.84350002 2.1440001 5
15.2625 0.83249998 2.108 5
15.1395 0.84450001 2.142 5
15.2875 0.81349999 2.112 5
15.2665 0.83249998 2.1070001 5
15.2885 0.83749998 2.0969999 5
15.1305 0.87449998 2.1429999 5
15.1465 0.85049999 2.1359999 5
15.1455 0.86150002 2.1370001 5
15.1125 0.85049999 2.1470001 5
15.1095 0.86150002 2.148 5
15.1935 0.8635 2.122 5
15.1395 0.85250002 2.1389999 5
15.1215 0.86049998 2.145 5
15.1125 0.85149997 2.1470001 5
15.3145 0.84750003 2.0829999 5
15.2235 0.85949999 2.112 5
15.1775 0.8495 2.1270001 5
15.2155 0.86049998 2.115 5
15.1095 0.87050003 2.1489999 5
15.1195 0.85949999 2.145 5
15.1765 0.8545 2.1270001 5
15.2165 0.86250001 2.115 5
15.1125 0.86750001 2.148 5
15.2235 0.84850001 2.112 5
15.1655 0.85049999 2.1300001 5
15.1065 0.86650002 2.1500001 5
15.1495 0.85650003 2.1359999 5
15.1865 0.85650003 2.1240001 5
15.2385 0.85250002 2.1070001 5
15.1775 0.86150002 2.1270001 5
15.1515 0.87150002 2.1359999 5
15.1095 0.85250002 2.148 5
15.2955 0.85049999 2.089 5
15.1265 0.86250001 2.1429999 5
15.2075 0.8635 2.1170001 5
15.1235 0.85250002 2.1440001 5
15.1815 0.86449999 2.1259999 5
15.2015 0.86150002 2.119 5
15.1415 0.8725 2.1389999 5
15.2255 0.85750002 2.112 5
15.1495 0.85149997 2.135 5
15.2775 0.8495 2.0940001 5
15.1245 0.86549997 2.1440001 5
15.2105 0.89450002 2.1059999 5
15.1405 0.9145 2.1259999 5
15.1685 0.88550001 2.125 5
15.2285 0.86849999 2.109 5
15.2355 0.88950002 2.099 5
15.1985 0.86949998 2.1199999 5
15.2315 0.87150002 2.1059999 5
15.2405 0.86049998 2.1070001 5
15.1965 0.90249997 2.109 5
15.2325 0.87349999 2.105 5
15.2185 0.88150001 2.108 5
15.2075 0.88749999 2.1099999 5
15.3165 0.85250002 2.0810001 5
15.2635 0.87949997 2.0910001 5
15.1495 0.93049997 2.1170001 5
15.2625 0.87849998 2.092 5
15.1645 0.88550001 2.1270001 5
15.2485 0.86250001 2.1029999 5
15.1335 0.90350002 2.132 5
15.1485 0.92650002 2.118 5
15.2415 0.87449998 2.1010001 5
15.2615 0.88050002 2.092 5
15.2725 0.86549997 2.0929999 5
15.2335 0.86549997 2.108 5
15.1925 0.88550001 2.1159999 5
15.1525 0.88950002 2.1300001 5
15.2345 0.8865 2.0999999 5
15.1435 0.92049998 2.122 5
15.1705 0.90549999 2.118 5
15.1695 0.91949999 2.1129999 5
15.1915 0.91350001 2.1070001 5
15.1295 0.89649999 2.1359999 5
15.2495 0.88349998 2.095 5
15.1985 0.9005 2.109 5
15.2075 0.90549999 2.1029999 5
15.1845 0.8915 2.1170001 5
15.2495 0.88450003 2.095 5
15.2245 0.87849998 2.1070001 5
15.1965 0.90249997 2.109 5
15.1675 0.88849998 2.1240001 5
15.1915 0.9005 2.1110001 5
15.1675 0.90649998 2.118 5
15.1815 0.89050001 2.119 5
15.2225 0.88249999 2.1059999 5
15.2385 0.88450003 2.099 5
15.2875 0.85549998 2.0910001 5
15.2205 0.9005 2.0999999 5
15.2375 0.89050001 2.0969999 5
15.1425 0.92750001 2.1199999 5
15.2015 0.8865 2.1129999 5
15.2045 0.8775 2.115 5
15.2895 0.85750002 2.089 5
15.1725 0.92049998 2.1110001 5
15.1605 0.88150001 2.1300001 5
15.1785 0.90249997 2.115 5
15.1505 0.8865 2.132 5
15.3125 0.85149997 2.0829999 5
15.2485 0.87650001 2.098 5
15.2255 0.88249999 2.1040001 5
15.1495 0.90350002 2.1259999 5
15.1865 0.8915 2.1159999 5
15.3235 0.85049999 2.079 5
15.1415 0.91350001 2.125 5
15.1595 0.90249997 2.122 5
15.1735 0.88450003 2.1240001 5
15.1595 0.88749999 2.128 5
15.1415 0.89249998 2.1329999 5
15.1735 0.91750002 2.112 5
15.2285 0.87949997 2.105 5
15.1795 0.87349999 2.125 5
15.2495 0.87949997 2.0969999 5
15.1365 0.89749998 2.1329999 5
15.2175 0.89050001 2.105 5
15.1515 0.92449999 2.118 5
15.1285 0.8955 2.1370001 5
15.1545 0.88749999 2.1300001 5
15.3105 0.85650003 2.082 5
15.2625 0.90450001 2.0880001 5
15.3235 0.86849999 2.076 5
15.2485 0.90549999 2.092 5
15.3145 0.86150002 2.079 5
15.2675 0.8955 2.0880001 5
15.3025 0.87650001 2.0810001 5
15.2385 0.89450002 2.096 5
15.3335 0.87050003 2.073 5
15.2265 0.9145 2.0969999 5
15.2365 0.93150002 2.0910001 5
15.2365 0.89450002 2.0969999 5
15.2645 0.91949999 2.085 5
15.1815 0.92549998 2.108 5
15.1755 0.9325 2.108 5
15.1835 0.92750001 2.1070001 5
15.2345 0.91850001 2.0940001 5
15.1615 0.93049997 2.1129999 5
15.3295 0.90249997 2.069 5
15.3335 0.8495 2.076 5
15.2865 0.93349999 2.0769999 5
15.2955 0.88249999 2.082 5
15.2705 0.91850001 2.0840001 5
15.2075 0.93550003 2.099 5
15.2565 0.88450003 2.092 5
15.3135 0.88249999 2.0769999 5
15.3015 0.88249999 2.0799999 5
15.2585 0.89249998 2.0910001 5
15.3265 0.88249999 2.073 5
15.3055 0.90350002 2.076 5
15.3325 0.87949997 2.072 5
15.2585 0.90850002 2.0880001 5
15.1795 0.92449999 2.108 5
15.2535 0.8865 2.0929999 5
15.2585 0.9145 2.0880001 5
15.2445 0.89950001 2.0940001 5
15.2395 0.92150003 2.092 5
15.3225 0.87449998 2.075 5
15.2435 0.90750003 2.0929999 5
15.3205 0.90450001 2.072 5
15.2135 0.91350001 2.0999999 5
15.2475 0.91350001 2.0910001 5
15.2655 0.9145 2.086 5
15.3045 0.89950001 2.0769999 5
15.2765 0.9095 2.0829999 5
15.2185 0.92449999 2.098 5
15.2845 0.88950002 2.0840001 5
15.2795 0.9375 2.0780001 5
15.3025 0.93449998 2.073 5
15.3155 0.8865 2.076 5
15.2995 0.90149999 2.0780001 5
15.2685 0.9285 2.0829999 5
15.2455 0.9095 2.092 5
15.3285 0.8865 2.072 5
15.2615 0.8955 2.0899999 5
15.2475 0.89249998 2.0940001 5
15.3255 0.91149998 2.069 5
15.2385 0.89649999 2.096 5
15.3165 0.90450001 2.073 5
15.1685 0.93550003 2.1099999 5
15.2645 0.88550001 2.0899999 5
15.3105 0.93650001 2.0699999 5
15.3375 0.86049998 2.073 5
15.2155 0.93150002 2.0969999 5
15.2325 0.91649997 2.095 5
15.2925 0.87349999 2.0840001 5
15.2475 0.93650001 2.0880001 5
15.2245 0.93049997 2.095 5
15.2795 0.9375 2.079 5
15.3205 0.86549997 2.0769999 5
15.3295 0.8585 2.076 5
15.2055 0.91049999 2.1029999 5
15.1885 0.91649997 2.1070001 5
15.2715 0.88550001 2.0880001 5
15.3035 0.89249998 2.0780001 5
15.3295 0.88150001 2.072 5
15.2785 0.8955 2.085 5
15.3165 0.89950001 2.073 5
15.3055 0.88849998 2.0780001 5
15.2835 0.93049997 2.0780001 5
15.1935 0.93049997 2.1029999 5
15.2565 0.88450003 2.092 5
15.2295 0.91850001 2.095 5
15.2015 0.92650002 2.102 5
15.2725 0.91949999 2.0829999 5
15.2185 0.93349999 2.096 5
15.2845 0.89950001 2.0829999 5
15.2115 1.0685 2.092 5
15.2015 1.0895 2.073 5
15.2495 1.0525 2.1040001 5
15.2415 1.0565 2.102 5
15.2095 1.0845 2.0780001 5
15.2505 1.0555 2.1010001 5
15.2465 1.0605 2.098 5
15.2195 1.0615 2.098 5
15.2285 1.0645 2.095 5
15.2135 1.0714999 2.089 5
15.2105 1.0735 2.0869999 5
15.2135 1.0785 2.0829999 5
15.2265 1.0655 2.0940001 5
15.2505 1.0535001 2.1029999 5
15.2475 1.0525 2.105 5
15.2425 1.0505 2.1070001 5
15.2785 1.0985 2.0550001 5
15.2465 1.0965 2.0480001 5
15.2585 1.0955 2.04 5
15.2975 1.0985 2.056 5
15.2245 1.0965 2.049 5
15.2465 1.0935 2.0350001 5
15.2545 1.0955 2.043 5
15.2465 1.0944999 2.04 5
15.2615 1.0975 2.0539999 5
15.2095 1.0975 2.0610001 5
15.2755 1.0975 2.053 5
15.2885 1.0994999 2.0580001 5
15.2105 1.0975 2.059 5
15.2165 1.0985 2.063 5
15.1995 1.0985 2.0650001 5
15.2575 1.0944999 2.0380001 5
15.2865 1.0985 2.0539999 5
15.2315 1.0965 2.0480001 5
15.2985 1.0975 2.049 5
15.2585 1.0975 2.0539999 5
15.3015 1.0975 2.049 5
15.2375 1.0944999 2.039 5
15.2035 1.0975 2.063 5
15.2775 1.0985 2.0580001 5
15.2055 1.0975 2.0610001 5
15.2495 1.0944999 2.036 5
15.2575 1.0895 2.0710001 5
15.2825 1.0675 2.089 5
15.2555 1.0745 2.0840001 5
15.2735 1.0575 2.099 5
15.2375 1.0805 2.0799999 5
15.2865 1.0705 2.086 5
15.3085 1.0994999 2.0599999 5
15.2305 1.0905 2.0710001 5
15.2685 1.0625 2.0940001 5
15.2365 1.0705 2.0880001 5
15.2835 1.0845 2.0739999 5
15.2835 1.0965 2.0639999 5
15.2805 1.0895 2.069 5
15.3025 1.0905 2.0680001 5
15.2375 1.0815001 2.079 5
15.2635 1.0965 2.0639999 5
15.2385 1.0785 2.0810001 5
15.2795 1.0785 2.079 5
15.2895 1.0925 2.0669999 5
15.2825 1.0725 2.085 5
15.2365 1.0705 2.0880001 5
15.2575 1.0735 2.085 5
15.2955 1.0915 2.0669999 5
15.2375 1.0765001 2.0829999 5
15.3185 1.0975 2.0610001 5
15.2355 1.0765001 2.0829999 5
15.2705 1.0885 2.0710001 5
15.2955 1.0825 2.075 5
15.2215 1.0965 2.066 5
15.2785 1.0925 2.0669999 5
15.2805 1.0685 2.0880001 5
15.2685 1.0605 2.096 5
15.2475 1.0635 2.0940001 5
15.3025 1.0915 2.0669999 5
15.2465 1.0975 2.0639999 5
15.2645 1.0905 2.069 5
15.2265 1.0975 2.0650001 5
15.2845 1.0845 2.0739999 5
15.2705 1.0745 2.0840001 5
15.2965 1.0835 2.075 5
15.2535 1.0805 2.079 5
15.3035 1.0855 2.072 5
15.2795 1.0955 2.0639999 5
15.1845 1.0425 0.73400003 5
15.2735 1.0615 0.74199998 5
15.2755 1.0535001 0.73500001 5
15.2495 1.0325 0.71899998 5
15.2405 1.0375 0.72399998 5
15.2055 1.0445 0.73400003 5
15.2535 1.0545 0.73699999 5
15.1805 1.0395 0.73100001 5
15.2805 1.0765001 0.75400001 5
15.1905 1.0484999 0.73799998 5
15.1795 1.0395 0.73199999 5
15.2365 1.0545 0.73900002 5
15.2835 1.0775 0.755 5
15.2345 1.0405 0.727 5
15.2725 1.0585001 0.73900002 5
15.2105 1.0445 0.73299998 5
15.2175 1.0425 0.73000002 5
15.2555 1.0705 0.75199997 5
15.1855 1.0465 0.73699999 5
15.2295 1.0375 0.72500002 5
15.2085 1.0475 0.736 5
15.2385 1.0575 0.74199998 5
15.2215 1.0385 0.72600001 5
15.3065 1.0885 0.76200002 5
15.2475 1.0445 0.73000002 5
15.2685 1.0605 0.74199998 5
15.2635 1.0515 0.73500001 5
15.2675 1.0515 0.73400003 5
15.2555 1.0655 0.74699998 5
15.2405 1.0495 0.73400003 5
15.2445 1.0635 0.74599999 5
15.3055 1.0855 0.75999999 5
15.2615 1.0575 0.73900002 5
15.2485 1.0455 0.73000002 5
15.2705 1.0705 0.75 5
15.2115 1.0405 0.72899997 5
15.2055 1.0375 0.72799999 5
15.2835 1.0795 0.75700003 5
15.2285 1.0535001 0.73900002 5
15.2315 1.0605 0.745 5
15.2375 1.0455 0.73100001 5
15.3105 1.0835 0.75800002 5
15.1705 1.0385 0.73100001 5
15.2465 1.0345 0.72100002 5
15.2525 1.0545 0.73799998 5
15.3085 1.0855 0.759 5
15.2415 1.0395 0.72600001 5
15.2525 1.0365 0.722 5
15.3075 1.0434999 2.1140001 5
15.3135 1.0745 2.0829999 5
15.3235 1.0865 2.072 5
15.3225 1.0695 2.089 5
15.3055 1.0475 2.1110001 5
15.2945 1.0664999 2.0910001 5
15.3115 1.0575 2.1010001 5
15.3035 1.0615 2.0969999 5
15.3145 1.0835 2.0739999 5
15.3205 1.0525 2.1059999 5
15.3135 1.0525 2.1059999 5
15.2905 1.0515 2.1059999 5
15.3095 1.0795 2.0780001 5
15.3205 1.0455 2.1129999 5
15.3195 1.0515 2.1070001 5
15.3105 1.0425 2.1159999 5
15.3055 1.0405 2.1170001 5
15.3085 1.0605 2.0969999 5
15.2985 1.0635 2.0929999 5
15.3125 1.0445 2.1140001 5
15.3005 1.0714999 2.085 5
15.3095 1.0664999 2.0910001 5
15.3005 1.0425 2.115 5
15.3105 1.0535001 2.105 5
15.3005 1.0465 2.1110001 5
15.2985 1.0425 2.115 5
15.2845 1.0615 2.095 5
15.3025 1.0745 2.0829999 5
15.3095 0.8175 2.109 5
15.3265 0.83249998 2.0899999 5
15.3175 0.8175 2.109 5
15.3275 0.82849997 2.095 5
15.3455 0.8215 2.108 5
15.3465 0.81849998 2.112 5
15.3555 0.81849998 2.1140001 5
15.3265 0.81650001 2.112 5
15.3545 0.81650001 2.1170001 5
15.3135 0.8175 2.109 5
15.3195 0.81449997 2.1140001 5
15.3515 0.8175 2.115 5
15.3295 0.81849998 2.109 5
15.3285 0.83050001 2.092 5
15.3375 0.82849997 2.0969999 5
15.3305 0.83149999 2.092 5
15.3345 0.82849997 2.096 5
15.3525 0.82349998 2.1059999 5
15.3355 0.81349999 2.118 5
15.3255 0.81849998 2.109 5
15.3335 0.82550001 2.1010001 5
15.3445 0.83050001 2.095 5
15.3215 0.82749999 2.096 5
15.3055 1.0755 1.791 5
15.3115 1.0845 1.801 5
15.3085 1.0795 1.829 5
15.3225 1.0994999 1.944 5
15.3215 1.1035 1.706 5
15.3215 1.0994999 1.847 5
15.3185 1.0965 1.794 5
15.3095 1.0835 1.758 5
15.3235 1.0994999 1.995 5
15.3165 1.0935 1.785 5
15.3205 1.0994999 1.789 5
15.3195 1.0994999 1.795 5
15.3175 1.0944999 1.821 5
15.3095 1.0825 1.756 5
15.3125 1.0855 1.875 5
15.3175 1.0935 1.876 5
15.3205 1.1015 1.73 5
15.3095 1.0835 1.7410001 5
15.3155 1.0885 1.938 5
15.3195 1.0985 1.802 5
15.3215 1.0955 2.0139999 5
15.3205 1.0955 2.0009999 5
15.3155 1.0925 1.7690001 5
15.3145 1.0875 1.921 5
15.3165 1.0944999 1.767 5
15.3225 1.1005 1.926 5
15.3195 1.0955 1.9220001 5
15.3085 1.0795 1.823 5
15.3205 1.0975 1.913 5
15.3235 1.0994999 2.0179999 5
15.3075 1.0795 1.747 5
15.3185 1.0935 1.908 5
15.3205 1.1015 1.749 5
15.3155 1.0905 1.862 5
15.3195 1.0994999 1.7410001 5
15.3215 1.1015 1.807 5
15.3125 1.0895 1.74 5
15.3125 1.0895 1.734 5
15.3175 1.0944999 1.785 5
15.3105 1.0855 1.752 5
15.3175 1.0915 1.949 5
15.3145 1.0895 1.8150001 5
15.3065 1.0785 1.785 5
15.3125 1.0855 1.848 5
15.3125 1.0855 1.8430001 5
15.3225 1.0994999 1.9400001 5
15.3115 1.0835 1.881 5
15.3135 1.0885 1.789 5
15.3085 1.0785 1.8380001 5
15.3115 1.0855 1.796 5
15.3125 1.0875 1.768 5
15.3145 1.0925 1.722 5
15.3195 1.0944999 1.9450001 5
15.3125 1.0875 1.765 5
15.3175 1.0925 1.905 5
15.3225 1.1005 1.924 5
15.3105 1.0835 1.783 5
15.3205 1.0944999 1.983 5
15.3185 1.0935 1.938 5
15.3185 1.0925 1.96 5
15.3115 1.0835 1.876 5
15.3165 1.0955 1.75 5
15.3195 1.0994999 1.752 5
15.3155 1.0925 1.791 5
15.3215 1.1025 1.775 5
15.3195 1.0965 1.858 5
15.3065 1.0775 1.807 5
15.3115 1.0925 1.985 5
15.2635 1.0935 2.0250001 5
15.2725 1.0935 2.026 5
15.2805 1.0905 1.983 5
15.2575 1.0885 1.972 5
15.3035 1.0944999 2.007 5
15.3095 1.0875 1.929 5
15.3075 1.0895 1.9529999 5
15.3025 1.0745 1.79 5
15.2905 1.0955 2.0320001 5
15.2825 1.0895 1.971 5
15.3105 1.0895 1.95 5
15.2655 1.0935 2.0280001 5
15.2705 1.0935 2.026 5
15.3005 1.0805 1.862 5
15.2855 1.0775 1.835 5
15.2895 1.0765001 1.8200001 5
15.3085 1.0805 1.855 5
15.2945 1.0944999 2.013 5
15.2875 1.0835 1.905 5
15.3035 1.0805 1.859 5
15.2905 1.0955 2.027 5
15.2925 1.0755 1.8099999 5
15.2815 1.0944999 2.029 5
15.3065 1.0915 1.973 5
15.2995 1.0765001 1.823 5
15.3035 1.0975 2.0409999 5
15.2895 1.0795 1.855 5
15.2725 1.0885 1.969 5
15.2915 1.0855 1.919 5
15.2805 1.0855 1.928 5
15.2905 1.0955 2.0320001 5
15.2865 1.0905 1.978 5
15.3075 1.0944999 2.0050001 5
15.3085 1.0895 1.9579999 5
15.2805 1.0944999 2.0250001 5
15.2905 1.0755 1.816 5
15.2865 1.0875 1.947 5
15.3105 1.0845 1.893 5
15.2935 1.0925 1.993 5
15.2985 1.0755 1.803 5
15.2805 1.0795 1.865 5
15.3025 1.0805 1.855 5
15.2945 1.0795 1.852 5
15.2845 1.0865 1.939 5
15.2835 1.0825 1.891 5
15.2955 1.0925 1.998 5
15.3095 1.0835 1.885 5
15.3145 1.0885 1.936 5
15.2805 1.0835 1.902 5
15.3075 1.0785 1.839 5
15.3035 1.0805 1.855 5
15.2715 1.0835 1.9069999 5
15.3205 1.0985 2.04 5
15.2845 1.0905 1.9809999 5
15.3155 1.0955 2.016 5
15.2775 1.0935 2.023 5
15.3045 1.0925 1.994 5
15.2915 1.0785 1.842 5
15.3025 1.0845 1.902 5
15.2955 1.0775 1.836 5
15.3055 1.0795 1.852 5
15.2875 1.0785 1.845 5
15.3145 1.0905 1.955 5
15.3065 1.0885 1.948 5
15.2745 1.0815001 1.891 5
15.3055 1.0805 1.852 5
15.2815 1.0895 1.972 5
15.2915 1.0935 2.0090001 5
15.2825 1.0825 1.895 5
15.2825 1.0815001 1.878 5
15.3105 1.0875 1.926 5
15.2575 1.0925 2.023 5
15.2855 1.0805 1.875 5
15.2545 1.0915 2.0150001 5
15.3095 1.0825 1.877 5
15.3115 1.0925 1.9809999 5
15.3175 1.0925 1.978 5
15.2955 1.0785 1.8380001 5
15.2965 1.0745 1.8 5
15.2775 1.0955 2.0350001 5
15.3095 1.0855 1.906 5
15.2785 1.0935 2.0190001 5
15.2685 1.0935 2.0209999 5
15.2735 1.0905 1.99 5
15.3135 1.0965 2.0280001 5
15.2815 1.0905 1.983 5
15.2815 1.0825 1.89 5
15.2705 1.0835 1.908 5
15.2955 1.0965 2.0350001 5
15.2525 1.0905 2.0050001 5
15.2565 1.0885 1.977 5
15.2745 1.0865 1.937 5
15.2965 1.0755 1.806 5
15.3005 1.0855 1.914 5
15.2885 1.0805 1.869 5
15.2995 1.0795 1.854 5
15.3025 1.0805 1.865 5
15.3075 1.0875 1.927 5
15.2755 1.0944999 2.03 5
15.2975 1.0915 1.982 5
15.2725 1.0845 1.919 5
15.2475 1.0915 2.0090001 5
15.2805 1.0865 1.937 5
15.3155 1.0955 2.0150001 5
15.2555 1.0915 2.0050001 5
15.2905 1.0845 1.914 5
15.3065 1.0975 2.046 5
15.2775 1.0845 1.914 5
15.2555 1.0925 2.023 5
15.3055 1.0825 1.8839999 5
15.2595 1.0925 2.0139999 5
15.2745 1.0925 2.01 5
15.2715 1.0865 1.947 5
15.2855 1.0885 1.956 5
15.3025 1.0955 2.0179999 5
15.2965 1.0975 2.046 5
15.2785 1.0825 1.892 5
15.2825 1.0905 1.9809999 5
14.5595 0.81650001 1.339 5
14.5365 0.82550001 1.341 5
14.5755 0.81950003 1.344 5
14.5085 0.82050002 1.3329999 5
14.5625 0.82050002 1.342 5
14.5355 0.8175 1.336 5
14.5245 0.81550002 1.3329999 5
14.5225 0.82349998 1.337 5
14.5505 0.83149999 1.346 5
14.5475 0.82050002 1.34 5
14.5305 0.81650001 1.335 5
14.5175 0.82950002 1.34 5
14.5385 0.81449997 1.335 5
14.5345 0.82849997 1.342 5
14.5715 0.81150001 1.339 5
14.5255 0.8125 1.332 5
14.5395 0.82349998 1.34 5
14.5345 0.81449997 1.334 5
14.5255 0.82950002 1.341 5
14.5495 0.81349999 1.336 5
14.5445 0.83749998 1.349 5
14.5395 0.84149998 1.35 5
14.6905 0.8265 1.347 5
14.6655 0.82349998 1.346 5
14.6775 0.82050002 1.345 5
14.6375 0.84450001 1.353 5
14.6945 0.81650001 1.344 5
14.5595 0.8405 1.352 5
14.6895 0.8265 1.347 5
14.5935 0.81550002 1.3430001 5
14.6335 0.84549999 1.354 5
14.6785 0.81449997 1.3430001 5
14.6715 0.84450001 1.353 5
14.6165 0.8355 1.35 5
14.6305 0.83149999 1.349 5
14.7435 0.83749998 1.351 5
14.6175 0.81449997 1.3430001 5
14.6325 0.8215 1.345 5
14.6915 0.82749999 1.348 5
14.6615 0.83850002 1.351 5
14.7035 0.83149999 1.349 5
14.6585 0.82950002 1.348 5
14.6855 0.81449997 1.3430001 5
14.7065 0.82950002 1.348 5
14.6805 0.83249998 1.349 5
14.6485 0.84149998 1.352 5
14.7045 0.83350003 1.35 5
14.6545 0.81950003 1.344 5
14.6955 0.82450002 1.346 5
14.5695 0.83450001 1.349 5
14.6405 0.81349999 1.342 5
14.6615 0.83149999 1.349 5
14.6125 0.83149999 1.349 5
14.6195 0.8405 1.352 5
14.5815 0.82050002 1.345 5
14.6885 0.84450001 1.353 5
14.6605 0.83249998 1.349 5
14.6945 0.8355 1.35 5
14.7705 0.84450001 1.354 5
14.6755 0.8215 1.345 5
14.6675 0.8125 1.342 5
14.6395 0.82249999 1.345 5
14.6615 0.84649998 1.354 5
14.7325 0.83749998 1.351 5
14.6905 0.83749998 1.351 5
14.7595 0.84549999 1.354 5
14.5695 0.84649998 1.354 5
14.6155 0.83149999 1.349 5
14.6575 0.84249997 1.353 5
14.6655 0.81449997 1.3430001 5
14.7465 0.84249997 1.353 5
14.6885 0.82450002 1.347 5
14.7315 0.83350003 1.35 5
14.5485 0.84249997 1.352 5
14.6525 0.81950003 1.345 5
14.6965 0.83749998 1.351 5
14.7095 0.84649998 1.355 5
14.5505 0.84549999 1.354 5
14.6765 0.8405 1.352 5
14.6325 0.81650001 1.3430001 5
14.5925 0.8125 1.342 5
14.6825 0.81449997 1.3430001 5
14.6015 0.84649998 1.354 5
14.5675 0.8405 1.352 5
14.6585 0.84649998 1.354 5
14.6565 0.8265 1.347 5
14.7015 0.83249998 1.35 5
14.7625 0.82349998 1.349 5
14.7725 0.82550001 1.35 5
14.7475 0.83149999 1.349 5
14.7755 0.8215 1.349 5
14.7775 0.82950002 1.351 5
14.7425 0.8125 1.345 5
14.7545 0.81950003 1.347 5
14.7435 0.8215 1.347 5
14.7515 0.83249998 1.35 5
14.7825 0.8125 1.348 5
14.7515 0.82050002 1.347 5
14.7135 0.8175 1.344 5
14.7355 0.81449997 1.345 5
14.9055 0.97149998 0.86500001 5
14.9075 0.96850002 0.92000002 5
14.9095 0.97149998 0.90499997 5
14.9165 0.98150003 0.861 5
14.9105 0.97350001 0.89499998 5
14.9035 0.97149998 0.82700002 5
14.9035 0.96850002 0.87800002 5
14.9045 0.96950001 0.86400002 5
14.9155 0.97850001 0.89200002 5
14.9095 0.9745 0.87400001 5
14.9075 0.97049999 0.90399998 5
14.9045 0.96850002 0.88300002 5
14.9095 0.97549999 0.85799998 5
14.9135 0.9795 0.85799998 5
14.9055 0.97149998 0.85100001 5
14.9185 0.98449999 0.847 5
14.9075 0.97350001 0.84500003 5
14.9105 0.97250003 0.91399997 5
14.9085 0.96950001 0.921 5
14.9065 0.97149998 0.875 5
14.9175 0.9835 0.861 5
14.9065 0.97350001 0.84100002 5
14.9145 0.98049998 0.85000002 5
14.9145 0.97850001 0.87900001 5
14.9115 0.96950001 0.97500002 5
14.9385 0.9745 0.972 5
14.9325 0.97850001 0.97799999 5
14.9605 0.98150003 0.972 5
14.9465 0.97549999 0.97100002 5
14.9085 0.96649998 0.97399998 5
14.9285 0.97649997 0.977 5
14.8795 0.96850002 0.98500001 5
14.9055 0.9745 0.98199999 5
14.9265 0.97750002 0.97799999 5
14.9355 0.9745 0.97299999 5
14.9565 0.98250002 0.977 5
14.9275 0.98750001 1.01 5
14.9385 0.98250002 0.98799998 5
14.9315 0.9835 0.99699998 5
14.8925 0.97649997 0.991 5
14.8935 0.9795 1.003 5
14.8775 0.9745 0.99299997 5
14.9255 0.98549998 1.005 5
14.9325 0.98449999 0.99599999 5
14.9025 0.9795 0.99699998 5
14.8975 0.98049998 1.005 5
14.9495 0.9835 0.98400003 5
14.9065 0.9835 1.01 5
14.9115 0.9795 0.99299997 5
14.8785 0.97350001 0.98900002 5
14.9245 0.97850001 0.98400003 5
14.8875 0.97649997 0.99400002 5
14.8785 0.97549999 0.99599999 5
14.9255 0.98449999 1.003 5
14.9165 0.9835 1.002 5
14.9405 0.99150002 1.016 5
14.9195 0.98650002 1.01 5
14.9495 0.98049998 0.97500002 5
14.9135 0.98650002 1.0140001 5
14.9335 0.98650002 1.003 5
14.9445 0.9885 1.0039999 5
14.9205 0.97149998 0.93800002 5
14.9175 0.97250003 0.92799997 5
14.9145 0.97250003 0.921 5
14.9085 0.96450001 0.94999999 5
14.9255 0.98250002 0.89300001 5
14.9085 0.96749997 0.93900001 5
14.9225 0.98650002 0.86699998 5
14.9605 0.98150003 0.96899998 5
14.9245 0.96850002 0.96100003 5
14.9335 0.98049998 0.91799998 5
14.9505 0.98150003 0.94499999 5
14.9205 0.97250003 0.935 5
14.9155 0.96649998 0.954 5
14.9195 0.9795 0.89899999 5
14.9335 0.98549998 0.89300001 5
14.9075 0.96450001 0.94999999 5
14.9095 0.9655 0.94800001 5
14.9045 0.9605 0.96600002 5
14.9285 0.98150003 0.90600002 5
14.9235 0.98750001 0.86400002 5
14.9195 0.97850001 0.90499997 5
14.9105 0.97049999 0.92400002 5
14.9245 0.97850001 0.91399997 5
14.9335 0.97850001 0.93000001 5
14.9185 0.96850002 0.95099998 5
14.9145 0.96850002 0.94099998 5
14.9385 0.97549999 0.95300001 5
14.9265 0.97549999 0.93099999 5
14.9295 0.97549999 0.935 5
14.9505 0.98150003 0.94599998 5
14.9245 0.96749997 0.96799999 5
14.9325 0.97649997 0.93699998 5
14.9555 0.9795 0.96899998 5
14.9165 0.96950001 0.93900001 5
14.9565 0.98150003 0.958 5
14.9305 0.97350001 0.94800001 5
14.9365 0.9745 0.95599997 5
14.9715 0.9885 0.83999997 5
14.9415 0.9835 0.82499999 5
14.9345 0.98449999 0.83700001 5
14.9495 0.9885 0.85399997 5
14.9505 0.98750001 0.84799999 5
14.9335 0.9795 0.80800003 5
14.9775 0.99150002 0.85500002 5
14.9525 0.9885 0.85100001 5
15.0105 0.99250001 0.84399998 5
14.9665 0.9885 0.84399998 5
14.9235 0.98750001 0.86000001 5
14.9225 0.98250002 0.82700002 5
14.9815 0.98949999 0.84500003 5
14.9535 0.9835 0.82300001 5
14.9555 0.9885 0.84899998 5
14.9255 0.98250002 0.82599998 5
14.9435 0.98750001 0.84799999 5
14.9465 0.98549998 0.83700001 5
14.9825 0.99150002 0.85100001 5
14.9455 0.9835 0.82200003 5
14.9455 0.98549998 0.83600003 5
14.9575 0.9835 0.81699997 5
14.9915 0.98949999 0.838 5
14.9335 0.9835 0.829 5
15.0025 0.99349999 0.85299999 5
14.9465 0.98650002 0.83999997 5
14.9325 0.98549998 0.83999997 5
14.9875 0.99150002 0.84899998 5
14.9195 0.98549998 0.847 5
14.9295 0.98650002 0.84899998 5
14.9965 0.98949999 0.838 5
14.9245 0.98250002 0.82999998 5
14.9585 0.9885 0.84799999 5
14.9515 0.98750001 0.84600002 5
14.9285 0.9795 0.81199998 5
14.9555 0.9885 0.847 5
14.9125 0.9795 0.81900001 5
14.9655 0.98750001 0.83899999 5
15.0235 0.99449998 0.85100001 5
14.9425 0.9885 0.87400001 5
15.0185 0.99349999 0.86799997 5
14.9735 0.98549998 0.92900002 5
14.9615 0.98250002 0.95999998 5
14.9595 0.98549998 0.92000002 5
14.9455 0.98650002 0.89899999 5
14.9785 0.98549998 0.93599999 5
14.9435 0.98750001 0.88700002 5
14.9865 0.98650002 0.921 5
14.9555 0.98949999 0.86799997 5
15.0145 0.99150002 0.87900001 5
14.9755 0.98949999 0.88099998 5
14.9865 0.9885 0.90399998 5
14.9705 0.98949999 0.87199998 5
14.9905 0.9885 0.903 5
14.9435 0.98549998 0.91100001 5
14.9405 0.98549998 0.90799999 5
14.9925 0.9885 0.91000003 5
14.9615 0.98949999 0.87 5
14.9695 0.98650002 0.91900003 5
14.9595 0.98549998 0.91900003 5
14.9395 0.98750001 0.88499999 5
14.9485 0.98949999 0.86000001 5
15.0055 0.99049997 0.88700002 5
14.9775 0.98549998 0.93699998 5
14.9555 0.98549998 0.91900003 5
15.0085 0.99250001 0.87300003 5
14.9625 0.98650002 0.91000003 5
15.0195 0.99349999 0.86000001 5
14.9675 0.98250002 0.958 5
14.9795 0.98750001 0.91500002 5
14.9725 0.99049997 0.86900002 5
15.0145 0.99250001 0.86699998 5
14.9435 0.9885 0.86299998 5
14.9775 0.98750001 0.91299999 5
14.9855 0.99049997 0.87800002 5
14.9565 0.9885 0.88499999 5
14.9685 0.9835 0.95599997 5
14.9575 0.98750001 0.88800001 5
15.0205 0.99349999 0.86900002 5
14.9755 0.98650002 0.91500002 5
14.9935 0.9885 0.90899998 5
14.9885 0.98949999 0.889 5
14.9895 0.99049997 0.87300003 5
14.9835 0.98949999 0.88700002 5
15.0025 0.99250001 0.866 5
14.9855 0.98650002 0.93099999 5
14.9895 0.98750001 0.91900003 5
14.9405 0.98549998 0.89999998 5
14.9495 0.98549998 0.912 5
14.9905 0.98750001 0.92000002 5
14.9815 0.98549998 0.93099999 5
14.9835 0.98650002 0.93000001 5
15.0055 0.99250001 0.86699998 5
14.9785 0.98449999 0.94099998 5
14.9465 0.98650002 0.89099997 5
14.9895 0.9885 0.89999998 5
14.9245 0.98750001 0.86699998 5
14.9595 0.98750001 0.89999998 5
14.9375 0.98650002 0.89499998 5
14.9415 0.98549998 0.91100001 5
15.0195 0.97850001 0.991 5
15.0005 0.98750001 1.01 5
14.9955 0.98049998 0.986 5
15.0205 0.97850001 0.99299997 5
15.0165 0.98049998 0.99599999 5
14.9835 0.98250002 0.98699999 5
15.0165 0.98150003 1.001 5
14.9955 0.9835 0.99699998 5
15.0245 0.97850001 0.995 5
15.0025 0.98650002 1.0089999 5
15.0115 0.9835 1.0039999 5
15.0025 0.98150003 0.991 5
14.9605 0.9885 1.005 5
14.9815 0.98949999 1.016 5
14.9495 0.99150002 1.016 5
14.9635 0.99049997 1.015 5
14.9525 0.99049997 1.013 5
14.9725 0.9885 1.011 5
14.9855 0.98650002 1.0039999 5
14.9785 0.98449999 0.991 5
14.9475 0.99349999 1.026 5
14.9535 0.98949999 1.0089999 5
14.9685 0.98750001 1.005 5
14.9645 0.98650002 0.99599999 5
14.9875 0.98750001 1.006 5
14.9575 0.9885 1.007 5
14.9765 0.99049997 1.018 5
14.9625 0.98250002 0.97399998 5
14.9725 0.9835 0.98199999 5
14.9665 0.99049997 1.016 5
15.0185 0.92150003 0.713 5
14.9965 0.98049998 0.71100003 5
14.9535 1.0595 0.73400003 5
15.0025 0.96749997 0.708 5
14.9975 0.96749997 0.71799999 5
14.9815 0.99949998 0.72600001 5
14.9915 0.98949999 0.713 5
15.0065 0.94450003 0.71899998 5
14.9935 0.9795 0.71700001 5
14.9925 0.98750001 0.713 5
14.9985 0.97549999 0.70999998 5
15.0295 0.91350001 0.69599998 5
14.9785 1.0135 0.72100002 5
14.9775 1.0185 0.72000003 5
15.0275 0.91750002 0.69800001 5
15.0105 0.94849998 0.70700002 5
15.0025 0.9655 0.70899999 5
15.0055 0.96649998 0.70300001 5
15.0135 0.92949998 0.71700001 5
15.0175 0.9285 0.70899999 5
15.0225 0.93650001 0.69300002 5
15.0025 0.95850003 0.71600002 5
14.9895 0.99250001 0.71499997 5
14.9815 1.0085 0.71700001 5
15.0135 0.93049997 0.71700001 5
15.0205 0.92650002 0.704 5
14.9915 0.98650002 0.71600002 5
15.0245 0.91949999 0.70099998 5
15.0035 0.98750001 0.91900003 5
15.0055 0.98150003 0.96700001 5
15.0185 0.9835 0.949 5
15.0085 0.98650002 0.92299998 5
15.0095 0.98650002 0.92400002 5
15.0145 0.97850001 0.986 5
15.0225 0.99250001 0.87300003 5
15.0115 0.98150003 0.96200001 5
15.0265 0.98250002 0.95599997 5
15.0215 0.98750001 0.91500002 5
15.0325 0.98549998 0.93099999 5
15.0025 0.9795 0.98000002 5
15.0295 0.98750001 0.91399997 5
15.0295 0.98750001 0.91500002 5
15.0175 0.9795 0.98400003 5
15.0335 0.98250002 0.95200002 5
15.0115 0.9885 0.912 5
15.0105 0.98150003 0.96700001 5
15.0065 0.98549998 0.93599999 5
14.9895 0.98250002 0.958 5
14.9855 0.98549998 0.94099998 5
15.0235 0.9835 0.94499999 5
15.0075 0.98750001 0.91600001 5
14.9935 0.98250002 0.958 5
15.0105 0.98250002 0.95700002 5
14.9825 0.98150003 0.972 5
15.0235 0.99349999 0.866 5
15.0225 0.9885 0.90700001 5
15.0315 0.9885 0.90899998 5
15.0265 0.98150003 0.96499997 5
14.9695 0.98250002 0.96600002 5
14.9935 0.9835 0.94800001 5
15.0215 0.99150002 0.88 5
15.0035 0.98049998 0.97500002 5
15.0085 0.98650002 0.92799997 5
14.9965 0.98650002 0.92299998 5
15.0295 0.9835 0.94499999 5
14.9795 0.98150003 0.96899998 5
14.9875 0.98549998 0.93800002 5
15.0195 0.98650002 0.926 5
14.9865 0.98650002 0.93300003 5
14.9995 0.98650002 0.92699999 5
15.0315 0.98449999 0.935 5
15.0075 0.98750001 0.91600001 5
14.9975 0.98549998 0.93599999 5
15.0315 0.99049997 0.88999999 5
15.0275 0.98750001 0.917 5
15.0195 0.98949999 0.89999998 5
15.0235 0.98650002 0.92299998 5
15.0285 0.98150003 0.95899999 5
15.0165 0.98949999 0.89899999 5
15.0725 0.91250002 1.335 5
15.0365 1.0085 1.323 5
15.0545 0.95050001 1.327 5
15.0315 1.0575 1.326 5
15.0525 0.95850003 1.327 5
15.0605 0.93650001 1.329 5
15.0545 0.99150002 1.3329999 5
15.0285 1.0555 1.324 5
15.0615 0.9375 1.33 5
15.0675 0.8955 1.329 5
15.0705 0.90249997 1.332 5
15.0565 0.95550001 1.329 5
15.0505 1.0115 1.3329999 5
15.0695 0.8725 1.327 5
15.0435 0.9795 1.324 5
15.0515 1.0135 1.334 5
15.0545 0.97549999 1.331 5
15.0785 0.8215 1.326 5
15.0525 0.94550002 1.325 5
15.0535 0.96350002 1.329 5
15.0695 0.91649997 1.3329999 5
15.0605 0.88450003 1.323 5
15.0735 0.8585 1.3279999 5
15.0625 0.88849998 1.324 5
15.0715 0.8955 1.332 5
15.0595 0.8915 1.323 5
15.0615 0.94050002 1.331 5
15.0415 0.9835 1.323 5
15.0465 0.97649997 1.325 5
15.0655 0.9235 1.332 5
15.0645 0.94550002 1.3329999 5
15.0625 0.95249999 1.3329999 5
15.0715 0.9325 1.336 5
15.0505 0.94950002 1.324 5
15.0595 0.90649998 1.325 5
15.0265 1.0714999 1.324 5
15.0785 0.84750003 1.33 5
15.0715 0.95649999 1.34 5
15.0735 0.88950002 1.332 5
15.0575 0.93849999 1.3279999 5
15.0445 0.9975 1.327 5
15.0335 1.0425 1.326 5
15.0595 0.9375 1.329 5
15.0665 0.94749999 1.335 5
15.0425 0.98150003 1.323 5
15.0635 0.86949998 1.323 5
15.0425 0.98150003 1.323 5
15.0705 0.83850002 1.323 5
15.0495 0.9835 1.329 5
15.0485 0.99849999 1.33 5
15.0795 0.81950003 1.327 5
15.0705 0.89349997 1.331 5
15.0625 0.91250002 1.3279999 5
15.0645 0.95749998 1.335 5
15.0645 0.94150001 1.3329999 5
15.0375 1.0005 1.323 5
15.0645 0.98250002 1.339 5
15.0645 0.9325 1.332 5
15.0765 0.84249997 1.3279999 5
15.0445 1.0805 1.337 5
15.0725 0.98750001 1.344 5
15.0665 1.0775 1.35 5
15.0815 1.0325 1.354 5
15.0645 1.0565 1.347 5
