# .PCD v0.7 - Point Cloud Data file format
VERSION 0.7
FIELDS x y z label
SIZE 4 4 4 4
TYPE F F F U
COUNT 1 1 1 1
WIDTH 1610
HEIGHT 1
VIEWPOINT 0 0 0 1 0 0 0
POINTS 1610
DATA ascii
19.4415 2.1754999 0.44100001 2
19.519501 2.1775 0.45300001 2
19.435499 2.1245 0.43900001 2
19.4515 2.2065001 0.44299999 2
19.5035 2.2465 0.45100001 2
19.4715 2.2175 0.44600001 2
19.487499 2.2544999 0.44800001 2
19.4825 2.2325001 0.44800001 2
19.425501 2.1375 0.43799999 2
19.474501 2.1635001 0.44600001 2
19.5215 2.2205 0.45300001 2
19.460501 2.1375 0.44299999 2
19.490499 2.2205 0.449 2
19.4925 2.1724999 0.44800001 2
19.4695 2.1424999 0.44499999 2
19.495501 2.2765 0.44999999 2
19.494499 2.2625 0.44999999 2
19.4935 2.3125 0.44999999 2
19.518499 2.2685001 0.45300001 2
19.511499 2.2244999 0.45199999 2
19.428499 2.1605 0.43900001 2
19.512501 2.1485 0.45100001 2
19.5075 2.2865 0.45199999 2
19.453501 2.1585 0.442 2
19.445499 2.1315 0.44100001 2
19.4855 2.1884999 0.447 2
19.536501 2.1684999 0.45500001 2
19.449499 2.1275001 0.44100001 2
19.495501 2.2035 0.449 2
19.5065 2.2955 0.45199999 2
19.480499 2.1635001 0.447 2
19.5105 2.2804999 0.45199999 2
19.4475 2.1935 0.442 2
19.446501 2.1895001 0.442 2
19.498501 2.2205 0.44999999 2
19.4925 2.1784999 0.44800001 2
19.431499 2.1394999 0.43900001 2
19.4855 2.2175 0.44800001 2
19.474501 2.2325001 0.44600001 2
19.5245 2.1635001 0.45300001 2
19.508499 2.3065 0.45199999 2
19.4585 2.2135 0.44400001 2
19.5065 2.2945001 0.45199999 2
19.484501 2.1765001 0.447 2
19.5275 2.1945 0.454 2
19.481501 2.1995001 0.447 2
19.4615 2.1945 0.44400001 2
19.449499 2.1724999 0.442 2
19.435499 2.1255 0.43900001 2
19.467501 2.1884999 0.44499999 2
19.490499 2.2995 0.449 2
19.442499 2.1465001 0.44100001 2
19.4555 2.2184999 0.44299999 2
19.4865 2.1875 0.44800001 2
19.4935 2.2495 0.449 2
19.5235 2.2405 0.454 2
19.466499 2.1424999 0.44400001 2
19.4685 2.2145 0.44499999 2
19.501499 2.1465001 0.449 2
19.4865 2.1535001 0.447 2
19.473499 2.2655001 0.447 2
19.4475 2.1394999 0.44100001 2
19.4695 2.2435 0.44600001 2
19.490499 2.2795 0.449 2
19.5215 2.2395 0.45300001 2
19.4685 2.1805 0.44499999 2
19.497499 2.2565 0.44999999 2
19.522499 2.2355001 0.454 2
19.515499 2.1884999 0.45199999 2
19.484501 2.2715001 0.44800001 2
19.508499 2.3055 0.45199999 2
19.512501 2.1765001 0.45100001 2
19.508499 2.1735001 0.45100001 2
19.5005 2.2614999 0.45100001 2
19.4765 2.1364999 0.44600001 2
19.467501 2.2105 0.44499999 2
19.446501 2.1494999 0.44100001 2
19.505501 2.2195001 0.45100001 2
19.488501 2.2844999 0.449 2
19.497499 2.3204999 0.45100001 2
19.4655 2.2385001 0.44499999 2
19.4855 2.1975 0.44800001 2
19.5215 2.1535001 0.45300001 2
19.4935 2.1805 0.449 2
19.470501 2.1494999 0.44499999 2
19.4965 2.2065001 0.449 2
19.484501 2.2635 0.44800001 2
19.484501 2.1624999 0.447 2
19.5305 2.1954999 0.454 2
19.474501 2.1535001 0.44499999 2
19.508499 2.2804999 0.45199999 2
19.459499 2.1805 0.44299999 2
19.439501 2.1485 0.44 2
19.5315 2.0095 0.50800002 2
19.5035 2.0425 0.53399998 2
19.529499 2.0085001 0.51099998 2
19.504499 2.0504999 0.53299999 2
19.529499 2.0125 0.51099998 2
19.5275 2.0105 0.51300001 2
19.497499 2.0574999 0.53899997 2
19.5235 2.0144999 0.51700002 2
19.509501 2.0445001 0.528 2
19.511499 2.0374999 0.52600002 2
19.497499 2.0734999 0.54100001 2
19.5205 2.0434999 0.51899999 2
19.497499 2.0855 0.54299998 2
19.5075 2.0515001 0.52899998 2
19.519501 2.0764999 0.52700001 2
19.5205 2.0395 0.51800001 2
19.495501 2.0715001 0.542 2
19.497499 2.0655 0.53899997 2
19.5165 2.0834999 0.53100002 2
19.509501 2.0715001 0.53299999 2
19.5165 2.0555 0.52399999 2
19.4895 2.0834999 0.54900002 2
19.505501 2.0555 0.53200001 2
19.4925 2.0734999 0.54400003 2
19.497499 2.0855 0.54400003 2
19.5215 2.0545001 0.52100003 2
19.5075 2.0855 0.53600001 2
19.519501 2.0595 0.523 2
19.515499 2.1155 0.51800001 2
19.5175 2.1055 0.52399999 2
19.515499 2.1155 0.51899999 2
19.522499 2.1034999 0.51599997 2
19.5075 2.1235001 0.52899998 2
19.505501 2.1485 0.51300001 2
19.491501 2.1635001 0.52700001 2
19.4855 2.1765001 0.52899998 2
19.494499 2.1615 0.52499998 2
19.5005 2.1475 0.52200001 2
19.5075 2.1375 0.51700002 2
19.4835 2.1775 0.53200001 2
19.5035 2.1364999 0.52600002 2
19.515499 2.1285 0.50800002 2
19.5145 2.1155 0.52100003 2
19.502501 2.1375 0.52600002 2
19.522499 2.1125 0.50800002 2
19.504499 2.1475 0.51599997 2
19.511499 2.1185 0.52399999 2
19.519501 2.1264999 0.50199997 2
19.570499 2.1275001 0.456 2
19.550501 2.1335001 0.463 2
19.567499 2.1164999 0.465 2
19.554501 2.1385 0.45899999 2
19.556499 2.1224999 0.46599999 2
19.570499 2.0755 0.48699999 2
19.568501 2.1424999 0.449 2
19.560499 2.1364999 0.45699999 2
19.563499 2.1015 0.47499999 2
19.5495 2.1524999 0.45300001 2
19.5695 2.0815001 0.484 2
19.5695 2.0905001 0.479 2
19.557501 2.1465001 0.45199999 2
19.567499 2.0994999 0.47400001 2
19.5595 2.1415 0.454 2
19.5445 2.1445 0.46000001 2
19.557501 2.1375 0.45699999 2
19.560499 2.1315 0.48800001 2
19.570499 2.1255 0.48300001 2
19.567499 2.1235001 0.48300001 2
19.568501 2.1175001 0.48100001 2
19.560499 2.1185 0.484 2
19.529499 2.1224999 0.493 2
19.5455 2.1205001 0.48800001 2
19.5625 2.1224999 0.484 2
19.5075 2.1594999 0.51499999 2
19.543501 2.1465001 0.49900001 2
19.5315 2.1305001 0.49599999 2
19.525499 2.1335001 0.498 2
19.5305 2.1445 0.50199997 2
19.526501 2.1445 0.50300002 2
19.511499 2.1485 0.509 2
19.526501 2.1385 0.50099999 2
19.5625 2.1394999 0.49000001 2
19.526501 2.1494999 0.505 2
19.5495 2.1355 0.49200001 2
19.5455 2.1435001 0.49700001 2
19.533501 2.1364999 0.49700001 2
19.5525 2.1355 0.49200001 2
19.5205 2.1594999 0.51099998 2
19.557501 2.1515 0.49700001 2
19.5235 2.1285 0.49700001 2
19.5145 2.1515 0.50999999 2
19.526501 2.1524999 0.50599998 2
19.557501 2.1345 0.49000001 2
19.556499 2.1494999 0.49599999 2
19.5105 2.1494999 0.50999999 2
19.5525 2.1345 0.491 2
19.5375 2.1445 0.5 2
19.5625 2.1405001 0.491 2
19.5135 2.1485 0.509 2
19.5165 2.1914999 0.51999998 2
19.536501 2.1914999 0.51200002 2
19.5145 2.1745 0.51800001 2
19.563499 2.1954999 0.50199997 2
19.5665 2.1615 0.49599999 2
19.5315 2.2105 0.51700002 2
19.5165 2.1965001 0.52100003 2
19.547501 2.2135 0.51099998 2
19.5595 2.1925001 0.50300002 2
19.5525 2.2214999 0.50999999 2
19.5315 2.2045 0.51599997 2
19.533501 2.1765001 0.51099998 2
19.5525 2.1715 0.50300002 2
19.5485 2.1895001 0.50700003 2
19.564501 2.1984999 0.50199997 2
19.556499 2.2165 0.50800002 2
19.560499 2.1565001 0.49700001 2
19.543501 2.1605 0.505 2
19.5495 2.2045 0.509 2
19.525499 2.1835001 0.51499999 2
19.5005 2.1775 0.52399999 2
19.571501 2.1494999 0.49200001 2
19.561501 2.1905 0.50199997 2
19.5275 2.1815 0.514 2
19.563499 2.2244999 0.50599998 2
19.550501 2.2135 0.50999999 2
19.5725 2.1515 0.49200001 2
19.5105 2.1914999 0.523 2
19.570499 2.1635001 0.49399999 2
19.556499 2.2155001 0.50700003 2
19.539499 2.2054999 0.51300001 2
19.5485 2.1605 0.50300002 2
19.5695 2.2235 0.50300002 2
19.5665 2.2005 0.50099999 2
19.5385 2.2125001 0.514 2
19.560499 2.2175 0.50599998 2
19.5555 2.2155001 0.50800002 2
19.5665 2.1884999 0.49900001 2
19.5695 2.1505001 0.493 2
19.4825 2.2084999 0.53600001 2
19.5165 2.2114999 0.523 2
19.4895 2.2095001 0.53399998 2
19.5445 2.2514999 0.51800001 2
19.491501 2.2695 0.54100001 2
19.533501 2.2535 0.52200001 2
19.504499 2.2335 0.53100002 2
19.487499 2.2405 0.53899997 2
19.5655 2.2514999 0.509 2
19.4835 2.2574999 0.54299998 2
19.4855 2.2605 0.542 2
19.5145 2.2244999 0.52499998 2
19.5285 2.2244999 0.51999998 2
19.533501 2.2305 0.51899999 2
19.547501 2.2325001 0.51300001 2
19.4935 2.2395 0.53600001 2
19.502501 2.2585001 0.53500003 2
19.497499 2.2135 0.53100002 2
19.5135 2.2425001 0.528 2
19.495501 2.2355001 0.53500003 2
19.5345 2.2425001 0.51999998 2
19.529499 2.2444999 0.52200001 2
19.4965 2.1984999 0.52899998 2
19.5175 2.2555001 0.52899998 2
19.5445 2.2265 0.514 2
19.4825 2.2344999 0.54000002 2
19.495501 2.2355001 0.53500003 2
19.5235 2.2425001 0.52399999 2
19.498501 2.2535 0.53600001 2
19.5165 2.2314999 0.52600002 2
19.526501 2.2365 0.523 2
19.488501 2.1895001 0.53100002 2
19.487499 2.2025001 0.53299999 2
19.494499 2.2704999 0.54000002 2
19.4855 2.2155001 0.53600001 2
19.494499 2.2045 0.53100002 2
19.509501 2.2585001 0.53200001 2
19.490499 2.2105 0.53299999 2
19.487499 2.1945 0.53200001 2
19.502501 2.2544999 0.53399998 2
19.5105 2.2244999 0.52700001 2
19.502501 2.2095001 0.528 2
19.5215 2.2544999 0.52700001 2
19.554501 2.2495 0.51300001 2
19.4995 2.2485001 0.53500003 2
19.5595 2.2275 0.50800002 2
19.525499 2.2214999 0.52100003 2
19.4865 2.2275 0.537 2
19.4895 2.2095001 0.53399998 2
19.491501 2.2025001 0.53200001 2
19.491501 2.1965001 0.53100002 2
19.505501 2.2065001 0.52700001 2
19.5035 2.2574999 0.53399998 2
19.5425 2.2335 0.51599997 2
19.522499 2.2325001 0.523 2
19.5135 2.2934999 0.53600001 2
19.567499 2.2725 0.51200002 2
19.515499 2.3004999 0.537 2
19.512501 2.2735 0.53299999 2
19.5345 2.3074999 0.52999997 2
19.554501 2.2795 0.51800001 2
19.5495 2.2965 0.523 2
19.560499 2.2625 0.51300001 2
19.495501 2.2885001 0.54299998 2
19.550501 2.3065 0.52399999 2
19.553499 2.2644999 0.51599997 2
19.5385 2.2985001 0.52700001 2
19.5285 2.2895 0.52999997 2
19.5375 2.3104999 0.52899998 2
19.550501 2.2765 0.51899999 2
19.5145 2.2825 0.53399998 2
19.533501 2.2765 0.52600002 2
19.532499 2.2655001 0.52399999 2
19.543501 2.2895 0.52399999 2
19.5175 2.2755001 0.53200001 2
19.5655 2.2785001 0.51300001 2
19.5595 2.2595 0.51300001 2
19.4855 2.2774999 0.54400003 2
19.561501 2.2765 0.51499999 2
19.5485 2.2915001 0.52200001 2
19.532499 2.2795 0.52700001 2
19.533501 2.2835 0.52700001 2
19.508499 2.2825 0.537 2
19.546499 2.2755001 0.52100003 2
19.5175 2.2744999 0.53200001 2
19.4995 2.2765 0.53899997 2
19.550501 2.2804999 0.51999998 2
19.5375 2.2605 0.52100003 2
19.5385 2.3034999 0.528 2
19.5175 2.3055 0.537 2
19.519501 2.2795 0.53200001 2
19.5555 2.2874999 0.51899999 2
19.5285 2.2885001 0.52999997 2
19.556499 2.2785001 0.51700002 2
19.568501 2.2535 0.50800002 2
19.5595 2.1594999 0.45500001 2
19.5515 2.1554999 0.45300001 2
19.547501 2.1554999 0.454 2
19.5665 2.1524999 0.449 2
19.5445 2.1565001 0.45500001 2
19.561501 2.1565001 0.45300001 2
19.5695 2.2184999 0.43200001 2
19.570499 2.1954999 0.44499999 2
19.564501 2.2005 0.44100001 2
19.571501 2.2035 0.44100001 2
19.5655 2.2175 0.43200001 2
19.568501 2.2195001 0.43200001 2
19.561501 2.2155001 0.43099999 2
19.570499 2.2125001 0.43599999 2
19.563499 2.2195001 0.43000001 2
19.571501 2.1995001 0.44299999 2
19.5655 2.2135 0.43399999 2
19.564501 2.2135 0.433 2
19.5665 2.2095001 0.43599999 2
19.568501 2.1745 0.45500001 2
19.5515 2.1615 0.45699999 2
19.567499 2.2665 0.419 2
19.536501 2.2815001 0.43900001 2
19.5315 2.2544999 0.44600001 2
19.547501 2.2755001 0.43200001 2
19.563499 2.2725 0.421 2
19.5455 2.2385001 0.43900001 2
19.547501 2.2815001 0.43200001 2
19.525499 2.3104999 0.44299999 2
19.533501 2.2755001 0.442 2
19.5375 2.2915001 0.43700001 2
19.536501 2.2765 0.43900001 2
19.5135 2.3234999 0.449 2
19.5285 2.2535 0.449 2
19.5495 2.1975 0.442 2
19.5515 2.2715001 0.43000001 2
19.550501 2.2084999 0.44 2
19.533501 2.3004999 0.43799999 2
19.5145 2.2995 0.45199999 2
19.522499 2.2885001 0.44800001 2
19.5315 2.2895 0.442 2
19.5415 2.1745 0.45199999 2
19.5375 2.2214999 0.447 2
19.557501 2.2175 0.43399999 2
19.5445 2.1795001 0.449 2
19.5285 2.2505 0.449 2
19.571501 2.2474999 0.419 2
19.5415 2.2685001 0.43700001 2
19.515499 2.2965 0.45199999 2
19.5525 2.2205 0.43700001 2
19.557501 2.2405 0.43000001 2
19.5525 2.2595 0.43099999 2
19.5425 2.1895001 0.449 2
19.5235 2.2945001 0.44600001 2
19.526501 2.3134999 0.44100001 2
19.536501 2.2665 0.44100001 2
19.5345 2.2655001 0.44299999 2
19.5425 2.2825 0.435 2
19.550501 2.2695 0.43000001 2
19.5345 2.2825 0.44100001 2
19.546499 2.2444999 0.43700001 2
19.5495 2.2284999 0.43799999 2
19.519501 2.2874999 0.44999999 2
19.539499 2.2395 0.44299999 2
19.5285 2.3104999 0.44100001 2
19.540501 2.2314999 0.44400001 2
19.557501 2.2765 0.42500001 2
19.533501 2.3015001 0.43799999 2
19.529499 2.2835 0.44299999 2
19.515499 2.2904999 0.45300001 2
19.5285 2.2825 0.44499999 2
19.5415 2.2114999 0.44600001 2
19.5315 2.2284999 0.44999999 2
19.554501 2.2785001 0.42699999 2
19.5215 2.3134999 0.44499999 2
19.5495 2.2605 0.43200001 2
19.5555 2.2635 0.428 2
19.529499 2.2325001 0.45100001 2
19.526501 2.2755001 0.447 2
19.5105 2.3315001 0.44999999 2
19.550501 2.2025001 0.44100001 2
19.556499 2.2605 0.428 2
19.5175 2.3055 0.449 2
19.5495 2.2625 0.43200001 2
19.5625 2.2715001 0.42199999 2
19.525499 2.3204999 0.44100001 2
19.564501 2.2815001 0.42199999 2
19.5385 2.3275001 0.43799999 2
19.5585 2.3175001 0.43000001 2
19.5345 2.3204999 0.43799999 2
19.536501 2.3295 0.43900001 2
19.5625 2.3175001 0.42899999 2
19.560499 2.2965 0.426 2
19.5625 2.2915001 0.42399999 2
19.5345 2.3245001 0.43900001 2
19.560499 2.3065 0.428 2
19.5525 2.3125 0.43099999 2
19.5585 2.3045001 0.428 2
19.5415 2.3164999 0.435 2
19.5555 2.3055 0.42899999 2
19.529499 2.3234999 0.44 2
19.5555 2.3104999 0.43000001 2
19.5585 2.3015001 0.42699999 2
19.5665 2.0515001 0.602 2
19.5665 2.0044999 0.58700001 2
19.5665 2.0105 0.57999998 2
19.5665 2.0215001 0.58399999 2
19.5665 2.0445001 0.60900003 2
19.5665 2.0585001 0.597 2
19.5665 2.0274999 0.60500002 2
19.5665 2.0204999 0.59600002 2
19.5665 2.0645001 0.59899998 2
19.5665 2.0534999 0.59500003 2
19.5665 2.0515001 0.60299999 2
19.5665 2.0255001 0.59600002 2
19.5665 2.0135 0.58999997 2
19.5665 2.0585001 0.583 2
19.5665 2.0235 0.59200001 2
19.5665 2.0325 0.58499998 2
19.5665 2.0515001 0.58999997 2
19.5665 2.0114999 0.58600003 2
19.5665 2.0685 0.59399998 2
19.5725 2.1075001 0.54799998 2
19.5725 2.1135001 0.54000002 2
19.5725 2.1145 0.53799999 2
19.571501 2.0845001 0.57300001 2
19.5725 2.0945001 0.56199998 2
19.567499 2.0915 0.579 2
19.571501 2.1025 0.574 2
19.5725 2.1175001 0.55400002 2
19.5725 2.1005001 0.57800001 2
19.5735 1.9744999 0.56699997 2
19.5735 1.9805 0.56300002 2
19.567499 2.0025001 0.574 2
19.567499 1.9995 0.574 2
19.5725 2.0074999 0.56699997 2
19.5735 2.0025001 0.565 2
19.570499 1.9935 0.56900001 2
19.5665 2.0325 0.579 2
19.5725 1.9965 0.56599998 2
19.568501 2.0044999 0.57200003 2
19.571501 1.9895 0.56599998 2
19.5625 1.8875 0.032000002 2
19.5695 1.8954999 0.032000002 2
19.570499 1.8965 0.032000002 2
19.550501 1.9035 0.030999999 2
19.561501 1.9005001 0.032000002 2
19.5495 1.9035 0.030999999 2
19.5665 1.8975 0.032000002 2
19.550501 1.9085 0.035 2
19.519501 1.9135 0.032000002 2
19.512501 1.9155 0.030999999 2
19.5625 1.9055001 0.035999998 2
19.5315 1.9065 0.030999999 2
19.533501 1.9075 0.032000002 2
19.5555 1.9045 0.033 2
19.5425 1.9085 0.034000002 2
19.5375 1.9135 0.033 2
19.557501 1.9095 0.035999998 2
19.536501 1.9145 0.033 2
19.5445 1.9155 0.033 2
19.5735 1.8785 0.033 2
19.5655 1.8655 0.033 2
19.4785 2.3735001 0.64499998 2
19.481501 2.3575001 0.70300001 2
19.477501 2.3755 0.63800001 2
19.495501 2.3715 0.64499998 2
19.4725 2.3694999 0.66100001 2
19.4925 2.3724999 0.64200002 2
19.490499 2.3575001 0.69999999 2
19.494499 2.3685 0.65799999 2
19.4895 2.3735001 0.64200002 2
19.502501 2.3664999 0.662 2
19.502501 2.3694999 0.64899999 2
19.494499 2.3635001 0.67400002 2
19.463499 2.3764999 0.63599998 2
19.4865 2.3594999 0.69400001 2
19.494499 2.3715 0.64399999 2
19.4755 2.3635001 0.68099999 2
19.4645 2.3764999 0.63700002 2
19.504499 2.3685 0.65499997 2
19.490499 2.3585 0.69400001 2
19.4865 2.3705001 0.65100002 2
19.477501 2.3645 0.676 2
19.484501 2.3525 0.71700001 2
19.4785 2.3715 0.65200001 2
19.5205 2.3724999 0.63499999 2
19.5175 2.3764999 0.625 2
19.529499 2.3625 0.66600001 2
19.547501 2.3395 0.73799998 2
19.519501 2.3745 0.63 2
19.5345 2.3525 0.69800001 2
19.5175 2.3764999 0.62199998 2
19.525499 2.3694999 0.64399999 2
19.5215 2.3594999 0.67699999 2
19.5105 2.3705001 0.64499998 2
19.5165 2.3664999 0.65499997 2
19.5375 2.3494999 0.70700002 2
19.5285 2.3295 0.75099999 2
19.5385 2.3295 0.75199997 2
19.536501 2.3145001 0.76899999 2
19.5425 2.3295 0.75199997 2
19.5425 2.3085001 0.77600002 2
19.536501 2.3255 0.75700003 2
19.5495 2.3015001 0.78500003 2
19.5425 2.3375001 0.74199998 2
19.487499 2.3505001 0.72399998 2
19.5215 2.3204999 0.76099998 2
19.5035 2.3385 0.73900002 2
19.5375 2.3164999 0.76599997 2
19.526501 2.3415 0.73699999 2
19.5205 2.3395 0.73900002 2
19.525499 2.3255 0.755 2
19.5445 2.3255 0.75700003 2
19.5175 2.3295 0.75 2
19.511499 2.3425 0.73400003 2
19.5375 2.3375001 0.74199998 2
19.539499 2.3065 0.778 2
19.4825 2.3794999 0.62400001 2
19.4965 2.3785 0.62300003 2
19.4995 2.3735001 0.63599998 2
19.4895 2.3775001 0.62800002 2
19.5075 2.3715 0.64300001 2
19.5035 2.3724999 0.64099997 2
19.5065 2.3775001 0.62400001 2
19.5105 2.3764999 0.62400001 2
19.512501 2.3775001 0.62099999 2
19.5075 2.3475001 0.72500002 2
19.494499 2.3534999 0.71200001 2
19.529499 2.3485 0.71200001 2
19.497499 2.3564999 0.69800001 2
19.526501 2.3445001 0.72899997 2
19.5005 2.3605001 0.68400002 2
19.5065 2.3585 0.68699998 2
19.5275 2.3445001 0.727 2
19.501499 2.3534999 0.70700002 2
19.539499 2.3405001 0.73699999 2
19.5145 2.3575001 0.68800002 2
19.512501 2.3625 0.67199999 2
19.511499 2.3534999 0.70499998 2
19.5235 2.3494999 0.713 2
19.504499 2.3655 0.66500002 2
19.509501 2.3675001 0.65700001 2
19.5175 2.3464999 0.72600001 2
19.5305 2.3445001 0.72600001 2
19.540501 2.3415 0.73400003 2
19.494499 2.3515 0.71799999 2
19.519501 2.3575001 0.685 2
19.5355 2.3405001 0.73799998 2
19.504499 2.3635001 0.67199999 2
19.5065 2.3564999 0.69599998 2
19.5065 2.3555 0.69800001 2
19.5375 2.3445001 0.72399998 2
19.4895 2.3515 0.722 2
19.501499 2.3585 0.68900001 2
19.571501 2.2825 0.78799999 2
19.5665 2.2725 0.796 2
19.5555 2.2904999 0.79100001 2
19.567499 2.3045001 0.77700001 2
19.568501 2.2915001 0.78399998 2
19.563499 2.2695 0.79900002 2
19.5625 2.2904999 0.78799999 2
19.5695 2.2614999 0.80000001 2
19.563499 2.3134999 0.77100003 2
19.571501 2.3255 0.75700003 2
19.5585 2.3104999 0.77399999 2
19.5655 2.3285 0.75300002 2
19.557501 2.3175001 0.76599997 2
19.5525 2.3065 0.77899998 2
19.5585 2.3175001 0.76599997 2
19.571501 2.2985001 0.56699997 2
19.563499 2.3115001 0.54900002 2
19.5585 2.3085001 0.55599999 2
19.550501 2.3145001 0.54900002 2
19.5595 2.3074999 0.55699998 2
19.553499 2.2955 0.57800001 2
19.540501 2.3204999 0.542 2
19.553499 2.3145001 0.54699999 2
19.5595 2.2965 0.574 2
19.539499 2.3204999 0.54299998 2
19.568501 2.3095 0.54900002 2
19.5555 2.3175001 0.542 2
19.557501 2.2955 0.57700002 2
19.567499 2.0945001 0.58200002 2
19.5695 2.1194999 0.57300001 2
19.5695 2.1255 0.57200003 2
19.571501 2.1064999 0.57800001 2
19.4655 1.9475 0.66399997 2
19.490499 1.9305 0.70300001 2
19.4695 1.9495 0.676 2
19.484501 1.9355 0.69599998 2
19.4725 1.9405 0.67400002 2
19.4715 1.9385 0.66500002 2
19.4825 1.9275 0.67699999 2
19.4695 1.9475 0.67400002 2
19.466499 1.9475 0.66600001 2
19.4795 1.9375 0.68599999 2
19.484501 1.9265 0.68199998 2
19.474501 1.9345 0.66900003 2
19.4825 1.9285001 0.68199998 2
19.4755 1.9325 0.667 2
19.487499 1.9395 0.70999998 2
19.4825 1.9385 0.69700003 2
19.460501 1.9485 0.65200001 2
19.4755 1.9315 0.667 2
19.4755 1.9315 0.66600001 2
19.4895 1.9385 0.71399999 2
19.4935 2.0185001 0.708 2
19.498501 2.0395 0.70899999 2
19.473499 1.9645 0.68300003 2
19.480499 1.9995 0.68400002 2
19.505501 2.0845001 0.704 2
19.4855 1.9825 0.70499998 2
19.5075 2.1205001 0.69099998 2
19.4835 1.9665 0.70899999 2
19.501499 2.0795 0.69800001 2
19.4795 1.9615 0.69999999 2
19.4855 2.0014999 0.69499999 2
19.480499 1.9525 0.70899999 2
19.5005 2.0804999 0.69499999 2
19.491501 1.9845001 0.72000003 2
19.480499 1.9715 0.69700003 2
19.477501 2.0044999 0.671 2
19.491501 2.0474999 0.68599999 2
19.480499 1.9515001 0.70700002 2
19.488501 1.9635 0.72399998 2
19.4825 1.9565001 0.70999998 2
19.497499 2.0834999 0.68300003 2
19.484501 1.9605 0.71399999 2
19.481501 1.9775 0.69700003 2
19.4765 1.9805 0.68300003 2
19.4795 2.0085001 0.676 2
19.4755 1.9775 0.68000001 2
19.480499 1.9555 0.70599997 2
19.498501 2.0875001 0.68300003 2
19.488501 2.0225 0.69099998 2
19.4935 2.0474999 0.69199997 2
19.4895 1.9865 0.713 2
19.4715 1.9585 0.68000001 2
19.5075 2.0895 0.708 2
19.488501 1.9995 0.70300001 2
19.505501 2.0775001 0.70999998 2
19.484501 2.0044999 0.68900001 2
19.463499 1.9535 0.66100001 2
19.501499 2.0534999 0.71100003 2
19.4795 2.0025001 0.67900002 2
19.5035 2.1005001 0.69 2
19.511499 2.1175001 0.704 2
19.4965 2.0474999 0.70099998 2
19.4865 2.0365 0.68000001 2
19.4825 1.9715 0.70200002 2
19.494499 2.0585001 0.69 2
19.5005 2.0595 0.70499998 2
19.4695 1.9885 0.65799999 2
19.4865 1.9525 0.72500002 2
19.4655 1.9595 0.66399997 2
19.498501 2.0695 0.69400001 2
19.490499 2.0285001 0.69400001 2
19.491501 1.9935 0.71499997 2
19.4785 1.9935 0.67900002 2
19.4725 1.9795001 0.67299998 2
19.4795 1.9795001 0.69199997 2
19.4925 2.0574999 0.68400002 2
19.4935 2.0425 0.69499999 2
19.491501 2.0395 0.69199997 2
19.509501 2.1055 0.70599997 2
19.511499 2.1294999 0.69700003 2
19.4655 1.9665 0.65799999 2
19.4755 1.9855 0.67699999 2
19.4865 2.0315001 0.68000001 2
19.4645 1.9715 0.65399998 2
19.4835 1.9905 0.69499999 2
19.467501 1.9555 0.67000002 2
19.477501 1.9675 0.69099998 2
19.4925 2.0025001 0.71399999 2
19.495501 2.0335 0.70499998 2
19.509501 2.1164999 0.69999999 2
19.4995 2.0895 0.685 2
19.4765 1.9924999 0.67500001 2
19.4765 2.0085001 0.66500002 2
19.498501 2.0545001 0.70099998 2
19.508499 2.1034999 0.70300001 2
19.502501 2.0764999 0.69999999 2
19.4965 2.0404999 0.704 2
19.5145 2.1415 0.699 2
19.5075 2.1085 0.69599998 2
19.5065 2.0815001 0.70999998 2
19.508499 2.1015 0.704 2
19.4725 1.9805 0.67199999 2
19.4925 2.0425 0.69099998 2
19.4865 1.9625 0.71899998 2
19.4995 2.0834999 0.69 2
19.5005 2.0825 0.69099998 2
19.4865 2.0274999 0.68400002 2
19.4755 1.9775 0.68099999 2
19.4755 1.9835 0.676 2
19.502501 2.0934999 0.69199997 2
19.459499 1.9315 0.56900001 2
19.4585 1.9505 0.64700001 2
19.481501 2.0204999 0.63700002 2
19.491501 2.0645001 0.67199999 2
19.4895 2.0504999 0.64300001 2
19.466499 1.9785 0.653 2
19.515499 2.1494999 0.69700003 2
19.5135 2.1415 0.69300002 2
19.5005 2.0964999 0.68000001 2
19.4585 1.9455 0.62599999 2
19.4825 2.0235 0.63700002 2
19.511499 2.1324999 0.68599999 2
19.5075 2.1194999 0.68699998 2
19.4935 2.0685 0.66799998 2
19.4725 1.9974999 0.65799999 2
19.4795 2.0204999 0.65200001 2
19.4645 1.9635 0.625 2
19.501499 2.0964999 0.66600001 2
19.4755 2.0025001 0.639 2
19.473499 2.0014999 0.65399998 2
19.5075 2.1175001 0.685 2
19.477501 2.0144999 0.65499997 2
19.5105 2.1285 0.685 2
19.4685 1.9675 0.58999997 2
19.4925 2.0645001 0.65799999 2
19.473499 1.9895 0.61199999 2
19.488501 2.0474999 0.64899999 2
19.4655 1.9595 0.59799999 2
19.4825 2.0235 0.634 2
19.4795 2.0255001 0.66600001 2
19.4625 1.9615 0.63700002 2
19.4685 1.9744999 0.61699998 2
19.484501 2.0365 0.65700001 2
19.494499 2.0734999 0.67500001 2
19.460501 1.9414999 0.59200001 2
19.4715 1.9825 0.61299998 2
19.498501 2.0825 0.65700001 2
19.460501 1.9355 0.56900001 2
19.484501 2.0385001 0.66399997 2
19.4585 1.9505 0.64499998 2
19.473499 1.9895 0.60600001 2
19.473499 2.0005 0.65100002 2
19.470501 1.9805 0.61799997 2
19.463499 1.9685 0.64700001 2
19.4765 2.0085001 0.64399999 2
19.484501 2.0415001 0.667 2
19.4865 2.0434999 0.65100002 2
19.466499 1.9615 0.588 2
19.495501 2.0715001 0.65100002 2
19.495501 2.0704999 0.65200001 2
19.474501 1.9955 0.61900002 2
19.4825 2.0185001 0.61799997 2
19.460501 1.9464999 0.60500002 2
19.5005 2.0925 0.66600001 2
19.4765 2.0055001 0.62900001 2
19.4725 1.9965 0.65200001 2
19.460501 1.9445 0.602 2
19.477501 2.0085001 0.62900001 2
19.4655 1.9605 0.60000002 2
19.504499 2.1075001 0.67400002 2
19.470501 1.9935 0.65600002 2
19.481501 2.0244999 0.64700001 2
19.504499 2.1064999 0.68000001 2
19.4795 2.0204999 0.64999998 2
19.467501 1.9744999 0.62900001 2
19.4625 1.9495 0.60000002 2
19.495501 2.0755 0.66799998 2
19.515499 2.1485 0.69599998 2
19.4715 1.9845001 0.611 2
19.4725 1.9915 0.63300002 2
19.488501 2.0455 0.64399999 2
19.459499 1.9435 0.60900003 2
19.459499 1.9425 0.60299999 2
19.4995 2.0845001 0.66000003 2
19.4755 2.0005 0.62699997 2
19.4725 1.9875 0.61900002 2
19.4795 2.0105 0.62099999 2
19.4655 1.9565001 0.58099997 2
19.466499 1.9715 0.62599999 2
19.4795 2.0195 0.65399998 2
19.4615 1.9605 0.64300001 2
19.467501 1.9665 0.60299999 2
19.4935 2.0695 0.667 2
19.4755 2.0065 0.65399998 2
19.480499 2.0274999 0.66500002 2
19.5075 2.1275001 0.66900003 2
19.494499 2.0715001 0.64399999 2
19.490499 2.0555 0.63499999 2
19.505501 2.1324999 0.65600002 2
19.509501 2.1394999 0.67299998 2
19.502501 2.1164999 0.65100002 2
19.4825 2.0615001 0.59100002 2
19.4865 2.0495 0.61799997 2
19.480499 2.0725 0.57499999 2
19.4795 2.0425 0.58899999 2
19.487499 2.0725 0.60799998 2
19.480499 2.0545001 0.58899999 2
19.474501 2.0495 0.56300002 2
19.480499 2.0655 0.58099997 2
19.4895 2.0885 0.611 2
19.481501 2.0515001 0.59500003 2
19.504499 2.1245 0.65700001 2
19.5075 2.1205001 0.676 2
19.4895 2.0845001 0.611 2
19.498501 2.1034999 0.64399999 2
19.497499 2.0975001 0.639 2
19.495501 2.0925 0.63300002 2
19.491501 2.1055 0.60900003 2
19.481501 2.0504999 0.59299999 2
19.498501 2.1105001 0.63800001 2
19.467501 1.9974999 0.56300002 2
19.4625 1.9595 0.56199998 2
19.4895 2.0905001 0.60500002 2
19.4825 2.0825 0.579 2
19.4865 2.0595 0.61199999 2
19.484501 2.0834999 0.588 2
19.4785 2.0325 0.59399998 2
19.502501 2.1164999 0.65399998 2
19.4755 2.0585001 0.56 2
19.509501 2.1294999 0.67799997 2
19.480499 2.0404999 0.59899998 2
19.501499 2.1085 0.65200001 2
19.494499 2.0985 0.62800002 2
19.4825 2.0615001 0.59100002 2
19.5105 2.1285 0.68300003 2
19.4685 2.0044999 0.56099999 2
19.470501 1.9915 0.579 2
19.4625 1.9475 0.57200003 2
19.4925 2.0875001 0.62300003 2
19.497499 2.0795 0.653 2
19.474501 2.0395 0.56800002 2
19.484501 2.0545001 0.60799998 2
19.4715 2.0155001 0.56900001 2
19.477501 2.0545001 0.57499999 2
19.491501 2.0725 0.63 2
19.4755 2.0455 0.56999999 2
19.4865 2.0565 0.61400002 2
19.497499 2.0864999 0.64899999 2
19.508499 2.1255 0.67699999 2
19.4715 2.0044999 0.579 2
19.488501 2.0875001 0.60500002 2
19.4785 2.0335 0.59100002 2
19.4795 2.0255001 0.602 2
19.4925 2.1075001 0.61199999 2
19.4785 2.0755 0.56599998 2
19.463499 1.9725 0.56099999 2
19.4715 1.9955 0.58200002 2
19.459499 1.9345 0.565 2
19.511499 2.1345 0.68599999 2
19.484501 2.0604999 0.60399997 2
19.4835 2.0285001 0.61799997 2
19.4995 2.1055 0.64300001 2
19.4855 2.0715001 0.60100001 2
19.474501 2.0274999 0.579 2
19.495501 2.0945001 0.63499999 2
19.5075 2.1255 0.67199999 2
19.4725 1.9855 0.59100002 2
19.4825 2.0255001 0.61799997 2
19.505501 2.1255 0.66000003 2
19.4785 2.0725 0.56599998 2
19.470501 1.9755 0.58999997 2
19.4935 2.1015 0.61900002 2
19.4755 1.9955 0.60000002 2
19.4715 2.0325 0.55900002 2
19.501499 2.1155 0.64899999 2
19.477501 2.0165 0.59799999 2
19.512501 2.1435001 0.68199998 2
19.460501 1.9435 0.56400001 2
19.4685 1.9865 0.57200003 2
19.4895 2.0785 0.616 2
19.467501 1.9895 0.565 2
19.4655 1.9735 0.56699997 2
19.4715 2.0325 0.56 2
19.4795 2.0474999 0.58499998 2
19.497499 2.1075001 0.63599998 2
19.4835 2.0864999 0.58399999 2
19.502501 2.1285 0.64700001 2
19.473499 1.9955 0.58999997 2
19.481501 2.0555 0.58999997 2
19.5135 2.1424999 0.68599999 2
19.466499 1.9635 0.57800001 2
19.4835 2.0325 0.61699998 2
19.4895 2.0504999 0.63200003 2
19.4795 2.0474999 0.58499998 2
19.494499 2.0964999 0.625 2
19.467501 1.9785 0.57499999 2
19.490499 2.0534999 0.63700002 2
19.459499 1.9315 0.56400001 2
19.4695 1.9765 0.58399999 2
19.481501 2.0385001 0.60000002 2
19.4785 2.0315001 0.59200001 2
19.474501 2.0365 0.57200003 2
19.5145 2.1445 0.69099998 2
19.466499 1.9744999 0.574 2
19.477501 2.0374999 0.58399999 2
19.467501 1.9735 0.579 2
19.463499 1.9485 0.57200003 2
19.505501 2.1285 0.66000003 2
19.505501 2.1125 0.671 2
19.490499 2.0555 0.634 2
19.4725 2.0204999 0.56900001 2
19.502501 2.1075001 0.65899998 2
19.4755 2.0525 0.56300002 2
19.4785 2.2295001 0.54799998 2
19.4785 2.2165 0.54699999 2
19.4785 2.1255 0.55199999 2
19.4795 2.1675 0.53899997 2
19.4785 2.2195001 0.54799998 2
19.4785 2.0975001 0.55400002 2
19.4785 2.2295001 0.546 2
19.4785 2.2025001 0.54400003 2
19.4785 2.2014999 0.54500002 2
19.4785 2.2014999 0.54400003 2
19.477501 2.1324999 0.55299997 2
19.4785 2.1305001 0.55000001 2
19.4785 2.1424999 0.546 2
19.4795 2.1475 0.54400003 2
19.4785 2.1085 0.551 2
19.4795 2.1435001 0.54299998 2
19.4785 2.1914999 0.551 2
19.4865 2.1724999 0.58399999 2
19.490499 2.1585 0.59899998 2
19.4925 2.1535001 0.60799998 2
19.495501 2.1905 0.61500001 2
19.498501 2.2035 0.62400001 2
19.504499 2.1324999 0.65200001 2
19.4785 2.2375 0.55000001 2
19.4795 2.2455001 0.55400002 2
19.4925 2.1615 0.60600001 2
19.4865 2.1475 0.58499998 2
19.4825 2.1675 0.56699997 2
19.509501 2.1784999 0.66900003 2
19.490499 2.1545 0.60000002 2
19.490499 2.2205 0.597 2
19.494499 2.1285 0.61400002 2
19.481501 2.1355 0.56599998 2
19.480499 2.1695001 0.56199998 2
19.487499 2.2275 0.58200002 2
19.480499 2.2265 0.55699998 2
19.509501 2.1605 0.67000002 2
19.4895 2.1754999 0.59399998 2
19.484501 2.1654999 0.57700002 2
19.4865 2.1554999 0.58399999 2
19.4835 2.1824999 0.57300001 2
19.498501 2.1524999 0.62900001 2
19.484501 2.2465 0.56999999 2
19.4925 2.1624999 0.60500002 2
19.481501 2.1115 0.56800002 2
19.4965 2.1765001 0.61900002 2
19.481501 2.1445 0.56599998 2
19.4795 2.1615 0.55900002 2
19.484501 2.1895001 0.57499999 2
19.502501 2.1815 0.63999999 2
19.4925 2.2105 0.602 2
19.4935 2.2135 0.60600001 2
19.511499 2.1545 0.67500001 2
19.502501 2.1775 0.64200002 2
19.4795 2.1585 0.55699998 2
19.495501 2.1435001 0.62 2
19.4785 2.1845 0.55500001 2
19.4825 2.2175 0.56800002 2
19.4935 2.1135001 0.61299998 2
19.4835 2.2344999 0.56999999 2
19.4895 2.1245 0.597 2
19.501499 2.1735001 0.639 2
19.487499 2.1424999 0.588 2
19.501499 2.1545 0.64099997 2
19.4795 2.2574999 0.55299997 2
19.4995 2.1765001 0.63300002 2
19.4895 2.1624999 0.597 2
19.4995 2.1565001 0.63300002 2
19.4925 2.2125001 0.60399997 2
19.498501 2.1945 0.625 2
19.4965 2.1465001 0.62 2
19.501499 2.1445 0.639 2
19.4785 2.1535001 0.55400002 2
19.4855 2.1275001 0.58099997 2
19.5065 2.1475 0.66000003 2
19.4825 2.1255 0.57300001 2
19.491501 2.1475 0.602 2
19.491501 2.2284999 0.59899998 2
19.5035 2.1375 0.648 2
19.497499 2.1865001 0.62099999 2
19.5075 2.1545 0.66299999 2
19.4855 2.1094999 0.58200002 2
19.4795 2.1085 0.56099999 2
19.480499 2.2495 0.55800003 2
19.495501 2.1624999 0.61699998 2
19.4825 2.2444999 0.56300002 2
19.498501 2.1695001 0.62900001 2
19.488501 2.1754999 0.58899999 2
19.4825 2.1294999 0.57200003 2
19.480499 2.1085 0.56599998 2
19.497499 2.1454999 0.62599999 2
19.498501 2.1654999 0.62800002 2
19.502501 2.1454999 0.64399999 2
19.502501 2.1745 0.64099997 2
19.505501 2.1415 0.65399998 2
19.4965 2.1535001 0.62199998 2
19.4835 2.2585001 0.56699997 2
19.4785 2.2544999 0.55000001 2
19.4895 2.1485 0.59799999 2
19.480499 2.2685001 0.55500001 2
19.4795 2.1025 0.56300002 2
19.4925 2.2225001 0.60100001 2
19.4835 2.2284999 0.56800002 2
19.480499 2.1125 0.56599998 2
19.4995 2.1315 0.63300002 2
19.495501 2.2165 0.61500001 2
19.509501 2.1494999 0.67000002 2
19.511499 2.1624999 0.67500001 2
19.512501 2.1675 0.68000001 2
19.4965 2.1695001 0.62099999 2
19.5005 2.1845 0.634 2
19.497499 2.1565001 0.625 2
19.4895 2.1255 0.597 2
19.4925 2.1735001 0.60500002 2
19.5005 2.1264999 0.639 2
19.4855 2.1194999 0.58499998 2
19.4935 2.1494999 0.61000001 2
19.497499 2.1235001 0.62800002 2
19.4785 2.0905001 0.55800003 2
19.4935 2.2105 0.60699999 2
19.484501 2.1045001 0.57999998 2
19.495501 2.1324999 0.61799997 2
19.4965 2.1615 0.62099999 2
19.490499 2.2255001 0.59600002 2
19.4935 2.1475 0.61000001 2
19.4925 2.2105 0.602 2
19.491501 2.2035 0.59899998 2
19.4825 2.1565001 0.56999999 2
19.487499 2.1045001 0.59299999 2
19.508499 2.1575 0.66500002 2
19.5135 2.1515 0.685 2
19.484501 2.2505 0.57300001 2
19.481501 2.2275 0.56099999 2
19.481501 2.1494999 0.56800002 2
19.509501 2.1784999 0.66600001 2
19.509501 2.1454999 0.67000002 2
19.480499 2.1055 0.56699997 2
19.4865 2.2474999 0.57700002 2
19.490499 2.1754999 0.597 2
19.4825 2.1105001 0.574 2
19.4865 2.1524999 0.58399999 2
19.480499 2.1624999 0.56300002 2
19.497499 2.1535001 0.625 2
19.484501 2.1695001 0.57599998 2
19.5035 2.1615 0.648 2
19.484501 2.1995001 0.57499999 2
19.4895 2.1445 0.59600002 2
19.4855 2.2375 0.574 2
19.495501 2.1935 0.61500001 2
19.4795 2.2455001 0.55199999 2
19.4835 2.1605 0.574 2
19.488501 2.1205001 0.59399998 2
19.481501 2.2635 0.55800003 2
19.484501 2.1695001 0.57499999 2
19.497499 2.1285 0.62599999 2
19.4835 2.1125 0.57599998 2
19.4925 2.1315 0.60799998 2
19.4855 2.1605 0.58200002 2
19.4995 2.1324999 0.634 2
19.480499 2.2114999 0.56 2
19.497499 2.2065001 0.62199998 2
19.5075 2.1585 0.66000003 2
19.505501 2.1824999 0.653 2
19.4825 2.3085001 0.67799997 2
19.502501 2.2305 0.69800001 2
19.474501 2.3325 0.66600001 2
19.481501 2.3275001 0.69 2
19.4835 2.2965 0.67199999 2
19.505501 2.2105 0.69300002 2
19.477501 2.3475001 0.69099998 2
19.4695 2.3485 0.65700001 2
19.4695 2.3455 0.653 2
19.466499 2.3455 0.64300001 2
19.4995 2.2405 0.69300002 2
19.4925 2.3004999 0.713 2
19.487499 2.2765 0.67199999 2
19.5145 2.1695001 0.69700003 2
19.4755 2.3505001 0.68599999 2
19.502501 2.2114999 0.68400002 2
19.4825 2.3255 0.69099998 2
19.491501 2.2605 0.67799997 2
19.481501 2.3334999 0.69499999 2
19.487499 2.2765 0.66900003 2
19.4865 2.3015001 0.68900001 2
19.4645 2.3694999 0.65600002 2
19.4755 2.3195 0.65600002 2
19.4865 2.2855 0.676 2
19.490499 2.2595 0.67400002 2
19.4865 2.3015001 0.69 2
19.487499 2.2835 0.67500001 2
19.4655 2.3664999 0.65600002 2
19.484501 2.2904999 0.67000002 2
19.487499 2.3034999 0.69300002 2
19.467501 2.3635001 0.66299999 2
19.4645 2.3585 0.64700001 2
19.4715 2.3355 0.653 2
19.494499 2.2804999 0.70300001 2
19.4965 2.2395 0.68000001 2
19.4685 2.3385 0.64300001 2
19.4795 2.3175001 0.67400002 2
19.4795 2.3385 0.69199997 2
19.4995 2.2355001 0.69 2
19.491501 2.2785001 0.69 2
19.501499 2.2444999 0.70599997 2
19.491501 2.3085001 0.71499997 2
19.4935 2.2925 0.71100003 2
19.5135 2.1775 0.70099998 2
19.4695 2.3645 0.66900003 2
19.4895 2.3234999 0.71899998 2
19.466499 2.3694999 0.66100001 2
19.509501 2.1914999 0.69599998 2
19.490499 2.2655001 0.67799997 2
19.477501 2.3385 0.68000001 2
19.4785 2.3085001 0.66100001 2
19.4795 2.3315001 0.68400002 2
19.4835 2.3045001 0.676 2
19.473499 2.3494999 0.67500001 2
19.4965 2.2585001 0.69800001 2
19.4695 2.3635001 0.66900003 2
19.491501 2.2744999 0.68400002 2
19.4895 2.2614999 0.67199999 2
19.484501 2.2855 0.66500002 2
19.4855 2.2844999 0.67000002 2
19.4695 2.3485 0.65899998 2
19.4935 2.2785001 0.699 2
19.4925 2.2825 0.69599998 2
19.4655 2.3494999 0.63999999 2
19.490499 2.3175001 0.71799999 2
19.4655 2.3675001 0.65799999 2
19.473499 2.3594999 0.68199998 2
19.474501 2.3325 0.66299999 2
19.4935 2.2635 0.69 2
19.4865 2.3295 0.71100003 2
19.4625 2.3694999 0.64600003 2
19.490499 2.3185 0.71899998 2
19.473499 2.3585 0.68400002 2
19.473499 2.3534999 0.67799997 2
19.4785 2.3145001 0.66500002 2
19.4925 2.2595 0.68199998 2
19.484501 2.2904999 0.67000002 2
19.484501 2.2855 0.66399997 2
19.481501 2.3285 0.68900001 2
19.490499 2.2804999 0.68800002 2
19.474501 2.3575001 0.685 2
19.498501 2.2514999 0.70200002 2
19.512501 2.1775 0.69700003 2
19.477501 2.3445001 0.68900001 2
19.477501 2.3445001 0.68900001 2
19.5105 2.1865001 0.69400001 2
19.4765 2.3345001 0.67699999 2
19.4855 2.2895 0.67299998 2
19.4645 2.3635001 0.64999998 2
19.4765 2.3255 0.66799998 2
19.4825 2.3515 0.713 2
19.4865 2.3095 0.69700003 2
19.4835 2.3515 0.71799999 2
19.4795 2.3475001 0.699 2
19.474501 2.3295 0.66000003 2
19.4925 2.2815001 0.69800001 2
19.502501 2.2195001 0.68800002 2
19.491501 2.2755001 0.685 2
19.4865 2.2674999 0.66399997 2
19.490499 2.2614999 0.67400002 2
19.4935 2.2344999 0.62800002 2
19.4855 2.2674999 0.63 2
19.4765 2.3004999 0.61299998 2
19.488501 2.2555001 0.63700002 2
19.5075 2.1905 0.66900003 2
19.495501 2.2244999 0.61799997 2
19.4865 2.2614999 0.63300002 2
19.4795 2.2735 0.55800003 2
19.4795 2.2715001 0.55400002 2
19.4795 2.2844999 0.58999997 2
19.481501 2.2674999 0.56900001 2
19.463499 2.3525 0.62199998 2
19.480499 2.2844999 0.62099999 2
19.480499 2.2945001 0.653 2
19.497499 2.2205 0.63200003 2
19.4925 2.2465 0.67000002 2
19.4895 2.2544999 0.65899998 2
19.508499 2.1895001 0.68000001 2
19.508499 2.1865001 0.68000001 2
19.4765 2.2925 0.57800001 2
19.4645 2.3455 0.61799997 2
19.5065 2.1965001 0.68099999 2
19.4725 2.3085001 0.579 2
19.470501 2.3275001 0.64300001 2
19.4995 2.2214999 0.66900003 2
19.487499 2.2525001 0.60299999 2
19.467501 2.3295 0.59299999 2
19.4585 2.3724999 0.62900001 2
19.474501 2.3104999 0.62599999 2
19.487499 2.2495 0.59100002 2
19.477501 2.2925 0.59100002 2
19.5135 2.1724999 0.68699998 2
19.487499 2.2614999 0.65100002 2
19.481501 2.2695 0.57700002 2
19.474501 2.3125 0.634 2
19.504499 2.1995001 0.653 2
19.480499 2.2874999 0.634 2
19.4715 2.3215001 0.625 2
19.4835 2.2665 0.59200001 2
19.473499 2.3085001 0.60299999 2
19.5105 2.1824999 0.68900001 2
19.4825 2.2804999 0.63200003 2
19.4795 2.2885001 0.61699998 2
19.4795 2.2815001 0.58499998 2
19.4865 2.2574999 0.59799999 2
19.4765 2.2904999 0.56900001 2
19.5005 2.2095001 0.634 2
19.480499 2.2774999 0.57999998 2
19.4725 2.3155 0.61699998 2
19.4935 2.2395 0.653 2
19.4835 2.2614999 0.57300001 2
19.470501 2.3285 0.64200002 2
19.4865 2.2655001 0.64700001 2
19.4835 2.2644999 0.58700001 2
19.480499 2.2765 0.56599998 2
19.4765 2.2915001 0.57200003 2
19.4615 2.3564999 0.611 2
19.4995 2.2214999 0.67199999 2
19.4925 2.2355001 0.60900003 2
19.4995 2.2175 0.66799998 2
19.512501 2.1745 0.67900002 2
19.481501 2.2744999 0.57800001 2
19.497499 2.2275 0.67500001 2
19.4965 2.2255001 0.648 2
19.497499 2.2235 0.65600002 2
19.4995 2.2195001 0.662 2
19.4715 2.3245001 0.639 2
19.4865 2.2544999 0.59399998 2
19.477501 2.2934999 0.59100002 2
19.508499 2.1875 0.671 2
19.4895 2.2474999 0.61299998 2
19.460501 2.3635001 0.62900001 2
19.4695 2.3295 0.63200003 2
19.4625 2.3515 0.61299998 2
19.477501 2.2885001 0.56999999 2
19.4725 2.3145001 0.61000001 2
19.494499 2.2375 0.65899998 2
19.4765 2.2955 0.58700001 2
19.4695 2.3304999 0.62699997 2
19.504499 2.1975 0.64899999 2
19.484501 2.2635 0.60299999 2
19.4835 2.2635 0.57999998 2
19.477501 2.2904999 0.579 2
19.4855 2.2635 0.62400001 2
19.480499 2.2715001 0.56599998 2
19.477501 2.2885001 0.57599998 2
19.459499 2.3664999 0.62099999 2
19.4695 2.3225 0.58999997 2
19.488501 2.2565 0.648 2
19.4835 2.2735 0.62699997 2
19.491501 2.2414999 0.62900001 2
19.511499 2.1775 0.68199998 2
19.5035 2.2075 0.67299998 2
19.4755 2.3004999 0.60000002 2
19.495501 2.2235 0.62199998 2
19.4765 2.2895 0.55800003 2
19.460501 2.3615 0.61400002 2
19.4785 2.2974999 0.63499999 2
19.4725 2.3125 0.60500002 2
19.498501 2.2195001 0.65200001 2
19.4965 2.2275 0.65899998 2
19.470501 2.3234999 0.60900003 2
19.4865 2.2614999 0.63300002 2
19.4995 2.2165 0.65700001 2
19.4865 2.2655001 0.653 2
19.474501 2.3065 0.61400002 2
19.480499 2.2825 0.60900003 2
19.4795 2.2785001 0.57099998 2
19.477501 2.3004999 0.63200003 2
19.4725 2.3104999 0.58399999 2
19.4865 2.2655001 0.648 2
19.480499 2.2895 0.64200002 2
19.467501 2.3325 0.60699999 2
19.4855 2.2655001 0.63300002 2
19.4725 2.3074999 0.58099997 2
19.498501 2.2225001 0.66799998 2
19.4995 2.2135 0.639 2
19.480499 2.2885001 0.62900001 2
19.481501 2.2665 0.56099999 2
19.467501 2.3334999 0.60799998 2
19.4625 2.3525 0.61199999 2
19.4785 2.2915001 0.60100001 2
19.504499 2.2025001 0.671 2
19.495501 2.2235 0.61699998 2
19.5075 2.1914999 0.68699998 2
19.480499 2.2704999 0.55699998 2
19.463499 2.3505001 0.62099999 2
19.488501 2.2555001 0.63099998 2
19.4685 2.3325 0.63099998 2
19.4865 2.2535 0.59100002 2
19.463499 2.3534999 0.625 2
19.561501 2.2255001 0.78500003 2
19.5135 2.2755001 0.73699999 2
19.512501 2.2495 0.727 2
19.561501 2.2325001 0.78799999 2
19.526501 2.2325001 0.74000001 2
19.518499 2.1735001 0.70700002 2
19.5495 2.2344999 0.77200001 2
19.502501 2.2485001 0.71200001 2
19.4995 2.3215001 0.73299998 2
19.5585 2.2175 0.77899998 2
19.5665 2.2184999 0.79000002 2
19.5315 2.2804999 0.76200002 2
19.529499 2.2744999 0.75800002 2
19.5135 2.2105 0.713 2
19.497499 2.3134999 0.727 2
19.5345 2.2555001 0.759 2
19.5595 2.1795001 0.76599997 2
19.5555 2.2054999 0.76899999 2
19.5315 2.2844999 0.764 2
19.5245 2.1745 0.71600002 2
19.498501 2.2695 0.71399999 2
19.5235 2.2195001 0.73000002 2
19.525499 2.2514999 0.745 2
19.5035 2.3234999 0.74000001 2
19.5215 2.1754999 0.71200001 2
19.5665 2.2235 0.792 2
19.5445 2.1865001 0.74699998 2
19.550501 2.2295001 0.77200001 2
19.564501 2.2095001 0.78500003 2
19.5385 2.2295001 0.75599998 2
19.526501 2.1705 0.71700001 2
19.547501 2.2514999 0.77600002 2
19.526501 2.2815001 0.75599998 2
19.495501 2.3065 0.722 2
19.5375 2.2725 0.76899999 2
19.5175 2.2505 0.73299998 2
19.490499 2.3225 0.72000003 2
19.5035 2.2765 0.72299999 2
19.508499 2.2844999 0.73199999 2
19.498501 2.2765 0.71499997 2
19.512501 2.2685001 0.73299998 2
19.5175 2.1575 0.69999999 2
19.543501 2.1745 0.74299997 2
19.525499 2.2425001 0.741 2
19.5555 2.1705 0.75800002 2
19.509501 2.2265 0.71399999 2
19.526501 2.1815 0.72100002 2
19.547501 2.2054999 0.75999999 2
19.5455 2.1805 0.74699998 2
19.5005 2.2544999 0.71200001 2
19.5205 2.2135 0.72399998 2
19.526501 2.2715001 0.75400001 2
19.564501 2.2065001 0.78399998 2
19.546499 2.1845 0.74900001 2
19.5425 2.2155001 0.75599998 2
19.518499 2.2945001 0.75 2
19.502501 2.2525001 0.713 2
19.5595 2.1895001 0.76999998 2
19.5345 2.2155001 0.74400002 2
19.5005 2.2595 0.713 2
19.5235 2.1945 0.72100002 2
19.5005 2.3115001 0.73100001 2
19.512501 2.2535 0.727 2
19.5425 2.1684999 0.73900002 2
19.554501 2.2455001 0.78299999 2
19.4935 2.3225 0.72399998 2
19.5595 2.1715 0.76300001 2
19.5245 2.2855 0.75400001 2
19.5135 2.1914999 0.70700002 2
19.5275 2.2895 0.75999999 2
19.570499 2.2125001 0.79400003 2
19.488501 2.3364999 0.72299999 2
19.543501 2.1705 0.741 2
19.519501 2.1875 0.71399999 2
19.525499 2.2574999 0.74800003 2
19.550501 2.1765001 0.75300002 2
19.5175 2.2735 0.74199998 2
19.5355 2.2414999 0.75599998 2
19.5165 2.2665 0.73699999 2
19.5205 2.1895001 0.71600002 2
19.525499 2.2735 0.75300002 2
19.5205 2.1635001 0.70599997 2
19.5035 2.2505 0.71399999 2
19.5665 2.2054999 0.78600001 2
19.4995 2.2635 0.71399999 2
19.511499 2.2355001 0.72000003 2
19.553499 2.2355001 0.778 2
19.564501 2.2025001 0.78100002 2
19.5005 2.3215001 0.73400003 2
19.5245 2.2755001 0.75199997 2
19.554501 2.2114999 0.76999998 2
19.5555 2.2435 0.78399998 2
19.550501 2.1795001 0.75400001 2
19.5205 2.1875 0.71499997 2
19.5205 2.2955 0.75300002 2
19.533501 2.2525001 0.75599998 2
19.526501 2.1585 0.713 2
19.526501 2.2075 0.73000002 2
19.502501 2.2614999 0.71700001 2
19.554501 2.2265 0.77600002 2
19.554501 2.2325001 0.77899998 2
19.5415 2.2405 0.76300001 2
19.539499 2.2054999 0.74800003 2
19.5525 2.1914999 0.76099998 2
19.5385 2.2105 0.74800003 2
19.5135 2.2965 0.74299997 2
19.5385 2.1925001 0.74199998 2
19.5525 2.1805 0.75700003 2
19.532499 2.2425001 0.75199997 2
19.525499 2.2075 0.72899997 2
19.560499 2.1884999 0.77100003 2
19.497499 2.2885001 0.71799999 2
19.5425 2.2295001 0.75999999 2
19.509501 2.2865 0.73500001 2
19.550501 2.2474999 0.778 2
19.5275 2.1805 0.722 2
19.5005 2.2985001 0.72600001 2
19.525499 2.1884999 0.72299999 2
19.4995 2.3134999 0.73000002 2
19.509501 2.2295001 0.71499997 2
19.4925 2.3355 0.72799999 2
19.5485 2.1695001 0.74800003 2
19.533501 2.2105 0.74199998 2
19.5065 2.3145001 0.74000001 2
19.5495 2.2495 0.778 2
19.5315 2.2644999 0.75800002 2
19.5105 2.2635 0.72799999 2
19.532499 2.2065001 0.73900002 2
19.5385 2.2155001 0.75 2
19.5285 2.1884999 0.72600001 2
19.495501 2.3134999 0.72399998 2
19.5005 2.2844999 0.72100002 2
19.5175 2.2665 0.73900002 2
19.529499 2.2365 0.745 2
19.5165 2.2514999 0.73299998 2
19.5035 2.2625 0.71899998 2
19.5135 2.2495 0.72799999 2
19.5205 2.1575 0.704 2
19.570499 2.2265 0.79900002 2
19.540501 2.2355001 0.75999999 2
19.5445 2.2965 0.78399998 2
19.5415 2.2844999 0.77700001 2
19.5415 2.2945001 0.77899998 2
19.525499 2.3095 0.76300001 2
19.553499 2.2825 0.79100001 2
19.5315 2.2865 0.76499999 2
19.511499 2.3185 0.74800003 2
19.5655 2.2414999 0.796 2
19.567499 2.2385001 0.79799998 2
19.5445 2.2995 0.78399998 2
19.5585 2.2485001 0.78899997 2
19.536501 2.3004999 0.77499998 2
19.540501 2.2904999 0.77700001 2
19.560499 2.2655001 0.79699999 2
19.5585 2.2585001 0.79299998 2
19.5355 2.3045001 0.77499998 2
19.536501 2.2765 0.76999998 2
19.515499 2.3115001 0.75099999 2
19.564501 2.2605 0.80000001 2
19.533501 2.3085001 0.77399999 2
19.553499 2.2605 0.787 2
19.547501 2.2904999 0.78600001 2
19.5385 2.3004999 0.77700001 2
19.563499 2.2474999 0.796 2
19.526501 2.3045001 0.76300001 2
19.5375 2.2965 0.77499998 2
19.571501 2.2295001 0.801 2
19.5445 2.2774999 0.77899998 2
19.5415 2.2804999 0.77499998 2
19.547501 2.2644999 0.77999997 2
19.553499 2.2585001 0.78600001 2
19.525499 2.3134999 0.76499999 2
19.504499 2.3285 0.74299997 2
19.539499 2.2895 0.77600002 2
19.567499 1.9515001 0.76700002 2
19.5515 1.9895 0.76700002 2
19.5665 1.9694999 0.76999998 2
19.5455 2.0545001 0.77700001 2
19.5385 2.0174999 0.76599997 2
19.511499 1.9645 0.74299997 2
19.533501 2.0215001 0.764 2
19.543501 2.0465 0.77399999 2
19.532499 1.9935 0.759 2
19.546499 2.0645001 0.77899998 2
19.522499 1.9985 0.755 2
19.546499 2.0185001 0.76999998 2
19.4995 1.9705 0.73900002 2
19.5205 1.9935 0.75300002 2
19.540501 1.9715 0.75800002 2
19.5165 1.9935 0.75099999 2
19.564501 2.0964999 0.79400003 2
19.5515 1.9985 0.76899999 2
19.5655 1.9515001 0.76700002 2
19.4965 1.9515001 0.73299998 2
19.5735 1.9785 0.77499998 2
19.518499 1.9525 0.74400002 2
19.567499 2.0855 0.79299998 2
19.5625 1.9655 0.76800001 2
19.568501 2.0365 0.78399998 2
19.5695 2.1025 0.79799998 2
19.5495 1.9565001 0.75999999 2
19.5585 2.0834999 0.78899997 2
19.567499 2.0745001 0.79100001 2
19.5375 2.0485001 0.77200001 2
19.532499 2.0135 0.76300001 2
19.5245 2.0014999 0.75700003 2
19.5735 2.0095 0.78200001 2
19.5485 1.9615 0.75999999 2
19.5425 1.9585 0.75700003 2
19.502501 1.9685 0.73900002 2
19.5695 2.1064999 0.79799998 2
19.547501 2.0074999 0.76899999 2
19.557501 2.0105 0.77399999 2
19.5355 1.9955 0.76099998 2
19.5655 1.9515001 0.76700002 2
19.567499 1.9905 0.77499998 2
19.4995 1.9595 0.736 2
19.5735 1.9825 0.77700001 2
19.522499 2.0065 0.75599998 2
19.5595 2.0185001 0.77700001 2
19.550501 2.0055001 0.76899999 2
19.546499 2.0645001 0.77899998 2
19.519501 1.9805 0.75 2
19.5235 2.0125 0.75800002 2
19.5245 1.9865 0.75300002 2
19.529499 1.9924999 0.75700003 2
19.5495 2.0655 0.78100002 2
19.5655 1.9515001 0.76599997 2
19.5495 2.0035 0.76899999 2
19.5345 2.0044999 0.76200002 2
19.5695 2.0815001 0.79299998 2
19.5345 2.0135 0.764 2
19.5515 1.9935 0.76800001 2
19.540501 1.9765 0.759 2
19.512501 1.9935 0.74900001 2
19.522499 1.9694999 0.74900001 2
19.571501 2.0445001 0.78799999 2
19.546499 1.9545 0.75800002 2
19.526501 1.9805 0.75300002 2
19.5075 1.9865 0.745 2
19.563499 2.0255001 0.77999997 2
19.571501 2.0764999 0.79400003 2
19.5655 1.9845001 0.773 2
19.5345 1.9615 0.75300002 2
19.5065 2.0005 0.74000001 2
19.5205 2.1224999 0.71700001 2
19.522499 2.0915 0.73100001 2
19.5415 2.0745001 0.76700002 2
19.550501 2.1424999 0.75700003 2
19.5375 2.1345 0.74000001 2
19.5245 2.1305001 0.72100002 2
19.5455 2.1285 0.75400001 2
19.5385 2.1385 0.73900002 2
19.497499 1.9785 0.73400003 2
19.5495 2.0775001 0.77899998 2
19.536501 2.1315 0.73900002 2
19.502501 2.0085001 0.73000002 2
19.556499 2.1385 0.76800001 2
19.515499 2.0915 0.72000003 2
19.5375 2.1264999 0.74199998 2
19.5595 2.1075001 0.78500003 2
19.5495 2.1575 0.75 2
19.5135 2.0745001 0.72399998 2
19.567499 2.1064999 0.79699999 2
19.543501 2.0725 0.77100003 2
19.5285 2.1335001 0.72500002 2
19.515499 2.1155 0.71100003 2
19.571501 2.1565001 0.78500003 2
19.518499 2.0355 0.74599999 2
19.564501 2.1055 0.79299998 2
19.557501 2.1524999 0.76499999 2
19.564501 2.1624999 0.77100003 2
19.5105 2.0165 0.741 2
19.533501 2.0895 0.75 2
19.5145 2.0675001 0.72799999 2
19.568501 2.1415 0.78600001 2
19.5235 2.1385 0.71600002 2
19.5245 2.1445 0.71600002 2
19.5175 2.1475 0.70300001 2
19.5375 2.0504999 0.77100003 2
19.5485 2.1155 0.764 2
19.5205 2.1045001 0.72399998 2
19.5305 2.0645001 0.75400001 2
19.505501 2.0634999 0.71499997 2
19.5035 1.9805 0.74199998 2
19.536501 2.0545001 0.76700002 2
19.553499 2.1575 0.75599998 2
19.5695 2.1445 0.78600001 2
19.512501 2.0585001 0.72799999 2
19.540501 2.1045001 0.755 2
