# .PCD v0.7 - Point Cloud Data file format
VERSION 0.7
FIELDS x y z label
SIZE 4 4 4 4
TYPE F F F U
COUNT 1 1 1 1
WIDTH 1590
HEIGHT 1
VIEWPOINT 0 0 0 1 0 0 0
POINTS 1590
DATA ascii
18.442499 5.8365002 0.495 2
18.4265 5.7515001 0.50700003 2
18.3755 5.7905002 0.52600002 2
18.4265 5.8525 0.50099999 2
18.438499 5.8154998 0.498 2
18.4265 5.8334999 0.50199997 2
18.446501 5.7744999 0.49599999 2
18.425501 5.8425002 0.50199997 2
18.4645 5.8585 0.484 2
18.431499 5.8785 0.49700001 2
18.4485 5.9315 0.48699999 2
18.4235 5.7884998 0.50599998 2
18.3995 5.8344998 0.51300001 2
18.415501 5.8915 0.50400001 2
18.4685 5.7354999 0.48899999 2
18.446501 5.8334999 0.49399999 2
18.432501 5.8505001 0.498 2
18.411501 5.8325 0.509 2
18.414499 5.8125 0.50800002 2
18.431499 5.9025002 0.49599999 2
18.4205 5.8885002 0.50099999 2
18.4275 5.8755002 0.49900001 2
18.400499 5.8505001 0.51200002 2
18.4445 5.7985001 0.49599999 2
18.4135 5.8395 0.50700003 2
18.4585 5.9215002 0.48300001 2
18.4345 5.9384999 0.493 2
18.431499 5.8495002 0.49900001 2
18.445499 5.8425002 0.493 2
18.466499 5.8115001 0.486 2
18.4135 5.8555002 0.50599998 2
18.429501 5.8484998 0.5 2
18.414499 5.8555002 0.50599998 2
18.4335 5.8645 0.49700001 2
18.4645 5.8225002 0.486 2
18.449499 5.9035001 0.48800001 2
18.4175 5.8505001 0.505 2
18.4195 5.7765002 0.50800002 2
18.452499 5.7934999 0.493 2
18.3895 5.8225002 0.51899999 2
18.422501 5.8924999 0.5 2
18.449499 5.7484999 0.49700001 2
18.460501 5.8555002 0.486 2
18.436501 5.9384999 0.49200001 2
18.4545 5.8625002 0.48800001 2
18.436501 5.8484998 0.49700001 2
18.4345 5.8645 0.49700001 2
18.401501 5.7645001 0.51700002 2
18.3995 6.0105 0.493 2
18.397499 6.0395002 0.486 2
18.415501 6.0114999 0.48800001 2
18.3955 6.0555 0.48300001 2
18.442499 5.9955001 0.48300001 2
18.393499 6.0574999 0.48300001 2
18.400499 6.0314999 0.48699999 2
18.436501 5.9945002 0.48500001 2
18.407499 6.0275002 0.486 2
18.390499 6.0395002 0.48800001 2
18.3965 6.0584998 0.48199999 2
18.3985 6.0555 0.48199999 2
18.404499 6.0205002 0.48899999 2
18.3995 6.0545001 0.48199999 2
18.425501 6.0114999 0.484 2
18.4235 5.9984999 0.48800001 2
18.400499 6.0285001 0.48800001 2
18.3885 6.0634999 0.48300001 2
18.429501 6.0015001 0.486 2
18.4125 6.0215001 0.486 2
18.4035 6.0145001 0.49000001 2
18.401501 6.0194998 0.49000001 2
18.4095 6.0335002 0.484 2
18.470501 6.0885 0.47799999 2
18.4655 6.1025 0.477 2
18.4555 6.0235 0.48100001 2
18.494499 6.1275001 0.47499999 2
18.480499 6.0555 0.479 2
18.546499 6.1574998 0.472 2
18.490499 6.0495 0.47799999 2
18.494499 6.0764999 0.477 2
18.5445 6.1545 0.47299999 2
18.498501 6.0625 0.47799999 2
18.4695 6.0875001 0.47799999 2
18.519501 6.1314998 0.47400001 2
18.418501 6.0784998 0.47999999 2
18.467501 6.1055002 0.477 2
18.5315 6.1345 0.47400001 2
18.474501 6.0295 0.47999999 2
18.5285 6.1355 0.47400001 2
18.467501 6.0945001 0.47799999 2
18.422501 6.0904999 0.479 2
18.4575 6.0865002 0.47799999 2
18.4925 6.1285 0.47499999 2
18.4695 6.0735002 0.47799999 2
18.460501 6.0324998 0.47999999 2
18.5375 6.1434999 0.47299999 2
18.4485 6.0675001 0.479 2
18.4575 6.0774999 0.479 2
18.532499 6.1265001 0.47400001 2
18.504499 6.1094999 0.47600001 2
18.4265 6.0565 0.48100001 2
18.4025 6.0665002 0.48100001 2
18.480499 6.0685 0.47799999 2
18.467501 6.1135001 0.477 2
18.4625 6.0745001 0.479 2
18.453501 6.0685 0.479 2
18.473499 6.0314999 0.47999999 2
18.459499 6.0075002 0.48100001 2
18.408501 6.0865002 0.47999999 2
18.3955 6.0675001 0.48100001 2
18.4755 6.0574999 0.479 2
18.4135 6.0454998 0.48100001 2
18.4485 6.0895 0.479 2
18.400499 6.0805001 0.48100001 2
18.5305 6.1215 0.47400001 2
18.546499 6.1585002 0.472 2
18.4795 6.0895 0.477 2
18.4275 6.0825 0.47999999 2
18.449499 6.0945001 0.47799999 2
18.477501 6.0795002 0.47799999 2
18.4485 6.0854998 0.479 2
18.4925 6.1055002 0.47600001 2
18.470501 6.0454998 0.479 2
18.4615 6.0485001 0.47999999 2
18.4835 6.1275001 0.47600001 2
18.5005 6.1224999 0.47499999 2
18.477501 6.1125002 0.477 2
18.4025 6.0755 0.48100001 2
18.431499 6.0925002 0.479 2
18.4645 6.0615001 0.479 2
18.4415 6.0925002 0.479 2
18.4375 6.0555 0.47999999 2
18.4795 6.0615001 0.47799999 2
18.443501 6.0984998 0.47799999 2
18.443501 6.0784998 0.479 2
18.4765 6.0254998 0.47999999 2
18.429501 6.0584998 0.47999999 2
18.4205 6.0865002 0.47999999 2
18.522499 6.1135001 0.47499999 2
18.473499 6.0444999 0.479 2
18.439501 6.0974998 0.479 2
18.446501 6.0984998 0.47799999 2
18.4205 6.0704999 0.47999999 2
18.4055 6.0745001 0.48100001 2
18.4105 6.0535002 0.48100001 2
18.456499 6.1015 0.47799999 2
18.505501 6.0795002 0.477 2
18.4515 6.0135002 0.48100001 2
18.480499 6.1145 0.47600001 2
18.4405 6.0465002 0.47999999 2
18.397499 6.0595002 0.48100001 2
18.5245 6.1485 0.47400001 2
18.508499 6.0964999 0.47600001 2
18.4125 6.0695 0.48100001 2
18.4725 6.0875001 0.47799999 2
18.4575 6.0914998 0.47799999 2
18.459499 6.0405002 0.47999999 2
18.477501 6.0825 0.47799999 2
18.5285 6.1265001 0.47400001 2
18.474501 6.0914998 0.477 2
18.484501 6.0955 0.477 2
18.4625 6.0335002 0.47999999 2
18.4755 6.1034999 0.477 2
18.421499 6.0584998 0.48100001 2
18.460501 6.0475001 0.47999999 2
18.4695 6.0205002 0.47999999 2
18.539499 6.1405001 0.47299999 2
18.5215 6.1055002 0.47499999 2
18.439501 6.0295 0.48100001 2
18.4515 5.9905 0.48199999 2
18.422501 6.0625 0.47999999 2
18.4095 6.0685 0.48100001 2
18.411501 6.0415001 0.48199999 2
18.470501 6.1145 0.477 2
18.522499 6.1224999 0.47499999 2
18.4695 6.0685 0.479 2
18.4545 6.1114998 0.477 2
18.453501 6.0265002 0.48100001 2
18.3985 6.0615001 0.48100001 2
18.449499 6.0805001 0.479 2
18.4265 6.0555 0.48100001 2
18.484501 6.0805001 0.47799999 2
18.459499 6.0834999 0.47799999 2
18.4965 6.1304998 0.47499999 2
18.4835 6.1094999 0.477 2
18.4865 6.1444998 0.47099999 2
18.463499 6.1234999 0.47499999 2
18.502501 6.1564999 0.46900001 2
18.4685 6.1234999 0.47600001 2
18.428499 6.1094999 0.47600001 2
18.5525 6.1634998 0.472 2
18.4925 6.1475 0.47099999 2
18.470501 6.1285 0.47400001 2
18.477501 6.1255002 0.47600001 2
18.4575 6.1335001 0.472 2
18.532499 6.1585002 0.472 2
18.4575 6.1304998 0.472 2
18.4795 6.1684999 0.463 2
18.490499 6.1345 0.47400001 2
18.4165 6.0984998 0.47799999 2
18.5355 6.1665001 0.46900001 2
18.529499 6.1525002 0.47299999 2
18.4475 6.1135001 0.477 2
18.505501 6.1494999 0.472 2
18.5005 6.1424999 0.47299999 2
18.452499 6.1275001 0.47299999 2
18.4765 6.1475 0.46900001 2
18.5145 6.1475 0.47299999 2
18.4725 6.1615 0.46399999 2
18.4555 6.1155 0.477 2
18.5145 6.1515002 0.472 2
18.463499 6.1255002 0.47400001 2
18.460501 6.1504998 0.46599999 2
18.5105 6.1424999 0.47400001 2
18.487499 6.1645002 0.465 2
18.453501 6.1335001 0.47099999 2
18.477501 6.1415 0.47099999 2
18.488501 6.1455002 0.47099999 2
18.4485 6.1314998 0.47099999 2
18.4335 6.1135001 0.47499999 2
18.518499 6.1525002 0.472 2
18.4335 6.1065001 0.477 2
18.449499 6.1215 0.47400001 2
18.4825 6.1424999 0.47099999 2
18.4765 6.1545 0.46700001 2
18.5305 6.1595001 0.47099999 2
18.504499 6.1494999 0.47099999 2
18.495501 6.1395001 0.47299999 2
18.494499 6.1824999 0.46399999 2
18.5005 6.1824999 0.465 2
18.5275 6.1845002 0.46799999 2
18.4965 6.1824999 0.46399999 2
18.4925 6.1995001 0.46399999 2
18.501499 6.2395 0.46399999 2
18.5215 6.1845002 0.46700001 2
18.554501 6.1715002 0.47099999 2
18.515499 6.2055001 0.46599999 2
18.5205 6.1735001 0.46700001 2
18.5005 6.2224998 0.46399999 2
18.522499 6.2175002 0.46700001 2
18.512501 6.2195001 0.46599999 2
18.518499 6.1764998 0.46700001 2
18.509501 6.2145 0.465 2
18.5215 6.2135 0.46700001 2
18.512501 6.2224998 0.46599999 2
18.4855 6.1904998 0.463 2
18.525499 6.2024999 0.46700001 2
18.5145 6.2205 0.46599999 2
18.490499 6.1925001 0.46399999 2
18.553499 6.1694999 0.47099999 2
18.5005 6.2385001 0.46399999 2
18.4765 6.1715002 0.46200001 2
18.5175 6.2195001 0.46599999 2
18.5005 6.2255001 0.46399999 2
18.5375 6.2014999 0.46900001 2
18.4895 6.1975002 0.463 2
18.5245 6.1834998 0.46700001 2
18.484501 6.1764998 0.463 2
18.5355 6.1824999 0.46900001 2
18.491501 6.1915002 0.46399999 2
18.502501 6.2195001 0.465 2
18.5005 6.2214999 0.46399999 2
18.497499 6.1745 0.465 2
18.539499 6.1824999 0.46900001 2
18.4825 6.2245002 0.46200001 2
18.488501 6.2255001 0.463 2
18.5005 6.2465 0.46399999 2
18.470501 6.2694998 0.461 2
18.4555 6.2735 0.45899999 2
18.467501 6.2775002 0.46000001 2
18.459499 6.2624998 0.45899999 2
18.460501 6.2905002 0.45899999 2
18.473499 6.2754998 0.461 2
18.467501 6.2424998 0.46000001 2
18.488501 6.2305002 0.463 2
18.4725 6.2595 0.461 2
18.4765 6.2775002 0.461 2
18.4575 6.2665 0.45899999 2
18.4655 6.2175002 0.461 2
18.4695 6.2845001 0.46000001 2
18.4785 6.2655001 0.461 2
18.4765 6.2515001 0.461 2
18.4725 6.2455001 0.461 2
18.4555 6.2884998 0.45899999 2
18.4625 6.2795 0.46000001 2
18.4685 6.2024999 0.461 2
18.467501 6.2145 0.461 2
18.460501 6.2855 0.45899999 2
18.4795 6.2564998 0.46200001 2
18.491501 6.2325001 0.463 2
18.4785 6.2465 0.46200001 2
18.466499 6.2535 0.46000001 2
18.4585 6.2925 0.45899999 2
18.4615 5.7055001 0.47600001 2
18.4965 5.7175002 0.484 2
18.5205 5.7154999 0.486 2
18.563499 5.7154999 0.49000001 2
18.5595 5.7104998 0.48800001 2
18.564501 5.7214999 0.493 2
18.4755 5.6855001 0.46900001 2
18.5445 5.7185001 0.49000001 2
18.518499 5.7125001 0.48500001 2
18.4965 5.7214999 0.486 2
18.543501 5.7175002 0.48899999 2
18.592501 5.7255001 0.498 2
18.563499 5.7145 0.49000001 2
18.498501 5.7205 0.486 2
18.5415 5.7045002 0.484 2
18.543501 5.7045002 0.484 2
18.532499 5.7195001 0.48899999 2
18.467501 5.6725001 0.46200001 2
18.5835 5.7205 0.495 2
18.504499 5.7094998 0.48199999 2
18.598499 5.7265 0.49900001 2
18.4695 5.6855001 0.46799999 2
18.4785 5.6935 0.47299999 2
18.4755 5.6875 0.46900001 2
18.563499 5.7135 0.49000001 2
18.4765 5.6894999 0.47 2
18.606501 5.7284999 0.5 2
18.4825 5.6805 0.46700001 2
18.473499 5.6745 0.46399999 2
18.501499 5.7094998 0.48199999 2
18.547501 5.7205 0.491 2
18.4965 5.7084999 0.48100001 2
18.4965 5.7195001 0.486 2
18.4655 5.6975002 0.47299999 2
18.488501 5.6964998 0.47499999 2
18.4585 5.6704998 0.46000001 2
18.4835 5.6865001 0.47 2
18.4755 5.7055001 0.477 2
18.4655 5.7075 0.477 2
18.540501 5.7135 0.48699999 2
18.5175 5.6964998 0.47799999 2
18.563499 5.7265 0.495 2
18.463499 5.6865001 0.46799999 2
18.557501 5.7075 0.486 2
18.4645 5.6774998 0.46399999 2
18.4965 5.6935 0.47400001 2
18.4625 5.7065001 0.47600001 2
18.4485 5.6764998 0.46200001 2
18.5305 5.7075 0.484 2
18.4305 5.6574998 0.45199999 2
18.4865 5.7075 0.479 2
18.6075 5.7284999 0.50099999 2
18.4715 5.6935 0.472 2
18.488501 5.7125001 0.48199999 2
18.4715 5.6824999 0.46700001 2
18.515499 5.7214999 0.48800001 2
18.502501 5.7765002 0.48899999 2
18.4995 5.7744999 0.48899999 2
18.4925 5.7505002 0.48800001 2
18.5005 5.8895001 0.48800001 2
18.5315 5.7465 0.49200001 2
18.467501 5.9584999 0.484 2
18.487499 5.7804999 0.48699999 2
18.5135 5.8765001 0.49000001 2
18.547501 5.7835002 0.49399999 2
18.481501 5.8325 0.486 2
18.568501 5.7525001 0.49599999 2
18.515499 5.7595 0.49000001 2
18.4765 5.7694998 0.486 2
18.4695 5.8915 0.48500001 2
18.4865 5.7424998 0.48699999 2
18.477501 5.7585001 0.486 2
18.5805 5.7585001 0.498 2
18.526501 5.7985001 0.49200001 2
18.4835 5.9285002 0.486 2
18.511499 5.7965002 0.49000001 2
18.5035 5.7614999 0.48899999 2
18.5625 5.7735 0.49599999 2
18.4785 5.8414998 0.486 2
18.4855 5.7505002 0.48699999 2
18.481501 5.7735 0.48699999 2
18.5315 5.8074999 0.49200001 2
18.5905 5.7535 0.49900001 2
18.550501 5.8235002 0.49399999 2
18.581499 5.7395 0.498 2
18.470501 5.9345002 0.484 2
18.5825 5.7305002 0.498 2
18.508499 5.7824998 0.49000001 2
18.4695 5.8065 0.48500001 2
18.557501 5.7895002 0.495 2
18.5065 5.8575001 0.48899999 2
18.501499 5.8664999 0.48800001 2
18.498501 5.8845 0.48800001 2
18.556499 5.7585001 0.495 2
18.515499 5.8814998 0.49000001 2
18.5585 5.7965002 0.495 2
18.519501 5.7655001 0.491 2
18.4725 5.8484998 0.48500001 2
18.491501 5.9204998 0.48699999 2
18.4685 5.9334998 0.484 2
18.4795 5.7635002 0.486 2
18.522499 5.7934999 0.491 2
18.502501 5.7624998 0.48899999 2
18.4725 5.9095001 0.48500001 2
18.543501 5.7674999 0.49399999 2
18.494499 5.7655001 0.48800001 2
18.5735 5.7525001 0.49700001 2
18.5495 5.8225002 0.49399999 2
18.5105 5.7614999 0.49000001 2
18.4645 5.9165001 0.484 2
18.5235 5.7614999 0.491 2
18.4615 5.9315 0.484 2
18.4795 5.9254999 0.486 2
18.512501 5.8625002 0.49000001 2
18.4925 5.7544999 0.48800001 2
18.470501 5.8165002 0.48500001 2
18.5795 5.7325001 0.498 2
18.553499 5.7445002 0.495 2
18.588499 5.7405 0.49900001 2
18.4855 5.8065 0.48699999 2
18.5075 5.8785 0.48899999 2
18.5215 5.8674998 0.491 2
18.567499 5.8014998 0.49599999 2
18.585501 5.7465 0.498 2
18.4725 5.8435001 0.48500001 2
18.5285 5.8575001 0.491 2
18.5695 5.7405 0.49700001 2
18.5275 5.7505002 0.49200001 2
18.4995 5.8915 0.48800001 2
18.5165 5.7465 0.491 2
18.505501 5.7364998 0.49000001 2
18.567499 5.7474999 0.49599999 2
18.498501 5.7655001 0.48899999 2
18.515499 5.8585 0.49000001 2
18.5005 5.8225002 0.48800001 2
18.4995 5.8365002 0.48800001 2
18.5825 5.7645001 0.498 2
18.508499 5.7605 0.49000001 2
18.4695 5.8575001 0.48500001 2
18.547501 5.8045001 0.49399999 2
18.508499 5.7975001 0.49000001 2
18.564501 5.7414999 0.49599999 2
18.526501 5.8505001 0.491 2
18.519501 5.7424998 0.491 2
18.540501 5.8105001 0.493 2
18.5875 5.7605 0.498 2
18.480499 5.7795 0.48699999 2
18.4645 5.8915 0.484 2
18.470501 5.9355001 0.48500001 2
18.4925 5.8835001 0.48699999 2
18.502501 5.8055 0.48899999 2
18.5555 5.7934999 0.495 2
18.484501 5.8125 0.48699999 2
18.4725 5.9145002 0.48500001 2
18.584499 5.7305002 0.498 2
18.5235 5.8404999 0.491 2
18.504499 5.9004998 0.48800001 2
18.5275 5.7544999 0.49200001 2
18.532499 5.7995 0.49200001 2
18.470501 5.8715 0.48500001 2
18.539499 5.7925 0.493 2
18.5355 5.7665 0.493 2
18.5515 5.7645001 0.495 2
18.4925 5.8705001 0.48699999 2
18.4865 5.8445001 0.48699999 2
18.5515 5.7715001 0.49399999 2
18.473499 5.8144999 0.486 2
18.578501 5.7775002 0.49700001 2
18.491501 5.8404999 0.48699999 2
18.512501 5.8625002 0.49000001 2
18.4995 5.7715001 0.48899999 2
18.490499 5.8655 0.48699999 2
18.5135 5.8024998 0.49000001 2
18.518499 5.8245001 0.491 2
18.5035 5.7585001 0.48899999 2
18.525499 5.7494998 0.49200001 2
18.5485 5.8165002 0.49399999 2
18.519501 5.7445002 0.491 2
18.5755 5.7674999 0.49700001 2
18.505501 5.8035002 0.48899999 2
18.4895 5.8724999 0.48699999 2
18.4695 5.8354998 0.48500001 2
18.484501 5.8855 0.486 2
18.5035 5.7544999 0.48899999 2
18.505501 5.7985001 0.48899999 2
18.5345 5.7515001 0.493 2
18.4995 5.8944998 0.48800001 2
18.4765 5.8035002 0.486 2
18.4795 5.8284998 0.486 2
18.5315 5.8125 0.49200001 2
18.481501 5.8555002 0.486 2
18.529499 5.8214998 0.49200001 2
18.4935 5.7385001 0.48800001 2
18.511499 5.7905002 0.49000001 2
18.511499 5.8255 0.49000001 2
18.5485 5.8295002 0.49399999 2
18.525499 5.7344999 0.49200001 2
18.529499 5.8544998 0.49200001 2
18.495501 5.8344998 0.48800001 2
18.4655 5.9025002 0.484 2
18.567499 5.7735 0.49599999 2
18.4765 5.9035001 0.48500001 2
18.557501 5.8084998 0.495 2
18.5355 5.7484999 0.493 2
18.494499 5.8045001 0.48800001 2
18.550501 5.7754998 0.49399999 2
18.577499 5.7554998 0.49700001 2
18.526501 5.8385 0.491 2
18.498501 5.8474998 0.48800001 2
18.498501 5.8045001 0.48800001 2
18.474501 5.7775002 0.486 2
18.5145 5.8445001 0.49000001 2
18.4765 5.8825002 0.48500001 2
18.4865 5.7294998 0.48699999 2
18.508499 5.8074999 0.48899999 2
18.495501 5.8655 0.48800001 2
18.5205 5.8674998 0.49000001 2
18.518499 5.7725 0.491 2
18.477501 5.7835002 0.486 2
18.5895 5.7564998 0.49900001 2
18.540501 5.7694998 0.493 2
18.466499 5.9025002 0.484 2
18.484501 5.8375001 0.48699999 2
18.4685 5.8775001 0.48500001 2
18.501499 5.8765001 0.48800001 2
18.563499 5.7915001 0.49599999 2
18.488501 5.9285002 0.48699999 2
18.4555 5.9615002 0.48300001 2
18.5065 5.8874998 0.48899999 2
18.491501 5.9115 0.48699999 2
18.494499 5.8435001 0.48800001 2
18.526501 5.7484999 0.49200001 2
18.529499 5.8435001 0.49200001 2
18.494499 5.8404999 0.48800001 2
18.526501 6.0805001 0.47600001 2
18.5555 6.1114998 0.47400001 2
18.5285 6.1104999 0.47499999 2
18.5905 6.1125002 0.472 2
18.532499 6.0805001 0.47600001 2
18.5315 6.0625 0.47600001 2
18.4715 6.0015001 0.48100001 2
18.547501 6.1294999 0.47299999 2
18.536501 6.0805001 0.47600001 2
18.5355 6.0935001 0.47499999 2
18.5315 6.1164999 0.47400001 2
18.5485 6.1395001 0.47299999 2
18.5595 6.1164999 0.47299999 2
18.6105 6.1294999 0.47099999 2
18.5235 6.0805001 0.47600001 2
18.5655 6.1475 0.472 2
18.5495 6.1325002 0.47299999 2
18.574499 6.1244998 0.47299999 2
18.5655 6.1655002 0.47099999 2
18.5585 6.1025 0.47400001 2
18.568501 6.0935001 0.47400001 2
18.5835 6.1574998 0.47099999 2
18.6005 6.1615 0.47 2
18.5105 6.0555 0.477 2
18.602501 6.1645002 0.47 2
18.4855 6.0184999 0.47999999 2
18.581499 6.1215 0.472 2
18.563499 6.1395001 0.472 2
18.5305 6.0895 0.47600001 2
18.563499 6.1255002 0.47299999 2
18.5695 6.0945001 0.47400001 2
18.570499 6.0914998 0.47400001 2
18.4835 6.0324998 0.479 2
18.5595 6.1475 0.472 2
18.567499 6.1545 0.472 2
18.564501 6.0945001 0.47400001 2
18.487499 6.0304999 0.479 2
18.5105 6.0574999 0.477 2
18.5235 6.0495 0.477 2
18.550501 6.0865002 0.47499999 2
18.5425 6.0714998 0.47600001 2
18.5345 6.0815001 0.47600001 2
18.595501 6.1215 0.472 2
18.6085 6.1525002 0.47 2
18.5005 6.0454998 0.47799999 2
18.6105 6.1615 0.47 2
18.592501 6.1205001 0.472 2
18.5835 6.1624999 0.47099999 2
18.526501 6.0755 0.47600001 2
18.5965 6.1444998 0.47099999 2
18.581499 6.1645002 0.47099999 2
18.511499 6.0434999 0.47799999 2
18.5425 6.0844998 0.47499999 2
18.5875 6.1634998 0.47099999 2
18.5135 6.0844998 0.47600001 2
18.511499 6.0625 0.477 2
18.532499 6.0665002 0.47600001 2
18.539499 6.0865002 0.47499999 2
18.5585 6.1294999 0.47299999 2
18.5555 6.0854998 0.47499999 2
18.5065 6.0605001 0.477 2
18.5555 6.1504998 0.472 2
18.5905 6.1224999 0.472 2
18.5425 6.1075001 0.47400001 2
18.5485 6.1174998 0.47400001 2
18.5895 6.1265001 0.472 2
18.5135 6.0774999 0.477 2
18.556499 6.1065001 0.47400001 2
18.4765 6.0075002 0.48100001 2
18.532499 6.0795002 0.47600001 2
18.491501 6.0345001 0.479 2
18.5665 6.0995002 0.47400001 2
18.605499 6.1465001 0.47099999 2
18.5485 6.1355 0.47299999 2
18.6115 5.7544999 0.5 2
18.5905 5.8944998 0.49000001 2
18.5905 5.7694998 0.49900001 2
18.588499 5.7905002 0.49700001 2
18.606501 5.7934999 0.49700001 2
18.5035 5.9095001 0.48800001 2
18.612499 5.7845001 0.498 2
18.5755 5.8484998 0.493 2
18.563499 5.8225002 0.495 2
18.568501 5.8495002 0.493 2
18.5905 5.8464999 0.493 2
18.526501 5.9584999 0.48500001 2
18.547501 5.8814998 0.49000001 2
18.6035 5.9225001 0.48800001 2
18.5695 5.8924999 0.49000001 2
18.547501 5.8544998 0.49200001 2
18.490499 5.9615002 0.484 2
18.613501 5.8165002 0.495 2
18.5515 5.9254999 0.48699999 2
18.5865 5.7985001 0.49599999 2
18.539499 5.8744998 0.491 2
18.567499 5.8305001 0.49399999 2
18.5035 5.9264998 0.48699999 2
18.5735 5.8755002 0.491 2
18.6185 5.8175001 0.495 2
18.480499 5.9495001 0.48500001 2
18.568501 5.9334998 0.48699999 2
18.588499 5.8825002 0.491 2
18.5825 5.8035002 0.49599999 2
18.5175 5.9675002 0.484 2
18.5445 5.9435 0.486 2
18.556499 5.9274998 0.48699999 2
18.4715 5.9584999 0.484 2
18.584499 5.7855 0.49700001 2
18.567499 5.8144999 0.495 2
18.6085 5.9394999 0.48699999 2
18.6105 5.9305 0.48699999 2
18.5455 5.8525 0.49200001 2
18.5385 5.8814998 0.49000001 2
18.609501 5.7445002 0.5 2
18.612499 5.7655001 0.49900001 2
18.574499 5.9454999 0.486 2
18.591499 5.7694998 0.49900001 2
18.577499 5.8344998 0.49399999 2
18.6075 5.9394999 0.48699999 2
18.602501 5.8154998 0.495 2
18.511499 5.9295001 0.48699999 2
18.592501 5.8575001 0.49200001 2
18.602501 5.8315001 0.49399999 2
18.4925 5.9345002 0.486 2
18.557501 5.8195 0.495 2
18.4645 5.9794998 0.48300001 2
18.501499 5.9235001 0.48699999 2
18.5765 5.8095002 0.49599999 2
18.5075 5.9225001 0.48699999 2
18.5865 5.8214998 0.495 2
18.606501 5.7865 0.498 2
18.591499 5.8864999 0.49000001 2
18.615499 5.8515 0.493 2
18.487499 5.9545002 0.48500001 2
18.606501 5.7544999 0.5 2
18.606501 5.8455 0.493 2
18.606501 5.8185 0.495 2
18.4785 5.9445 0.48500001 2
18.578501 5.8845 0.49000001 2
18.5595 5.9584999 0.48500001 2
18.5875 5.8515 0.493 2
18.602501 5.9175 0.48800001 2
18.550501 5.9235001 0.48699999 2
18.546499 5.9505 0.486 2
18.480499 5.9475002 0.48500001 2
18.5795 5.9124999 0.48800001 2
18.536501 5.9264998 0.48699999 2
18.540501 5.8814998 0.49000001 2
18.5765 5.8814998 0.491 2
18.4935 5.9714999 0.484 2
18.605499 5.9015002 0.48899999 2
18.5895 5.8855 0.49000001 2
18.5945 5.8115001 0.49599999 2
18.511499 5.9345002 0.486 2
18.568501 5.9315 0.48699999 2
18.543501 5.9584999 0.48500001 2
18.5075 5.9124999 0.48800001 2
18.508499 5.9324999 0.486 2
18.6105 5.8404999 0.49399999 2
18.577499 5.8975 0.48899999 2
18.5765 5.8435001 0.493 2
18.5415 5.9064999 0.48899999 2
18.505501 5.9334998 0.486 2
18.487499 5.9464998 0.48500001 2
18.556499 5.8604999 0.49200001 2
18.6105 5.8375001 0.49399999 2
18.546499 5.9495001 0.486 2
18.554501 5.8695002 0.491 2
18.592501 5.9175 0.48800001 2
18.6045 5.9064999 0.48899999 2
18.5725 5.8175001 0.495 2
18.5625 5.9384999 0.48699999 2
18.585501 5.8734999 0.491 2
18.5555 5.8325 0.49399999 2
18.5585 5.8934999 0.49000001 2
18.602501 5.7934999 0.49700001 2
18.605499 5.9064999 0.48899999 2
18.532499 5.9035001 0.48899999 2
18.5795 5.9175 0.48800001 2
18.547501 5.8404999 0.493 2
18.501499 5.9175 0.48699999 2
18.6105 5.9324999 0.48699999 2
18.613501 5.9115 0.48899999 2
18.5555 5.8625002 0.49200001 2
18.4965 5.9534998 0.48500001 2
18.5315 5.8835001 0.49000001 2
18.585501 5.8154998 0.495 2
18.6085 5.7905002 0.49700001 2
18.467501 5.9794998 0.48300001 2
18.605499 5.9435 0.486 2
18.585501 5.7895002 0.49700001 2
18.606501 5.9095001 0.48899999 2
18.6175 5.8765001 0.491 2
18.5165 5.9054999 0.48800001 2
18.6015 5.8414998 0.49399999 2
18.5805 5.7995 0.49599999 2
18.5595 5.8934999 0.49000001 2
18.560499 5.9225001 0.48800001 2
18.4995 5.9654999 0.484 2
18.591499 5.9404998 0.48699999 2
18.5975 5.8655 0.49200001 2
18.536501 5.9045 0.48899999 2
18.5285 5.8985 0.48899999 2
18.554501 5.8305001 0.49399999 2
18.6075 5.7424998 0.50099999 2
18.568501 5.8874998 0.49000001 2
18.6075 5.9245 0.48800001 2
18.5595 5.8864999 0.49000001 2
18.5525 5.9235001 0.48699999 2
18.598499 5.8185 0.495 2
18.6085 5.8385 0.49399999 2
18.605499 5.9295001 0.48699999 2
18.6085 5.7705002 0.49900001 2
18.5795 5.8004999 0.49599999 2
18.591499 5.7985001 0.49700001 2
18.588499 5.7944999 0.49700001 2
18.6075 5.7915001 0.49700001 2
18.5105 5.9645 0.484 2
18.5585 5.9425001 0.486 2
18.543501 5.9464998 0.486 2
18.5205 5.9124999 0.48800001 2
18.529499 5.8755002 0.491 2
18.5495 5.9415002 0.486 2
18.6075 5.8845 0.491 2
18.6175 5.7385001 0.50099999 2
18.6175 5.7934999 0.49700001 2
18.518499 5.8874998 0.49000001 2
18.529499 5.8874998 0.49000001 2
18.606501 5.7795 0.498 2
18.5905 5.9274998 0.48699999 2
18.5165 5.9295001 0.48699999 2
18.5655 5.9345002 0.48699999 2
18.6145 5.7835002 0.498 2
18.561501 5.9375 0.48699999 2
18.6005 5.9415002 0.48699999 2
18.574499 5.8765001 0.491 2
18.5485 5.8825002 0.49000001 2
18.546499 5.9155002 0.48800001 2
18.613501 5.7414999 0.50099999 2
18.5485 5.8734999 0.491 2
18.526501 5.8695002 0.491 2
18.4555 5.9825001 0.48199999 2
18.5375 5.8755002 0.491 2
18.498501 5.9134998 0.48800001 2
18.554501 5.9445 0.486 2
18.547501 5.8794999 0.491 2
18.6035 5.8455 0.493 2
18.5875 5.7895002 0.49700001 2
18.554501 5.8354998 0.49399999 2
18.577499 5.8245001 0.495 2
18.5355 5.9245 0.48699999 2
18.598499 5.9025002 0.48899999 2
18.613501 5.8024998 0.49599999 2
18.602501 5.7715001 0.49900001 2
18.5305 5.9425001 0.486 2
18.5425 5.9184999 0.48800001 2
18.529499 5.9464998 0.486 2
18.6115 5.9435 0.48699999 2
18.5945 5.8425002 0.49399999 2
18.498501 5.9345002 0.486 2
18.599501 5.8245001 0.495 2
18.598499 5.7605 0.49900001 2
18.4865 5.9645 0.484 2
18.6075 5.9134998 0.48899999 2
18.501499 5.9625001 0.484 2
18.556499 5.9274998 0.48699999 2
18.606501 6.0205002 0.48899999 2
18.5905 6.0235 0.48800001 2
18.592501 6.0165 0.48800001 2
18.5935 5.9635 0.486 2
18.561501 5.9584999 0.48500001 2
18.570499 5.9734998 0.486 2
18.568501 5.9825001 0.486 2
18.5935 6.0384998 0.48899999 2
18.4615 5.9844999 0.48300001 2
18.487499 5.9935002 0.484 2
18.578501 5.9875002 0.48699999 2
18.5425 5.9945002 0.486 2
18.5595 6.0205002 0.48699999 2
18.554501 6.0135002 0.48699999 2
18.5835 5.9565001 0.486 2
18.5755 5.9994998 0.48699999 2
18.5695 5.9635 0.486 2
18.602501 6.0184999 0.48899999 2
18.526501 5.9815001 0.48500001 2
18.488501 5.9805002 0.48300001 2
18.5765 6.0254998 0.48800001 2
18.550501 5.9604998 0.48500001 2
18.5515 5.9965 0.486 2
18.5495 5.9745002 0.48500001 2
18.561501 5.9734998 0.486 2
18.6075 6.0044999 0.48800001 2
18.4965 5.9895 0.484 2
18.6145 6.0025001 0.48800001 2
18.560499 5.9645 0.48500001 2
18.612499 6.0184999 0.48899999 2
18.5765 5.9935002 0.48699999 2
18.4825 5.9885001 0.48300001 2
18.609501 6.0205002 0.48899999 2
18.5825 5.9545002 0.486 2
18.5865 5.9685001 0.486 2
18.578501 5.9695001 0.486 2
18.5895 5.9755001 0.48699999 2
18.5525 5.9654999 0.48500001 2
18.560499 5.9895 0.486 2
18.5875 6.0015001 0.48699999 2
18.581499 6.0035 0.48699999 2
18.5795 5.9935002 0.48699999 2
18.616501 5.9555001 0.48699999 2
18.5725 5.9895 0.48699999 2
18.536501 5.9784999 0.48500001 2
18.5825 5.9864998 0.48699999 2
18.5765 6.0215001 0.48800001 2
18.5235 5.9784999 0.48500001 2
18.615499 5.9864998 0.48800001 2
18.561501 5.9974999 0.486 2
18.574499 5.9825001 0.486 2
18.581499 5.9745002 0.486 2
18.5905 5.9784999 0.48699999 2
18.5755 5.9705 0.486 2
18.578501 6.0174999 0.48800001 2
18.554501 6.0205002 0.48699999 2
18.564501 5.9974999 0.48699999 2
18.5835 6.0165 0.48800001 2
18.6145 6.0324998 0.48899999 2
18.606501 5.9854999 0.48800001 2
18.5665 6.0244999 0.48800001 2
18.532499 6.0035 0.486 2
18.564501 6.0235 0.48699999 2
18.5755 5.9994998 0.48699999 2
18.5425 5.9994998 0.486 2
18.5445 5.9685001 0.48500001 2
18.532499 5.9724998 0.48500001 2
18.4695 5.9905 0.48300001 2
18.584499 5.9825001 0.48699999 2
18.5895 5.9705 0.48699999 2
18.4925 5.9864998 0.484 2
18.547501 5.9714999 0.48500001 2
18.5945 5.9835 0.48699999 2
18.556499 5.9935002 0.486 2
18.518499 6.0075002 0.48500001 2
18.606501 5.9625001 0.48699999 2
18.5975 6.0135002 0.48800001 2
18.5805 5.9875002 0.48699999 2
18.495501 5.9794998 0.484 2
18.599501 6.0225 0.48899999 2
18.5965 5.9565001 0.486 2
18.584499 6.0075002 0.48800001 2
18.5945 6.0324998 0.48899999 2
18.609501 5.9695001 0.48699999 2
18.592501 5.9664998 0.486 2
18.6005 6.0105 0.48800001 2
18.568501 5.9734998 0.486 2
18.6015 5.9755001 0.48699999 2
18.519501 6.0345001 0.47999999 2
18.5285 6.0285001 0.48300001 2
18.5835 6.0914998 0.47499999 2
18.488501 6.0095 0.48100001 2
18.508499 6.0054998 0.48500001 2
18.533501 6.0355 0.48100001 2
18.5105 6.0265002 0.47999999 2
18.5835 6.0485001 0.48500001 2
18.606501 6.1005001 0.477 2
18.613501 6.0914998 0.479 2
18.613501 6.1034999 0.477 2
18.592501 6.0805001 0.479 2
18.481501 6.0064998 0.48100001 2
18.4925 6.0075002 0.48199999 2
18.5595 6.0764999 0.47600001 2
18.595501 6.0574999 0.48500001 2
18.502501 6.0244999 0.47999999 2
18.529499 6.0444999 0.479 2
18.5455 6.0595002 0.477 2
18.547501 6.0345001 0.484 2
18.602501 6.0805001 0.47999999 2
18.533501 6.0324998 0.48199999 2
18.577499 6.0925002 0.47400001 2
18.547501 6.0454998 0.48100001 2
18.5275 6.0285001 0.48199999 2
18.522499 6.0174999 0.484 2
18.6075 6.0545001 0.48699999 2
18.567499 6.0465002 0.484 2
18.5805 6.0345001 0.48800001 2
18.602501 6.0625 0.48500001 2
18.585501 6.0584998 0.48300001 2
18.595501 6.1025 0.47400001 2
18.4685 5.9905 0.48300001 2
18.5445 6.0524998 0.479 2
18.5075 6.0114999 0.484 2
18.578501 6.0825 0.477 2
18.612499 6.0825 0.48100001 2
18.509501 6.0244999 0.48100001 2
18.557501 6.0374999 0.484 2
18.5965 6.0595002 0.48500001 2
18.5525 6.0415001 0.48300001 2
18.5905 6.1005001 0.47400001 2
18.6175 6.0514998 0.49000001 2
18.563499 6.0395002 0.48500001 2
18.5755 6.0324998 0.48800001 2
18.5105 6.0335002 0.479 2
18.606501 6.1015 0.47600001 2
18.5245 6.0285001 0.48199999 2
18.5355 6.0244999 0.484 2
18.6105 6.0644999 0.486 2
18.515499 6.0205002 0.48199999 2
18.6075 6.1065001 0.47499999 2
18.581499 6.0735002 0.479 2
18.522499 6.0135002 0.48500001 2
18.595501 6.0504999 0.48699999 2
18.560499 6.0405002 0.484 2
18.606501 6.0735002 0.48300001 2
18.612499 6.1075001 0.47600001 2
18.570499 6.0384998 0.486 2
18.5375 6.0545001 0.47799999 2
18.5065 6.0184999 0.48199999 2
18.560499 6.0475001 0.48300001 2
18.4825 5.9974999 0.48300001 2
18.5005 6.0194998 0.48100001 2
18.6005 6.0584998 0.48500001 2
18.502501 6.0085001 0.48300001 2
18.519501 6.0285001 0.48100001 2
18.585501 6.0695 0.48100001 2
18.570499 6.0644999 0.47999999 2
18.5865 6.0974998 0.47400001 2
18.3195 6.1085 0.63200003 2
18.318501 6.1155 0.60100001 2
18.3155 6.1155 0.602 2
18.306499 6.1125002 0.62 2
18.3605 6.1174998 0.58200002 2
18.3535 6.1145 0.59799999 2
18.3375 6.1094999 0.62400001 2
18.342501 6.1034999 0.65100002 2
18.3515 6.1135001 0.60000002 2
18.3405 6.1155 0.59299999 2
18.3375 6.1135001 0.60399997 2
18.355499 6.1155 0.58999997 2
18.334499 6.1044998 0.64499998 2
18.3325 6.1114998 0.61699998 2
18.355499 6.1135001 0.597 2
18.335501 6.1185002 0.58200002 2
18.321501 6.1125002 0.616 2
18.3195 6.1135001 0.60900003 2
18.3535 6.1185002 0.579 2
18.3505 6.1174998 0.58399999 2
18.352501 6.1185002 0.579 2
18.349501 6.1125002 0.60500002 2
18.3375 6.1044998 0.64700001 2
18.3365 6.1125002 0.60900003 2
18.3445 6.1085 0.62599999 2
18.3305 6.1164999 0.59200001 2
18.331499 6.1125002 0.61299998 2
18.3505 6.1195002 0.57499999 2
18.3535 6.1085 0.62400001 2
18.365499 6.1195002 0.56999999 2
18.3405 6.1185002 0.58399999 2
18.348499 6.1044998 0.63999999 2
18.3165 6.1135001 0.66000003 2
18.303499 6.1224999 0.69800001 2
18.3125 6.1164999 0.67799997 2
18.327499 6.1135001 0.70099998 2
18.303499 6.1145 0.63 2
18.3255 6.1085 0.65100002 2
18.304501 6.1135001 0.62400001 2
18.334499 6.1055002 0.65100002 2
18.320499 6.1135001 0.67799997 2
18.306499 6.1125002 0.62800002 2
18.300501 6.1195002 0.66399997 2
18.318501 6.1155 0.68400002 2
18.314501 6.1185002 0.69999999 2
18.3165 6.1164999 0.69099998 2
18.3155 6.1135001 0.66399997 2
18.3095 6.1255002 0.74299997 2
18.320499 6.1104999 0.64899999 2
18.3155 6.1185002 0.704 2
18.303499 6.1294999 0.76200002 2
18.3095 6.1185002 0.68699998 2
18.311501 6.1104999 0.62800002 2
18.314501 6.1104999 0.63200003 2
18.324499 6.1125002 0.68300003 2
18.314501 6.1135001 0.65799999 2
18.318501 6.1125002 0.66600001 2
18.306499 6.1244998 0.73000002 2
18.3405 6.1044998 0.662 2
18.3255 6.1075001 0.639 2
18.313499 6.1104999 0.63300002 2
18.327499 6.1075001 0.64499998 2
18.3125 6.1234999 0.73900002 2
18.3095 6.1195002 0.69499999 2
18.317499 6.1114998 0.64999998 2
18.3255 6.1145 0.70200002 2
18.3395 6.1055002 0.66299999 2
18.3165 6.1215 0.72899997 2
18.300501 6.1174998 0.65399998 2
18.321501 6.1164999 0.70700002 2
18.3085 6.1174998 0.67400002 2
18.317499 6.1195002 0.71499997 2
18.4275 6.2214999 0.88800001 2
18.377501 6.2265 0.89899999 2
18.372499 6.1824999 0.83600003 2
18.3265 6.1574998 0.80400002 2
18.3915 6.2195001 0.88800001 2
18.459499 6.2414999 0.91399997 2
18.3055 6.1335001 0.77200001 2
18.4475 6.2364998 0.90700001 2
18.348499 6.2094998 0.87699997 2
18.3755 6.2125001 0.87900001 2
18.474501 6.2525001 0.92799997 2
18.310499 6.1415 0.78200001 2
18.4165 6.2245002 0.89300001 2
18.400499 6.2214999 0.88999999 2
18.4445 6.2405 0.91299999 2
18.4685 6.2515001 0.92699999 2
18.3995 6.1975002 0.85500002 2
18.356501 6.1704998 0.81999999 2
18.4245 6.2395 0.91399997 2
18.397499 6.2255001 0.89600003 2
18.4055 6.2145 0.87900001 2
18.387501 6.1884999 0.84399998 2
18.415501 6.2084999 0.87 2
18.3405 6.1694999 0.82099998 2
18.443501 6.2455001 0.92000002 2
18.3505 6.2024999 0.86699998 2
18.400499 6.2185001 0.88599998 2
18.3955 6.2175002 0.884 2
18.390499 6.2164998 0.884 2
18.3715 6.1954999 0.85500002 2
18.4125 6.2234998 0.89200002 2
18.356501 6.1855001 0.84100002 2
18.393499 6.1925001 0.84899998 2
18.338499 6.1855001 0.84299999 2
18.3915 6.2234998 0.89399999 2
18.3925 6.2104998 0.875 2
18.348499 6.1904998 0.85000002 2
18.373501 6.1995001 0.861 2
18.349501 6.1975002 0.85900003 2
18.383499 6.2065001 0.87 2
18.338499 6.1615 0.81 2
18.366501 6.1774998 0.82999998 2
18.349501 6.1774998 0.83200002 2
18.321501 6.1554999 0.80199999 2
18.400499 6.2045002 0.86500001 2
18.377501 6.1995001 0.86000001 2
18.3545 6.2214999 0.89399999 2
18.4125 6.2275 0.89700001 2
18.363501 6.1935 0.85299999 2
18.363501 6.2205 0.89200002 2
18.3745 6.1954999 0.85500002 2
18.421499 6.2364998 0.91000003 2
18.4485 6.2305002 0.898 2
18.3375 6.1774998 0.83200002 2
18.4475 6.2385001 0.91000003 2
18.363501 6.2214999 0.89300001 2
18.372499 6.2115002 0.87800002 2
18.387501 6.2245002 0.89600003 2
18.3885 6.2214999 0.89099997 2
18.3955 6.2335 0.90700001 2
18.373501 6.2055001 0.86900002 2
18.356501 6.1805 0.83499998 2
18.3265 6.1694999 0.82099998 2
18.386499 6.2034998 0.86500001 2
18.418501 6.2375002 0.91100001 2
18.4065 6.2185001 0.884 2
18.415501 6.2344999 0.90700001 2
18.4175 6.2305002 0.90100002 2
18.4125 6.2364998 0.90899998 2
18.3235 6.1624999 0.81199998 2
18.3645 6.2245002 0.89700001 2
18.3535 6.2205 0.89300001 2
18.3575 6.2075 0.87300003 2
18.4105 6.2034998 0.86299998 2
18.408501 6.2045002 0.86500001 2
18.362499 6.2145 0.88300002 2
18.3955 6.2055001 0.86799997 2
18.400499 6.2195001 0.88700002 2
18.4415 6.2344999 0.90499997 2
18.400499 6.2014999 0.86199999 2
18.3885 6.2065001 0.86900002 2
18.4025 6.2275 0.898 2
18.438499 6.2375002 0.91000003 2
18.318501 6.1585002 0.80699998 2
18.3645 6.1964998 0.85699999 2
18.376499 6.1875 0.84200001 2
18.4765 6.2515001 0.926 2
18.356501 6.2014999 0.86500001 2
18.4235 6.2145 0.87800002 2
18.362499 6.2094998 0.875 2
18.386499 6.2034998 0.86500001 2
18.480499 6.2535 0.92900002 2
18.3155 6.1405001 0.78100002 2
18.3965 6.2205 0.88800001 2
18.366501 6.2084999 0.87400001 2
18.422501 6.1215 0.63200003 2
18.3955 6.1195002 0.60699999 2
18.5305 6.1545 0.579 2
18.431499 6.1275001 0.60799998 2
18.439501 6.1304998 0.59899998 2
18.585501 6.1675 0.57300001 2
18.422501 6.1335001 0.55900002 2
18.384501 6.1195002 0.59600002 2
18.432501 6.1265001 0.61500001 2
18.526501 6.1525002 0.583 2
18.487499 6.1434999 0.58499998 2
18.508499 6.1465001 0.59899998 2
18.3815 6.1215 0.57599998 2
18.4645 6.1415 0.56300002 2
18.442499 6.1314998 0.59799999 2
18.449499 6.1335001 0.59799999 2
18.3745 6.1155 0.60399997 2
18.3615 6.1145 0.59200001 2
18.3715 6.1205001 0.56900001 2
18.394501 6.1155 0.63200003 2
18.418501 6.1294999 0.57999998 2
18.5525 6.1605 0.57099998 2
18.5795 6.1655002 0.57700002 2
18.4515 6.1374998 0.57300001 2
18.432501 6.1285 0.602 2
18.3825 6.1145 0.625 2
18.3715 6.1174998 0.58499998 2
18.525499 6.1545 0.56999999 2
18.3885 6.1164999 0.62099999 2
18.5875 6.1675 0.57499999 2
18.3785 6.1185002 0.58999997 2
18.4505 6.1294999 0.62300003 2
18.5765 6.1645002 0.57700002 2
18.536501 6.1564999 0.56999999 2
18.571501 6.1634998 0.57499999 2
18.4245 6.1255002 0.60900003 2
18.443501 6.1285 0.61699998 2
18.414499 6.1215 0.62300003 2
18.4105 6.1304998 0.56 2
18.532499 6.1515002 0.59600002 2
18.459499 6.1314998 0.62199998 2
18.370501 6.1135001 0.61299998 2
18.4245 6.1294999 0.58999997 2
18.3965 6.1224999 0.59299999 2
18.5585 6.1605 0.57499999 2
18.3785 6.1125002 0.63200003 2
18.4785 6.1364999 0.61699998 2
18.470501 6.1415 0.57099998 2
18.456499 6.1335001 0.60399997 2
18.519501 6.1485 0.59600002 2
18.4695 6.1424999 0.56999999 2
18.487499 6.1405001 0.60500002 2
18.365499 6.1085 0.63599998 2
18.363501 6.1114998 0.61299998 2
18.4095 6.1185002 0.63300002 2
18.356501 6.1034999 0.65200001 2
18.425501 6.1325002 0.56699997 2
18.4625 6.1374998 0.58899999 2
18.494499 6.1415 0.60600001 2
18.400499 6.1205001 0.611 2
18.4625 6.1345 0.60900003 2
18.4055 6.1224999 0.60500002 2
18.407499 6.1234999 0.597 2
18.3535 6.1055002 0.639 2
18.428499 6.1234999 0.62800002 2
18.5315 6.1554999 0.56999999 2
18.4655 6.1374998 0.59100002 2
18.473499 6.1405001 0.58499998 2
18.4415 6.1294999 0.611 2
18.4275 6.1304998 0.58499998 2
18.4165 6.1325002 0.55900002 2
18.359501 6.1055002 0.64700001 2
18.488501 6.1405001 0.60500002 2
18.366501 6.1125002 0.61199999 2
18.445499 6.1364999 0.57099998 2
18.4105 6.1304998 0.56 2
18.501499 6.1494999 0.56599998 2
18.4195 6.1224999 0.62 2
18.5145 6.1475 0.59899998 2
18.401501 6.1195002 0.61500001 2
18.421499 6.1294999 0.58200002 2
18.532499 6.1535001 0.58899999 2
18.498501 6.1465001 0.58099997 2
18.5825 6.1655002 0.57700002 2
18.3715 6.1135001 0.61500001 2
18.348499 6.1015 0.65499997 2
18.3715 6.1215 0.56599998 2
18.379499 6.1234999 0.56300002 2
18.431499 6.1314998 0.58200002 2
18.3925 6.1234999 0.58099997 2
18.4445 6.1325002 0.59500003 2
18.445499 6.1364999 0.57099998 2
18.4125 6.1265001 0.59100002 2
18.4545 6.1294999 0.625 2
18.384501 6.1244998 0.56400001 2
18.387501 6.1244998 0.565 2
18.3715 6.1085 0.64200002 2
18.390499 6.1205001 0.59600002 2
18.467501 6.1345 0.61500001 2
18.4505 6.1364999 0.57800001 2
18.3645 6.1135001 0.60399997 2
18.4485 6.1314998 0.60799998 2
18.377501 6.1145 0.61900002 2
18.4305 6.1265001 0.61500001 2
18.436501 6.1314998 0.58999997 2
18.438499 6.1345 0.57599998 2
18.386499 6.1145 0.62800002 2
18.4275 6.1255002 0.61299998 2
18.557501 6.1605 0.57700002 2
18.533501 6.1554999 0.57499999 2
18.466499 6.1345 0.61400002 2
18.473499 6.1444998 0.56199998 2
18.3715 6.1125002 0.61900002 2
18.438499 6.1325002 0.58700001 2
18.5665 6.1624999 0.57800001 2
18.5175 6.1494999 0.59100002 2
18.561501 6.1615 0.57700002 2
18.456499 6.1374998 0.57999998 2
18.4245 6.1275001 0.597 2
18.3995 6.1174998 0.63 2
18.4275 6.1304998 0.58399999 2
18.387501 6.1215 0.58499998 2
18.4865 6.1465001 0.565 2
18.3985 6.1174998 0.62300003 2
18.3825 6.1234999 0.56599998 2
18.380501 6.1135001 0.625 2
18.5755 6.1645002 0.57499999 2
18.370501 6.1145 0.60299999 2
18.4165 6.1205001 0.63300002 2
18.494499 6.1465001 0.57700002 2
18.4345 6.1275001 0.61299998 2
18.408501 6.1304998 0.55800003 2
18.400499 6.1294999 0.55500001 2
18.4925 6.1405001 0.60900003 2
18.3895 6.1164999 0.61799997 2
18.4205 6.1215 0.63200003 2
18.467501 6.1374998 0.59399998 2
18.4415 6.1294999 0.60799998 2
18.508499 6.1494999 0.62 2
18.431499 6.1465001 0.68599999 2
18.4795 6.1405001 0.62599999 2
18.5245 6.1564999 0.62099999 2
18.4345 6.1285 0.63999999 2
18.390499 6.1395001 0.70599997 2
18.401501 6.1325002 0.68000001 2
18.404499 6.1385002 0.69 2
18.362499 6.1335001 0.72000003 2
18.3365 6.1215 0.71499997 2
18.4615 6.1355 0.63099998 2
18.418501 6.1395001 0.68199998 2
18.4305 6.1385002 0.66600001 2
18.5345 6.1615 0.62400001 2
18.4855 6.1444998 0.62900001 2
18.3325 6.1314998 0.74299997 2
18.369499 6.1374998 0.72299999 2
18.431499 6.1444998 0.68099999 2
18.365499 6.1294999 0.70700002 2
18.4335 6.1424999 0.67400002 2
18.5455 6.1585002 0.60600001 2
18.504499 6.1444998 0.61199999 2
18.3325 6.1125002 0.69700003 2
18.439501 6.1455002 0.67400002 2
18.377501 6.1195002 0.671 2
18.3965 6.1174998 0.64999998 2
18.4645 6.1335001 0.62300003 2
18.377501 6.1405001 0.72100002 2
18.477501 6.1444998 0.63700002 2
18.4055 6.1345 0.68199998 2
18.4065 6.1205001 0.64600003 2
18.335501 6.1145 0.699 2
18.4065 6.1335001 0.67699999 2
18.4175 6.1215 0.63999999 2
18.404499 6.1364999 0.68699998 2
18.3675 6.1234999 0.69099998 2
18.4445 6.1494999 0.68099999 2
18.3585 6.1174998 0.68400002 2
18.400499 6.1265001 0.667 2
18.463499 6.1385002 0.63700002 2
18.4965 6.1434999 0.616 2
18.5175 6.1475 0.60600001 2
18.3475 6.1345 0.73500001 2
18.435499 6.1355 0.65499997 2
18.415501 6.1224999 0.64300001 2
18.359501 6.1374998 0.73100001 2
18.3265 6.1234999 0.72899997 2
18.3885 6.1244998 0.67500001 2
18.408501 6.1434999 0.699 2
18.335501 6.1155 0.70099998 2
18.445499 6.1335001 0.63999999 2
18.567499 6.1665001 0.60399997 2
18.4645 6.1355 0.62800002 2
18.394501 6.1314998 0.685 2
18.4515 6.1374998 0.64600003 2
18.4965 6.1525002 0.639 2
18.341499 6.1345 0.741 2
18.460501 6.1444998 0.65499997 2
18.5515 6.1564999 0.59600002 2
18.591499 6.1694999 0.588 2
18.3475 6.1255002 0.71499997 2
18.3815 6.1215 0.67199999 2
18.418501 6.1224999 0.63999999 2
18.4205 6.1455002 0.69199997 2
18.379499 6.1155 0.66100001 2
18.3885 6.1234999 0.67199999 2
18.383499 6.1164999 0.65899998 2
18.508499 6.1535001 0.63 2
18.3685 6.1135001 0.66600001 2
18.5075 6.1444998 0.61000001 2
18.4335 6.1395001 0.667 2
18.5495 6.1585002 0.602 2
18.495501 6.1424999 0.61699998 2
18.4305 6.1265001 0.63800001 2
18.3885 6.1275001 0.67900002 2
18.4515 6.1444998 0.662 2
18.393499 6.1325002 0.68800002 2
18.4965 6.1485 0.62800002 2
18.365499 6.1164999 0.67500001 2
18.4235 6.1275001 0.648 2
18.5625 6.1605 0.59600002 2
18.373501 6.1215 0.68000001 2
18.467501 6.1525002 0.66399997 2
18.449499 6.1475 0.671 2
18.470501 6.1395001 0.63200003 2
18.400499 6.1195002 0.64999998 2
18.3985 6.1215 0.65700001 2
18.4935 6.1515002 0.639 2
18.5035 6.1485 0.62199998 2
18.4585 6.1325002 0.62699997 2
18.501499 6.1434999 0.61299998 2
18.4475 6.1504998 0.67799997 2
18.504499 6.1465001 0.61699998 2
18.4025 6.1255002 0.66299999 2
18.372499 6.1364999 0.71700001 2
18.387501 6.1205001 0.66500002 2
18.3155 6.1304998 0.75700003 2
18.498501 6.1465001 0.62099999 2
18.4195 6.1444998 0.69199997 2
18.365499 6.1374998 0.72500002 2
18.3785 6.1294999 0.69400001 2
18.529499 6.1554999 0.61400002 2
18.4095 6.1314998 0.671 2
18.3755 6.1285 0.69700003 2
18.4505 6.1374998 0.64600003 2
18.439501 6.1395001 0.66100001 2
18.349501 6.1224999 0.70499998 2
18.4695 6.1434999 0.64200002 2
18.5345 6.1595001 0.61900002 2
18.459499 6.1475 0.66100001 2
18.567499 6.1645002 0.60000002 2
18.383499 6.1405001 0.71600002 2
18.505501 6.1444998 0.611 2
18.4655 6.1494999 0.66100001 2
18.3715 6.1215 0.68199998 2
18.3305 6.1314998 0.74599999 2
18.5075 6.1465001 0.61400002 2
18.563499 6.1615 0.597 2
18.377501 6.1104999 0.65100002 2
18.595501 6.1694999 0.58499998 2
18.4125 6.1355 0.67799997 2
18.443501 6.1304998 0.63700002 2
18.4035 6.1325002 0.67799997 2
18.4485 6.1444998 0.66399997 2
18.341499 6.1355 0.74299997 2
18.5235 6.1545 0.61699998 2
18.453501 6.1325002 0.63099998 2
18.3225 6.1265001 0.741 2
18.4855 6.1405001 0.61900002 2
18.532499 6.1564999 0.61299998 2
18.5445 6.1634998 0.61900002 2
18.3325 6.1234999 0.72399998 2
18.4205 6.1385002 0.676 2
18.515499 6.1545 0.62599999 2
18.3885 6.1314998 0.68900001 2
18.4695 6.1364999 0.625 2
18.3435 6.1224999 0.70999998 2
18.449499 6.1374998 0.64700001 2
18.411501 6.1385002 0.685 2
18.338499 6.1114998 0.69 2
18.3985 6.1434999 0.70899999 2
18.5945 6.1704998 0.58899999 2
18.352501 6.1314998 0.72299999 2
18.442499 6.1335001 0.64399999 2
18.3685 6.1335001 0.71200001 2
18.373501 6.1155 0.66600001 2
18.376499 6.1265001 0.68900001 2
18.4695 6.1395001 0.634 2
18.3585 6.1085 0.66399997 2
18.429501 6.1385002 0.667 2
18.4345 6.1314998 0.64600003 2
18.4195 6.1475 0.699 2
18.6215 6.1815 0.602 2
18.6285 6.2145 0.73199999 2
18.623501 6.1985002 0.67000002 2
18.5495 6.1964998 0.75199997 2
18.3885 6.1515002 0.75199997 2
18.4125 6.1554999 0.741 2
18.6015 6.2034998 0.71799999 2
18.546499 6.1725001 0.65499997 2
18.449499 6.1515002 0.68400002 2
18.5515 6.1904998 0.72100002 2
18.384501 6.1485 0.74800003 2
18.5205 6.1684999 0.66799998 2
18.5345 6.1665001 0.64399999 2
18.4895 6.1634998 0.68599999 2
18.5205 6.1754999 0.69700003 2
18.487499 6.1615 0.67900002 2
18.598499 6.1935 0.67799997 2
18.4615 6.1595001 0.70099998 2
18.5975 6.1795001 0.62400001 2
18.5905 6.1935 0.69 2
18.5175 6.1875 0.75 2
18.397499 6.1535001 0.75 2
18.497499 6.1675 0.69199997 2
18.5595 6.1785002 0.662 2
18.6005 6.1985002 0.69700003 2
18.5455 6.1785002 0.68000001 2
18.5385 6.1684999 0.648 2
18.585501 6.1865001 0.66600001 2
18.6115 6.1845002 0.62800002 2
18.5765 6.1774998 0.63700002 2
18.591499 6.1935 0.68699998 2
18.602501 6.2115002 0.75099999 2
18.5205 6.1735001 0.69099998 2
18.3895 6.1525002 0.75599998 2
18.5945 6.1855001 0.65200001 2
18.5795 6.1904998 0.69099998 2
18.6385 6.2175002 0.73199999 2
18.518499 6.1715002 0.685 2
18.505501 6.1684999 0.68599999 2
18.6315 6.2164998 0.73699999 2
18.623501 6.2115002 0.72500002 2
18.529499 6.1834998 0.72000003 2
18.613501 6.2084999 0.72399998 2
18.563499 6.1904998 0.70999998 2
18.4865 6.1605 0.67500001 2
18.5175 6.1684999 0.67299998 2
18.6035 6.1795001 0.61299998 2
18.519501 6.1834998 0.73199999 2
18.4025 6.1504998 0.73100001 2
18.487499 6.1615 0.67699999 2
18.5695 6.1725001 0.62699997 2
18.5455 6.1745 0.66299999 2
18.6185 6.1954999 0.66500002 2
18.5305 6.1694999 0.66100001 2
18.5135 6.1735001 0.69700003 2
18.6485 6.2135 0.70599997 2
18.5355 6.1645002 0.634 2
18.643499 6.2115002 0.70300001 2
18.5345 6.1704998 0.65799999 2
18.557501 6.1764998 0.65799999 2
18.372499 6.1405001 0.72500002 2
18.6455 6.2224998 0.74599999 2
18.5945 6.1954999 0.69199997 2
18.504499 6.1675 0.68400002 2
18.6245 6.1904998 0.63700002 2
18.612499 6.2104998 0.73500001 2
18.4305 6.1585002 0.73199999 2
18.6015 6.1774998 0.60799998 2
18.529499 6.1754999 0.685 2
18.4715 6.1595001 0.69 2
18.439501 6.1554999 0.70999998 2
18.470501 6.1564999 0.67799997 2
18.561501 6.1665001 0.61199999 2
18.5765 6.1704998 0.60900003 2
18.5945 6.1704998 0.58999997 2
18.532499 6.1805 0.704 2
18.3715 6.1424999 0.736 2
18.5135 6.1595001 0.64099997 2
18.5805 6.2024999 0.73900002 2
18.487499 6.1574998 0.66299999 2
18.6355 6.2145 0.72299999 2
18.5965 6.1745 0.60299999 2
18.6285 6.1985002 0.66399997 2
18.5825 6.1805 0.64300001 2
18.511499 6.1824999 0.73699999 2
18.362499 6.1455002 0.75999999 2
18.5875 6.1904998 0.68300003 2
18.3125 6.1325002 0.76700002 2
18.4725 6.1645002 0.70700002 2
18.6005 6.1884999 0.65700001 2
18.5585 6.1704998 0.63 2
18.5205 6.1725001 0.68599999 2
18.6315 6.1945 0.64399999 2
18.598499 6.1884999 0.65700001 2
18.522499 6.1615 0.63499999 2
18.4715 6.1684999 0.72600001 2
18.609501 6.1875 0.64200002 2
18.5865 6.1865001 0.667 2
18.5515 6.1865001 0.70899999 2
18.6045 6.2034998 0.71600002 2
18.6115 6.2094998 0.73400003 2
18.431499 6.1494999 0.69300002 2
18.341499 6.1374998 0.75199997 2
18.401501 6.1554999 0.75599998 2
18.5495 6.1904998 0.72600001 2
18.574499 6.1715002 0.61900002 2
18.5345 6.1774998 0.68699998 2
18.415501 6.1485 0.708 2
18.5975 6.2024999 0.71899998 2
18.556499 6.1985002 0.75 2
18.5725 6.1855001 0.68000001 2
18.543501 6.1845002 0.708 2
18.563499 6.1865001 0.69199997 2
18.598499 6.1915002 0.67299998 2
18.533501 6.1764998 0.68800002 2
18.453501 6.1525002 0.68300003 2
18.6245 6.1845002 0.61299998 2
18.6045 6.1824999 0.62699997 2
18.5105 6.1815 0.73500001 2
18.421499 6.1605 0.75199997 2
18.577499 6.1875 0.67900002 2
18.6015 6.1975002 0.69199997 2
18.612499 6.1954999 0.67299998 2
18.6185 6.2164998 0.75300002 2
18.334499 6.1374998 0.75800002 2
18.3825 6.1515002 0.76099998 2
18.5965 6.1764998 0.61199999 2
18.627501 6.2104998 0.71799999 2
18.4755 6.1745 0.74800003 2
18.5315 6.1634998 0.63200003 2
18.563499 6.1985002 0.74400002 2
18.6245 6.1904998 0.63700002 2
18.5835 6.1865001 0.66799998 2
18.540501 6.1834998 0.70899999 2
18.5835 6.1815 0.64600003 2
18.5695 6.1975002 0.73100001 2
18.4785 6.1675 0.71399999 2
18.5595 6.1735001 0.64200002 2
18.4725 6.1675 0.72100002 2
18.4895 6.1774998 0.74199998 2
18.5165 6.1735001 0.69499999 2
18.5035 6.1715002 0.69999999 2
18.5135 6.1634998 0.65700001 2
18.560499 6.1875 0.70099998 2
18.554501 6.1694999 0.63200003 2
18.563499 6.1845002 0.68400002 2
18.6315 6.1945 0.64700001 2
18.4995 6.1754999 0.722 2
18.5375 6.1735001 0.67000002 2
18.380501 6.1415 0.72299999 2
18.571501 6.1995001 0.736 2
18.5625 6.1884999 0.70099998 2
18.592501 6.1735001 0.602 2
18.491501 6.1574998 0.65700001 2
18.4335 6.1564999 0.72299999 2
18.633499 6.2154999 0.73100001 2
18.6395 6.2065001 0.68699998 2
18.4575 6.1665001 0.73299998 2
18.556499 6.1935 0.73199999 2
18.612499 6.2055001 0.71200001 2
18.504499 6.1745 0.70999998 2
18.5795 6.1995001 0.73000002 2
18.370501 6.1434999 0.74199998 2
18.4515 6.1624999 0.72600001 2
18.414499 6.1605 0.76099998 2
18.401501 6.1465001 0.71600002 2
18.5595 6.1675 0.61799997 2
18.557501 6.1894999 0.71200001 2
18.619499 6.1935 0.65399998 2
18.511499 6.1764998 0.71399999 2
18.5765 6.1754999 0.62900001 2
18.5525 6.1894999 0.71700001 2
18.5495 6.1725001 0.64999998 2
18.5765 6.1774998 0.639 2
18.5725 6.1795001 0.65100002 2
18.490499 6.1574998 0.65600002 2
18.567499 6.1834998 0.67500001 2
18.5945 6.2075 0.74400002 2
18.342501 6.1415 0.76499999 2
18.5165 6.1655002 0.66100001 2
18.556499 6.1915002 0.72100002 2
18.6105 6.1985002 0.68699998 2
18.400499 6.1535001 0.75 2
