# .PCD v0.7 - Point Cloud Data file format
VERSION 0.7
FIELDS x y z label
SIZE 4 4 4 4
TYPE F F F U
COUNT 1 1 1 1
WIDTH 1
HEIGHT 1293
VIEWPOINT 0 0 0 1 0 0 0
POINTS 1293
DATA ascii
14.9305 1.0985 0.15700001 9
14.8985 1.1005 0.156 9
14.9065 1.1005 0.15700001 9
14.8945 1.1015 0.15000001 9
14.9235 1.0994999 0.15700001 9
14.8985 1.1015 0.153 9
14.8995 1.1015 0.149 9
14.8925 1.1015 0.148 9
14.9145 1.1005 0.153 9
14.9445 1.0975 0.15899999 9
14.9075 1.1005 0.154 9
14.9035 1.1005 0.153 9
14.9085 1.1005 0.15000001 9
14.9565 1.0965 0.164 9
15.2005 1.1055 0.15899999 9
15.2205 1.1025 0.102 9
15.2235 1.0985 0.109 9
15.2285 1.0965 0.11 9
15.2175 1.1015 0.116 9
15.2085 1.1035 0.14300001 9
15.2175 1.1045001 0.096000001 9
15.2325 1.0935 0.114 9
15.2245 1.1035 0.075000003 9
15.2165 1.0994999 0.13600001 9
15.2245 1.0985 0.109 9
15.2095 1.1065 0.118 9
15.2105 1.1035 0.13699999 9
15.2125 1.1055 0.111 9
15.2105 1.1025 0.14399999 9
15.2245 1.0985 0.113 9
15.2235 1.0965 0.12800001 9
15.2035 1.1065 0.138 9
15.2245 1.1015 0.089000002 9
15.2085 1.1045001 0.13500001 9
15.2165 1.1055 0.093999997 9
15.2355 1.0985 0.085000001 9
14.9055 1.1065 0.146 9
14.9295 1.1045001 0.15099999 9
14.8815 1.1035 0.14300001 9
14.8815 1.1095001 0.141 9
14.8775 1.1145 0.139 9
14.8855 1.1195 0.138 9
14.9345 1.1015 0.153 9
14.8755 1.1185 0.13699999 9
14.8775 1.1065 0.142 9
14.9265 1.1045001 0.15099999 9
14.9355 1.1295 0.153 9
14.9415 1.1174999 0.155 9
14.8915 1.1235 0.139 9
14.9415 1.1525 0.155 9
14.8985 1.1335 0.141 9
14.9285 1.1914999 0.152 9
14.9325 1.1105 0.152 9
14.9285 1.1695 0.152 9
14.9305 1.1415 0.152 9
14.9315 1.2105 0.153 9
14.9325 1.1165 0.152 9
14.8835 1.1265 0.13699999 9
14.9235 1.1665 0.15000001 9
14.9315 1.1705 0.152 9
14.9335 1.1935 0.154 9
14.9335 1.1825 0.153 9
14.9255 1.1995 0.15099999 9
14.9075 1.1404999 0.145 9
14.9165 1.1925 0.148 9
14.9235 1.1695 0.15000001 9
14.8805 1.1345 0.13600001 9
14.9145 1.2005 0.147 9
14.9425 1.1015 0.155 9
14.9055 1.1245 0.14399999 9
14.9185 1.1945 0.149 9
14.9095 1.1445 0.145 9
14.9265 1.2185 0.152 9
14.8855 1.1325001 0.13699999 9
14.9295 1.1525 0.152 9
14.8915 1.1525 0.139 9
14.9065 1.1615 0.14399999 9
14.9365 1.1605 0.154 9
14.9195 1.1485 0.148 9
14.9115 1.1625 0.146 9
14.9185 1.2055 0.149 9
14.9315 1.2345001 0.153 9
14.8895 1.1395 0.139 9
14.9275 1.2105 0.152 9
14.9185 1.1715 0.148 9
14.8995 1.1224999 0.142 9
14.9165 1.1825 0.148 9
14.9215 1.1625 0.149 9
14.9125 1.1385 0.146 9
14.9055 1.1404999 0.14399999 9
14.8915 1.1205 0.139 9
14.9245 1.1645 0.15000001 9
14.9215 1.1785001 0.15000001 9
14.8855 1.1495 0.138 9
14.8815 1.1275001 0.13600001 9
14.9385 1.1025 0.154 9
14.9035 1.1185 0.14300001 9
14.9265 1.2045 0.15099999 9
14.9265 1.1515 0.15099999 9
14.9135 1.2155 0.14300001 9
14.9005 1.1935 0.138 9
14.8895 1.1585 0.138 9
14.8905 1.1575 0.139 9
14.8945 1.1705 0.14 9
14.9195 1.2235 0.146 9
14.9015 1.2065001 0.134 9
14.8855 1.1625 0.133 9
14.8925 1.1755 0.13600001 9
14.9055 1.1935 0.142 9
14.9015 1.1964999 0.13699999 9
14.8995 1.2075 0.132 9
14.8985 1.1964999 0.13500001 9
14.8825 1.1555001 0.133 9
14.9985 1.2875 0.146 9
14.9325 1.2474999 0.149 9
14.9755 1.2615 0.152 9
14.9995 1.3045 0.14 9
15.0655 1.3015 0.153 9
15.0045 1.2785 0.15099999 9
15.0225 1.2934999 0.149 9
15.0825 1.2934999 0.15899999 9
15.0355 1.2725 0.15899999 9
14.9535 1.2695 0.145 9
15.0365 1.2765 0.15700001 9
15.0305 1.3075 0.145 9
15.0655 1.2795 0.161 9
15.0685 1.2845 0.16 9
14.9505 1.3005 0.133 9
14.9715 1.2675 0.149 9
14.9445 1.2815 0.139 9
15.0205 1.3065 0.14300001 9
14.9375 1.2704999 0.142 9
14.9985 1.2915 0.145 9
15.0635 1.2875 0.15800001 9
14.9425 1.2555 0.148 9
15.0205 1.2925 0.148 9
15.0025 1.2885 0.147 9
14.9805 1.2955 0.14 9
15.0055 1.2605 0.15800001 9
14.9525 1.2725 0.14399999 9
15.0735 1.2945 0.15700001 9
14.9595 1.2975 0.13500001 9
15.0725 1.2995 0.155 9
15.0205 1.2675 0.15700001 9
15.1485 1.3055 0.167 9
15.0755 1.3035001 0.154 9
15.0265 1.2725 0.15700001 9
14.9435 1.3065 0.12899999 9
15.0415 1.2725 0.16 9
15.0735 1.2995 0.155 9
15.0425 1.3065 0.147 9
15.0215 1.2875 0.15000001 9
15.0945 1.3005 0.15899999 9
15.0965 1.2955 0.161 9
15.0495 1.2825 0.15800001 9
15.0275 1.3065 0.14399999 9
15.0315 1.3005 0.147 9
15.0855 1.3025 0.15700001 9
15.0595 1.2775 0.161 9
15.0585 1.2995 0.153 9
15.0255 1.3045 0.145 9
15.0635 1.2925 0.156 9
15.0915 1.2895 0.162 9
14.9435 1.2755001 0.141 9
15.0485 1.2945 0.153 9
15.0265 1.2695 0.15800001 9
14.9865 1.2955 0.141 9
15.0485 1.2775 0.15899999 9
15.0625 1.3035001 0.152 9
14.9375 1.2375 0.154 9
15.0305 1.2785 0.156 9
15.0575 1.2925 0.155 9
14.9915 1.2785 0.148 9
15.0905 1.3035001 0.15700001 9
15.0475 1.3015 0.15000001 9
15.0355 1.2975 0.149 9
15.1185 1.3055 0.161 9
14.9905 1.2995 0.14 9
14.9515 1.2805001 0.141 9
14.9385 1.2555 0.148 9
15.0095 1.2665 0.156 9
14.9815 1.2795 0.146 9
15.0025 1.2995 0.14300001 9
15.0615 1.3015 0.153 9
14.9795 1.2875 0.14300001 9
15.1115 1.3085001 0.15899999 9
15.0465 1.3045 0.149 9
15.1235 1.2955 0.16599999 9
15.0235 1.2775 0.154 9
14.9885 1.2585 0.155 9
15.0015 1.2975 0.14300001 9
15.1515 1.3085001 0.16599999 9
15.0205 1.2945 0.148 9
14.9655 1.2984999 0.13600001 9
14.9795 1.3015 0.138 9
15.1165 1.3055 0.161 9
14.9755 1.2855 0.14300001 9
15.0715 1.3045 0.153 9
14.9475 1.2945 0.134 9
14.9985 1.2654999 0.154 9
15.0675 1.2905 0.15800001 9
15.0715 1.2955 0.156 9
15.0775 1.1335 0.162 9
15.0065 1.1605 0.15800001 9
15.0405 1.1215 0.161 9
15.0925 1.1215 0.163 9
15.1585 1.1155 0.16599999 9
15.1425 1.1125 0.16500001 9
14.9575 1.2175 0.155 9
15.0495 1.1565 0.16 9
14.9885 1.1725 0.15700001 9
15.0305 1.1035 0.161 9
15.0465 1.1355 0.161 9
15.0385 1.1505001 0.16 9
15.0445 1.1404999 0.161 9
14.9705 1.2045 0.156 9
15.0635 1.1165 0.162 9
15.1205 1.1165 0.164 9
15.0025 1.1825 0.15800001 9
15.0635 1.1315 0.162 9
14.9985 1.1435 0.15899999 9
15.0535 1.1465 0.161 9
14.9625 1.1565 0.15700001 9
14.9925 1.1035 0.15899999 9
15.1345 1.1315 0.16500001 9
14.9645 1.1995 0.156 9
14.9935 1.1275001 0.15899999 9
15.0425 1.1365 0.161 9
15.1265 1.1385 0.164 9
15.1375 1.1155 0.16500001 9
15.0035 1.1085 0.16 9
14.9565 1.1345 0.15700001 9
14.9485 1.2115 0.155 9
15.0635 1.1174999 0.162 9
15.0645 1.1665 0.161 9
15.0905 1.1555001 0.162 9
15.0415 1.1285 0.161 9
14.9695 1.1365 0.15700001 9
14.9495 1.1495 0.156 9
14.9705 1.1325001 0.15800001 9
15.1435 1.1255 0.16500001 9
14.9625 1.1734999 0.156 9
14.9425 1.1905 0.155 9
15.0415 1.1695 0.16 9
15.0835 1.1385 0.162 9
14.9545 1.1585 0.156 9
15.0675 1.1605 0.161 9
14.9645 1.1615 0.15700001 9
15.0475 1.1605 0.16 9
15.0665 1.1365 0.162 9
14.9465 1.2025 0.155 9
14.9675 1.1885 0.156 9
15.0135 1.1505001 0.15899999 9
14.9725 1.1155 0.15800001 9
14.9675 1.1795 0.156 9
15.1115 1.1375 0.164 9
15.0285 1.1635 0.15899999 9
14.9465 1.2055 0.155 9
15.1195 1.1325001 0.164 9
15.0365 1.1345 0.16 9
15.0105 1.1135 0.16 9
15.0125 1.1265 0.16 9
14.9735 1.1835001 0.156 9
14.9595 1.1675 0.156 9
15.0295 1.1105 0.161 9
15.0595 1.1545 0.161 9
14.9745 1.1445 0.15700001 9
15.0235 1.1145 0.16 9
14.9915 1.1625 0.15800001 9
14.9615 1.1075 0.15800001 9
15.0325 1.1465 0.16 9
14.9865 1.1195 0.15899999 9
15.0475 1.1255 0.161 9
14.9815 1.1425 0.15800001 9
14.9735 1.1715 0.15700001 9
15.0115 1.1495 0.15899999 9
15.1005 1.1545 0.163 9
15.0435 1.1435 0.16 9
15.0435 1.1135 0.161 9
15.0285 1.1335 0.16 9
14.9715 1.1465 0.15700001 9
14.9825 1.1135 0.15899999 9
15.0245 1.1725 0.15899999 9
15.1445 1.1145 0.16599999 9
15.0705 1.1535 0.161 9
15.0765 1.1205 0.162 9
15.1655 1.1185 0.16599999 9
14.9635 1.1285 0.15700001 9
14.9505 1.2085 0.155 9
14.9845 1.1914999 0.15700001 9
15.1215 1.1245 0.164 9
15.1265 1.1095001 0.16500001 9
15.0195 1.1675 0.15899999 9
15.0015 1.1785001 0.15800001 9
15.0465 1.1595 0.16 9
15.0955 1.1135 0.163 9
14.9715 1.2155 0.156 9
14.9885 1.1734999 0.15700001 9
14.9735 1.1935 0.156 9
15.0965 1.1385 0.163 9
14.9985 1.1125 0.15899999 9
14.9835 1.1925 0.15700001 9
15.0045 1.1224999 0.15899999 9
15.0825 1.1285 0.163 9
15.0115 1.1815 0.15800001 9
15.0415 1.1115 0.161 9
15.0235 1.1684999 0.15899999 9
15.0875 1.1205 0.163 9
15.0845 1.1224999 0.163 9
14.9845 1.1945 0.15700001 9
15.0895 1.1555001 0.162 9
14.9875 1.1985 0.15700001 9
15.1165 1.1395 0.164 9
15.1125 1.1095001 0.164 9
15.1275 1.1345 0.164 9
15.0155 1.1935 0.15800001 9
14.9935 1.1415 0.15800001 9
15.0475 1.1155 0.161 9
14.9815 1.1215 0.15800001 9
15.0475 1.1404999 0.161 9
15.0375 1.1715 0.16 9
14.9665 1.2115 0.155 9
14.9685 1.1385 0.15700001 9
14.9715 1.1445 0.15700001 9
14.9585 1.1825 0.156 9
14.9755 1.1375 0.15800001 9
15.1615 1.1135 0.16599999 9
15.0045 1.1055 0.16 9
14.9815 1.1295 0.15800001 9
14.9825 1.1224999 0.15800001 9
14.9715 1.1395 0.15700001 9
15.0245 1.1215 0.16 9
15.0225 1.1155 0.16 9
15.0705 1.1625 0.161 9
15.0075 1.1385 0.15899999 9
14.9775 1.1135 0.15800001 9
14.9375 1.1995 0.154 9
15.0485 1.1515 0.16 9
15.0445 1.1605 0.16 9
14.9635 1.2135 0.155 9
15.0515 1.1315 0.161 9
15.0195 1.1815 0.15800001 9
15.0525 1.1535 0.161 9
14.9495 1.1085 0.15700001 9
15.1125 1.1255 0.164 9
14.9815 1.1015 0.15899999 9
15.1135 1.1445 0.163 9
15.0175 1.1065 0.16 9
14.9585 1.1865 0.156 9
15.0275 1.1525 0.16 9
15.0745 1.1435 0.162 9
15.0195 1.1595 0.15899999 9
14.9515 1.1975 0.155 9
15.1345 1.1145 0.16500001 9
14.9585 1.2145 0.155 9
14.9695 1.1105 0.15800001 9
15.0395 1.1265 0.161 9
14.9925 1.2055 0.15700001 9
14.9685 1.1945 0.156 9
15.0055 1.1865 0.15800001 9
15.0985 1.1155 0.164 9
14.9845 1.1675 0.15700001 9
15.0315 1.1675 0.15899999 9
14.9555 1.1075 0.15800001 9
14.9965 1.1835001 0.15700001 9
15.0755 1.2755001 0.163 9
14.9685 1.2435 0.156 9
15.0945 1.2255 0.163 9
15.1665 1.2335 0.168 9
15.1535 1.2244999 0.167 9
15.1475 1.2675 0.167 9
15.1145 1.2165 0.164 9
15.0815 1.2815 0.163 9
15.1535 1.2665 0.167 9
15.1145 1.2065001 0.164 9
15.1685 1.3055 0.169 9
15.0285 1.2335 0.15899999 9
15.0775 1.1855 0.162 9
15.0205 1.2295001 0.15899999 9
15.0165 1.2065001 0.15800001 9
15.0555 1.2235 0.161 9
14.9965 1.2525001 0.15800001 9
15.0835 1.1825 0.162 9
15.0965 1.2255 0.163 9
15.0795 1.2485 0.163 9
15.1545 1.2035 0.167 9
15.0335 1.2605 0.16 9
15.0405 1.1865 0.15899999 9
15.0855 1.2155 0.163 9
15.0975 1.1925 0.163 9
15.0375 1.2575001 0.16 9
15.0475 1.2025 0.16 9
15.1545 1.1995 0.167 9
15.1605 1.2485 0.168 9
15.0945 1.2625 0.164 9
15.1165 1.1485 0.164 9
15.0615 1.2385 0.161 9
15.1535 1.2785 0.168 9
15.1355 1.1495 0.16500001 9
15.1155 1.2115 0.164 9
14.9715 1.2165 0.156 9
15.1395 1.2365 0.16599999 9
15.0995 1.2145 0.163 9
15.1345 1.1825 0.16500001 9
15.0775 1.2165 0.162 9
15.0395 1.2365 0.16 9
15.1185 1.2695 0.16500001 9
15.1405 1.2155 0.16599999 9
15.1695 1.2194999 0.168 9
15.0485 1.2165 0.16 9
15.0305 1.1905 0.15899999 9
15.1705 1.1745 0.167 9
15.1495 1.2755001 0.167 9
15.0525 1.2585 0.161 9
15.1545 1.2965 0.168 9
15.1445 1.2055 0.16599999 9
15.0885 1.2095 0.163 9
15.1255 1.2885 0.16599999 9
15.0035 1.2225 0.15800001 9
15.1315 1.1855 0.16500001 9
15.1445 1.2275 0.16599999 9
15.1355 1.1585 0.16500001 9
15.1415 1.2175 0.16599999 9
15.0965 1.2415 0.164 9
15.1125 1.2215 0.164 9
15.1325 1.1615 0.16500001 9
15.0245 1.2225 0.15899999 9
15.0035 1.2395 0.15800001 9
15.1785 1.1635 0.168 9
15.1215 1.2405 0.16500001 9
15.1345 1.1795 0.16500001 9
15.1475 1.1525 0.16599999 9
15.1555 1.2185 0.167 9
15.1695 1.1385 0.167 9
15.0865 1.2415 0.163 9
15.1415 1.2365 0.16599999 9
14.9685 1.2305 0.156 9
15.1185 1.2845 0.16599999 9
15.1485 1.1825 0.16599999 9
15.0535 1.2704999 0.161 9
15.1305 1.1625 0.16500001 9
15.1775 1.1355 0.167 9
15.1585 1.2815 0.168 9
15.1785 1.1575 0.167 9
14.9795 1.2385 0.156 9
15.0645 1.2415 0.162 9
15.0665 1.1825 0.161 9
15.1105 1.2145 0.164 9
15.1065 1.2605 0.164 9
15.0935 1.2595 0.164 9
15.0645 1.2405 0.162 9
15.1365 1.1535 0.16500001 9
15.0925 1.2465 0.163 9
14.9575 1.2355 0.155 9
15.1275 1.1725 0.16500001 9
15.1225 1.1485 0.164 9
15.1535 1.1905 0.16599999 9
15.1765 1.1404999 0.167 9
15.1505 1.1305 0.16500001 9
15.0255 1.2075 0.15899999 9
15.0415 1.1945 0.16 9
15.1075 1.2275 0.164 9
15.1165 1.2515 0.16500001 9
15.0915 1.2635 0.164 9
14.9875 1.2185 0.15700001 9
15.1105 1.2025 0.164 9
15.0795 1.2375 0.163 9
15.1425 1.2735 0.167 9
15.0545 1.2375 0.161 9
15.0965 1.2775 0.164 9
15.1415 1.1845 0.16599999 9
15.0645 1.1855 0.161 9
15.1125 1.2085 0.164 9
15.0655 1.2665 0.162 9
15.1305 1.1695 0.16500001 9
15.0495 1.2225 0.16 9
14.9455 1.2395 0.154 9
15.0655 1.2185 0.161 9
15.0495 1.2155 0.16 9
15.1585 1.2945 0.168 9
15.0835 1.2105 0.162 9
15.1535 1.2105 0.167 9
15.0155 1.2125 0.15800001 9
15.1395 1.2695 0.167 9
15.0175 1.2095 0.15800001 9
15.1165 1.1695 0.164 9
15.1055 1.2745 0.16500001 9
15.0795 1.2165 0.162 9
15.1745 1.1315 0.167 9
15.1085 1.2275 0.164 9
15.1475 1.2625 0.167 9
15.1185 1.1875 0.164 9
15.0105 1.2474999 0.15800001 9
15.0705 1.2545 0.162 9
15.0045 1.2095 0.15700001 9
15.1765 1.1885 0.168 9
15.0055 1.2415 0.15800001 9
15.1645 1.1745 0.167 9
15.0845 1.1914999 0.162 9
14.9705 1.2375 0.156 9
15.1365 1.2045 0.16599999 9
15.1085 1.1955 0.164 9
14.9945 1.2535 0.15700001 9
15.1575 1.2194999 0.167 9
14.9765 1.2485 0.156 9
14.9515 1.2285 0.155 9
15.0395 1.1925 0.15899999 9
15.1285 1.2855 0.16599999 9
15.0745 1.2495 0.162 9
15.1175 1.2875 0.16599999 9
15.1765 1.1795 0.168 9
15.1415 1.1535 0.16500001 9
15.1275 1.2335 0.16500001 9
15.1215 1.2905 0.16599999 9
15.1525 1.1555001 0.16599999 9
15.0565 1.2025 0.161 9
15.1695 1.2565 0.168 9
15.0855 1.1925 0.162 9
14.9695 1.2205 0.155 9
14.9745 1.2205 0.156 9
15.1815 1.1235 0.167 9
15.1345 1.1835001 0.16500001 9
15.0585 1.2625 0.162 9
15.0095 1.2285 0.15800001 9
15.0965 1.2565 0.164 9
15.0405 1.2345001 0.16 9
15.1415 1.2755001 0.167 9
15.1175 1.2535 0.16500001 9
14.9845 1.2115 0.156 9
15.0925 1.2405 0.163 9
15.1695 1.1655 0.167 9
15.1425 1.1385 0.16500001 9
15.1595 1.2355 0.167 9
14.9855 1.2405 0.15700001 9
15.1175 1.2375 0.16500001 9
15.1175 1.2194999 0.16500001 9
15.1775 1.1775 0.168 9
15.1655 1.1404999 0.16599999 9
15.1415 1.1435 0.16500001 9
15.1585 1.2995 0.168 9
15.0625 1.2235 0.161 9
15.0805 1.1785001 0.162 9
15.0495 1.2695 0.161 9
15.1005 1.2065001 0.163 9
15.1085 1.1615 0.163 9
15.0775 1.2355 0.162 9
15.0575 1.1914999 0.161 9
14.9885 1.2205 0.15700001 9
15.1685 1.2125 0.168 9
15.1165 1.2845 0.16500001 9
15.0505 1.2505 0.161 9
15.1115 1.2715 0.16500001 9
15.0205 1.2185 0.15899999 9
15.0505 1.2465 0.161 9
15.1345 1.2745 0.16599999 9
15.1675 1.1935 0.167 9
15.1605 1.3055 0.168 9
15.0985 1.1985 0.163 9
15.0545 1.2235 0.161 9
15.1375 1.1615 0.16500001 9
15.0655 1.1875 0.161 9
15.0265 1.2625 0.16 9
15.1565 1.2005 0.167 9
15.0615 1.2345001 0.161 9
15.0315 1.2545 0.16 9
15.0065 1.2445 0.15800001 9
15.1125 1.2875 0.16500001 9
15.0495 1.2225 0.16 9
15.0635 1.2015001 0.161 9
15.0635 1.2105 0.161 9
15.0545 1.2535 0.161 9
15.0765 1.2215 0.162 9
15.1735 1.1445 0.167 9
15.0735 1.1875 0.161 9
15.1655 1.2305 0.168 9
15.1025 1.2025 0.163 9
14.9995 1.2355 0.15800001 9
15.0325 1.2635 0.16 9
14.9635 1.2315 0.155 9
15.1015 1.2575001 0.164 9
15.1175 1.1945 0.164 9
14.9475 1.2325 0.154 9
15.0655 1.2635 0.162 9
15.0275 1.2255 0.15899999 9
15.1645 1.1525 0.167 9
15.0615 1.1785001 0.161 9
15.1165 1.1805 0.164 9
14.9705 1.2185 0.156 9
15.0775 1.2675 0.163 9
15.1545 1.1914999 0.16599999 9
15.1345 1.2065001 0.16500001 9
15.1435 1.2225 0.16599999 9
15.1535 1.1355 0.16599999 9
15.0875 1.2255 0.163 9
15.0735 1.2445 0.162 9
14.9705 1.2405 0.156 9
15.1005 1.2775 0.164 9
15.1175 1.1895 0.164 9
15.1585 1.2455 0.167 9
15.1075 1.1865 0.164 9
15.0415 1.2505 0.16 9
15.1685 1.1945 0.167 9
15.1355 1.1045001 0.16599999 9
15.0615 1.0975 0.163 9
15.1045 1.1035 0.164 9
15.0945 1.1045001 0.164 9
15.1025 1.1035 0.164 9
15.0275 1.0944999 0.162 9
15.1415 1.1005 0.167 9
14.9655 1.0985 0.15800001 9
15.1185 1.1075 0.16500001 9
14.9655 1.0985 0.15800001 9
15.1525 1.1055 0.167 9
15.1765 1.1095001 0.167 9
15.1025 1.1035 0.164 9
15.0025 1.0955 0.16 9
15.0775 1.0994999 0.164 9
15.0145 1.1005 0.16 9
15.1435 1.1065 0.16599999 9
14.9645 1.0944999 0.15899999 9
15.0455 1.1035 0.162 9
15.0605 1.1045001 0.162 9
15.1195 1.1085 0.16500001 9
14.9705 1.0935 0.15899999 9
14.9595 1.0975 0.15800001 9
15.1505 1.1085 0.16599999 9
15.1735 1.1095001 0.167 9
15.0795 1.1045001 0.163 9
15.1885 1.1115 0.167 9
14.9335 1.3095 0.125 9
14.9985 1.3615 0.057999998 9
15.0045 1.3655 0.052999999 9
14.9435 1.3115 0.12 9
15.0225 1.3595001 0.048999999 9
15.0045 1.3415 0.071000002 9
14.9845 1.3645 0.061999999 9
15.0045 1.3674999 0.050999999 9
14.9825 1.3485 0.075000003 9
15.0065 1.3415 0.07 9
15.0105 1.3595001 0.055 9
14.9935 1.3515 0.068999998 9
14.9875 1.3565 0.067000002 9
15.0045 1.3475 0.067000002 9
15.0045 1.3665 0.052000001 9
14.9635 1.3425 0.088 9
14.9765 1.3494999 0.077 9
15.0025 1.3555 0.061000001 9
15.0525 1.3685 0.029999999 9
14.9625 1.3265001 0.101 9
14.9815 1.3345 0.086999997 9
14.9805 1.3475 0.075999998 9
14.9845 1.3535 0.071000002 9
14.9955 1.3645 0.057999998 9
14.9975 1.3475 0.07 9
14.9975 1.3505 0.067000002 9
14.9655 1.3475 0.082999997 9
15.0125 1.3575 0.055 9
15.0065 1.3645 0.052999999 9
15.0155 1.3535 0.057 9
14.9475 1.3155 0.115 9
15.0495 1.3645 0.035 9
14.9745 1.3535 0.075000003 9
14.9975 1.3525 0.066 9
15.0025 1.3815 0.026000001 9
15.0155 1.3785 0.026000001 9
15.0215 1.3755 0.032000002 9
14.9705 1.3735 0.052999999 9
15.0245 1.3745 0.032000002 9
14.9795 1.3795 0.037999999 9
14.9755 1.3775001 0.044 9
14.9815 1.3785 0.037999999 9
15.0185 1.3724999 0.039000001 9
15.0175 1.3755 0.033 9
15.0035 1.3735 0.041999999 9
14.9755 1.3785 0.041000001 9
15.0055 1.3775001 0.033 9
14.9815 1.3775001 0.041000001 9
15.0105 1.3805 0.024 9
15.0165 1.3745 0.035999998 9
14.9715 1.3865 0.025 9
15.0005 1.3745 0.041000001 9
15.0755 1.3425 0.081 9
15.1355 1.3285 0.122 9
15.0005 1.3385 0.075000003 9
15.0695 1.3085001 0.15000001 9
15.0935 1.3085001 0.155 9
14.9985 1.3125 0.12800001 9
15.1035 1.3185 0.13699999 9
15.1295 1.3115 0.156 9
15.0265 1.3425 0.071999997 9
15.1355 1.3214999 0.138 9
14.9915 1.3115 0.13 9
15.0525 1.3485 0.066 9
14.9595 1.3175 0.11 9
15.0795 1.3555 0.056000002 9
14.9825 1.3275 0.093999997 9
15.0015 1.3214999 0.11 9
15.1175 1.3155 0.146 9
14.9995 1.3205 0.113 9
15.1375 1.3225 0.13500001 9
15.0305 1.3325 0.093999997 9
15.0635 1.3225 0.12 9
15.0255 1.3435 0.07 9
15.0125 1.3085001 0.14 9
15.0955 1.3214999 0.12899999 9
15.0275 1.3455 0.067000002 9
15.0255 1.3115 0.13600001 9
15.0545 1.3245 0.116 9
15.0145 1.3265001 0.103 9
15.0985 1.3355 0.101 9
15.0765 1.3555 0.055 9
15.1065 1.3335 0.108 9
15.1185 1.3115 0.155 9
15.0035 1.3115 0.131 9
15.0235 1.3375 0.082000002 9
15.0855 1.3085001 0.154 9
15.0565 1.3145 0.13699999 9
14.9975 1.3325 0.088 9
15.0925 1.3455 0.079000004 9
15.0105 1.3105 0.13600001 9
15.0205 1.3435 0.07 9
14.9935 1.3315001 0.088 9
15.0215 1.3265001 0.104 9
15.0685 1.3525 0.059999999 9
15.0995 1.3444999 0.082999997 9
15.1265 1.3345 0.109 9
15.0605 1.3525 0.057999998 9
15.1435 1.3205 0.14 9
15.0625 1.3674999 0.028000001 9
15.0705 1.3665 0.033 9
15.0025 1.3245 0.105 9
15.0105 1.3095 0.138 9
15.0915 1.3315001 0.108 9
14.9995 1.3295 0.093000002 9
15.0145 1.3125 0.132 9
15.1155 1.3175 0.142 9
15.0955 1.3275 0.116 9
15.0335 1.3135 0.133 9
15.1025 1.3225 0.12899999 9
15.0635 1.3385 0.088 9
15.0405 1.3275 0.107 9
14.9605 1.3125 0.122 9
15.1405 1.3195 0.141 9
15.0545 1.3385 0.086999997 9
15.0135 1.3395 0.077 9
15.1155 1.3164999 0.14300001 9
15.0615 1.3225 0.121 9
15.0695 1.3405 0.085000001 9
15.1045 1.3145 0.145 9
15.0935 1.3155 0.141 9
15.0215 1.3444999 0.068000004 9
15.0455 1.3085001 0.146 9
15.0475 1.3475 0.066 9
14.9685 1.3155 0.115 9
15.0265 1.3155 0.12800001 9
15.0325 1.3185 0.123 9
15.0485 1.3395 0.082999997 9
15.0165 1.3325 0.090000004 9
15.0025 1.3355 0.082999997 9
15.0265 1.3185 0.122 9
15.1585 1.3145 0.15700001 9
15.0225 1.3305 0.096000001 9
15.0515 1.3505 0.059999999 9
15.0345 1.3545001 0.048999999 9
15.0195 1.3125 0.133 9
14.9925 1.3115 0.13 9
14.9945 1.3095 0.134 9
14.9675 1.3175 0.112 9
15.0065 1.3385 0.077 9
15.1425 1.3145 0.153 9
15.1325 1.3175 0.145 9
15.0095 1.3155 0.124 9
15.1095 1.3205 0.13500001 9
15.1015 1.3205 0.133 9
15.0025 1.3235 0.106 9
15.0965 1.3385 0.094999999 9
15.0195 1.3125 0.134 9
15.0745 1.3575 0.050999999 9
14.9955 1.3095 0.13500001 9
15.1315 1.3115 0.156 9
15.0555 1.3575 0.048 9
15.0065 1.3415 0.071000002 9
15.0805 1.3135 0.14300001 9
15.0495 1.3205 0.122 9
15.0265 1.3275 0.104 9
15.0185 1.3115 0.13500001 9
15.0855 1.3245 0.12 9
15.0215 1.3255 0.106 9
15.0845 1.3625 0.044 9
15.0475 1.3565 0.048 9
14.9775 1.3085001 0.134 9
15.1405 1.3225 0.13699999 9
15.0795 1.3515 0.064000003 9
15.1135 1.3405 0.093000002 9
15.0735 1.3585 0.048999999 9
14.9575 1.3145 0.117 9
15.0205 1.3145 0.12899999 9
15.0335 1.3235 0.112 9
15.1035 1.3255 0.123 9
15.1215 1.3214999 0.134 9
15.0515 1.3105 0.14300001 9
15.1095 1.3295 0.116 9
15.0815 1.3425 0.083999999 9
14.9465 1.3115 0.121 9
15.1125 1.3375 0.1 9
15.0215 1.3295 0.098999999 9
15.0585 1.3444999 0.075000003 9
15.0285 1.3444999 0.07 9
15.0325 1.3535 0.052000001 9
15.0825 1.3135 0.14399999 9
15.0145 1.3315001 0.093999997 9
15.0635 1.3255 0.115 9
15.0615 1.3605 0.041999999 9
15.0145 1.3095 0.138 9
15.0135 1.3285 0.098999999 9
15.0625 1.3265001 0.113 9
15.0585 1.3245 0.116 9
15.0955 1.3325 0.106 9
15.1135 1.3245 0.127 9
15.0915 1.3305 0.111 9
15.0855 1.3465 0.075999998 9
15.0785 1.3674999 0.032000002 9
15.0325 1.3444999 0.068999998 9
15.0355 1.3325 0.096000001 9
14.9685 1.3105 0.127 9
15.0065 1.3305 0.093000002 9
15.0525 1.3235 0.118 9
15.1375 1.3164999 0.148 9
15.0505 1.3315001 0.1 9
15.0765 1.3535 0.059999999 9
15.0225 1.3405 0.075999998 9
14.9805 1.3225 0.104 9
14.9955 1.3335 0.086000003 9
15.1315 1.3185 0.14300001 9
15.0845 1.3325 0.104 9
15.1435 1.3155 0.15099999 9
15.0865 1.3345 0.101 9
15.0385 1.3164999 0.12800001 9
15.0735 1.3175 0.133 9
15.0495 1.3415 0.079999998 9
15.0715 1.3195 0.13 9
15.0665 1.3275 0.111 9
15.0955 1.3555 0.059 9
15.0945 1.3315001 0.108 9
15.0395 1.3085001 0.146 9
15.0525 1.3195 0.125 9
15.1085 1.3405 0.093000002 9
14.9935 1.3205 0.11 9
14.9745 1.3125 0.124 9
15.1305 1.3295 0.121 9
15.0475 1.3525 0.057 9
15.0235 1.3085001 0.142 9
15.0615 1.3555 0.054000001 9
15.1305 1.3615 0.037 9
15.1725 1.3235 0.131 9
15.1575 1.3545001 0.052000001 9
15.1965 1.3465 0.064999998 9
15.1285 1.3405 0.092 9
15.1925 1.3535 0.046999998 9
15.1005 1.3575 0.055 9
15.1825 1.3425 0.077 9
15.1205 1.3635 0.034000002 9
15.1445 1.3645 0.027000001 9
15.1605 1.3345 0.104 9
15.1195 1.3555 0.055 9
15.1225 1.3465 0.078000002 9
15.1705 1.3565 0.043000001 9
15.1615 1.3605 0.033 9
15.1435 1.3345 0.107 9
15.1925 1.3545001 0.045000002 9
15.1655 1.3635 0.026000001 9
15.1865 1.3385 0.086999997 9
15.1655 1.3465 0.071000002 9
15.1825 1.3455 0.068999998 9
15.1755 1.3555 0.044 9
15.1585 1.3425 0.081 9
15.1295 1.3645 0.029999999 9
15.1455 1.3525 0.057999998 9
15.1175 1.3435 0.089000002 9
15.1465 1.3565 0.046999998 9
15.1055 1.3615 0.041999999 9
15.1485 1.3605 0.035999998 9
15.1235 1.3625 0.035 9
15.0905 1.3625 0.041999999 9
15.1675 1.3575 0.041000001 9
15.1555 1.3345 0.104 9
15.1875 1.3405 0.081 9
15.0915 1.3605 0.048999999 9
15.1825 1.3575 0.039000001 9
15.1525 1.3545001 0.050999999 9
15.1845 1.3485 0.061999999 9
15.1675 1.3415 0.083999999 9
15.1775 1.3535 0.048999999 9
15.1985 1.3595001 0.029999999 9
15.1665 1.3505 0.059 9
15.1355 1.3375 0.101 9
15.1125 1.3535 0.061000001 9
15.1655 1.3455 0.072999999 9
15.1355 1.3555 0.052000001 9
15.1365 1.3405 0.093000002 9
15.1305 1.3635 0.033 9
15.1815 1.3615 0.028000001 9
15.1595 1.3385 0.092 9
15.1835 1.3535 0.048999999 9
15.1255 1.3485 0.072999999 9
15.1065 1.3595001 0.048 9
15.1495 1.3275 0.124 9
15.1815 1.3305 0.109 9
15.1635 1.3395 0.089000002 9
15.1605 1.3275 0.122 9
15.1685 1.3585 0.039000001 9
15.1765 1.3435 0.075999998 9
15.1265 1.3415 0.090999998 9
15.0785 1.3705 0.024 9
15.1405 1.3395 0.093999997 9
15.1455 1.3335 0.109 9
15.1375 1.3535 0.057999998 9
15.1265 1.3505 0.068000004 9
15.1685 1.3235 0.131 9
15.1375 1.3525 0.059999999 9
15.1865 1.3535 0.046 9
15.1455 1.3295 0.12 9
15.1235 1.3465 0.079000004 9
15.1655 1.3155 0.154 9
15.1375 1.3444999 0.082000002 9
15.1405 1.3525 0.059999999 9
15.1525 1.3235 0.134 9
15.0775 1.3695 0.026000001 9
15.1645 1.3164999 0.15099999 9
15.1725 1.3345 0.1 9
15.1455 1.3325 0.11 9
15.1705 1.3505 0.057999998 9
15.1805 1.3485 0.061000001 9
15.1645 1.3265001 0.123 9
15.1485 1.3405 0.089000002 9
15.1125 1.3505 0.071000002 9
15.1115 1.3515 0.068000004 9
15.0985 1.3625 0.041999999 9
15.1555 1.3515 0.057999998 9
15.1545 1.3315001 0.113 9
15.0845 1.3685 0.028999999 9
15.0965 1.3655 0.033 9
15.1965 1.3575 0.034000002 9
15.1675 1.3444999 0.075999998 9
15.1895 1.3585 0.034000002 9
15.1175 1.3515 0.066 9
15.1795 1.3475 0.064000003 9
15.1885 1.3485 0.059 9
15.1685 1.3525 0.055 9
15.1295 1.3444999 0.082000002 9
15.1595 1.3385 0.092 9
15.1185 1.3415 0.092 9
15.1605 1.3325 0.109 9
15.1505 1.3335 0.107 9
15.1345 1.3625 0.034000002 9
15.1515 1.3205 0.14300001 9
15.1605 1.3155 0.153 9
15.1805 1.3575 0.039000001 9
15.1855 1.3475 0.063000001 9
15.1175 1.3455 0.082999997 9
15.1875 1.3435 0.074000001 9
15.1255 1.3435 0.086999997 9
15.2045 1.2695 0.097000003 9
15.1965 1.1645 0.13500001 9
15.1935 1.2805001 0.119 9
15.1895 1.2415 0.134 9
15.1875 1.2815 0.132 9
15.1975 1.2075 0.122 9
15.1795 1.2005 0.164 9
15.1895 1.2235 0.138 9
15.2185 1.2795 0.064000003 9
15.1835 1.1905 0.15700001 9
15.1755 1.2635 0.161 9
15.1835 1.2095 0.152 9
15.1765 1.2825 0.154 9
15.1765 1.2485 0.162 9
15.1805 1.2285 0.156 9
15.1785 1.1935 0.167 9
15.1875 1.1805 0.149 9
15.1785 1.2125 0.164 9
15.2015 1.2385 0.11 9
15.1965 1.2105 0.126 9
15.1865 1.1275001 0.163 9
15.1965 1.1675 0.134 9
15.1935 1.2035 0.134 9
15.1835 1.2194999 0.152 9
15.1845 1.1684999 0.16 9
15.2015 1.2815 0.1 9
15.1945 1.1885 0.134 9
15.2045 1.2745 0.096000001 9
15.2045 1.2205 0.106 9
15.1945 1.1595 0.139 9
15.1915 1.1695 0.14399999 9
15.1855 1.2015001 0.15000001 9
15.1885 1.2185 0.141 9
15.1775 1.2345001 0.162 9
15.2045 1.2725 0.094999999 9
15.1875 1.1875 0.148 9
15.1895 1.2085 0.141 9
15.1805 1.2895 0.145 9
15.1885 1.2725 0.132 9
15.2115 1.2835 0.079000004 9
15.1915 1.2915 0.122 9
15.1905 1.2474999 0.13 9
15.1805 1.2835 0.147 9
15.1875 1.1684999 0.152 9
15.1805 1.1785001 0.167 9
15.1825 1.1545 0.16500001 9
15.1805 1.2845 0.147 9
15.2105 1.2845 0.079999998 9
15.1885 1.1365 0.156 9
15.1845 1.2375 0.145 9
15.1915 1.1515 0.147 9
15.2015 1.2515 0.106 9
15.2005 1.2465 0.109 9
15.1865 1.1454999 0.16 9
15.1835 1.2194999 0.153 9
15.2045 1.2065001 0.109 9
15.1725 1.2845 0.164 9
15.1865 1.2855 0.133 9
15.1795 1.2775 0.15000001 9
15.1855 1.2715 0.138 9
15.2025 1.2485 0.105 9
15.1755 1.2205 0.168 9
15.2025 1.2805001 0.097999997 9
15.1885 1.2885 0.12899999 9
15.1795 1.3005 0.14399999 9
15.1895 1.1655 0.149 9
15.2015 1.2585 0.104 9
15.2025 1.2565 0.104 9
15.1885 1.2095 0.14399999 9
15.2025 1.2175 0.11 9
15.1995 1.2194999 0.116 9
15.1855 1.1785001 0.155 9
15.1925 1.1775 0.141 9
15.1855 1.2115 0.149 9
15.1835 1.2635 0.14399999 9
15.1945 1.2895 0.114 9
15.2165 1.2725 0.07 9
15.1905 1.2735 0.126 9
15.1925 1.2205 0.132 9
15.2185 1.2745 0.064999998 9
15.1905 1.2555 0.13 9
15.2085 1.2715 0.086999997 9
15.2115 1.2515 0.083999999 9
15.1855 1.2984999 0.132 9
15.2085 1.2775 0.086999997 9
15.1985 1.2785 0.108 9
15.1965 1.2395 0.12 9
15.1795 1.2575001 0.154 9
15.1995 1.2715 0.106 9
15.1855 1.2525001 0.141 9
15.1795 1.2945 0.146 9
15.2015 1.1885 0.118 9
15.1795 1.2555 0.153 9
15.1785 1.2535 0.15700001 9
15.1915 1.2145 0.134 9
15.1855 1.2355 0.14300001 9
15.1865 1.2285 0.14300001 9
15.1865 1.1995 0.148 9
15.1895 1.1415 0.153 9
15.1885 1.2225 0.139 9
15.2035 1.2895 0.096000001 9
15.1765 1.2105 0.168 9
15.2105 1.2835 0.081 9
15.1845 1.2654999 0.14 9
15.1805 1.2205 0.15800001 9
15.1835 1.1745 0.161 9
15.1795 1.2605 0.152 9
15.1805 1.2275 0.156 9
15.1945 1.1875 0.134 9
15.1865 1.2244999 0.14399999 9
15.1805 1.2815 0.146 9
15.2065 1.2135 0.102 9
15.1895 1.1895 0.14399999 9
15.1835 1.1815 0.15800001 9
15.2025 1.2615 0.103 9
15.1905 1.1565 0.148 9
15.2085 1.2704999 0.086999997 9
15.2025 1.2695 0.1 9
15.1815 1.1655 0.16599999 9
15.2075 1.3565 0.030999999 9
15.2145 1.3365 0.029999999 9
15.1985 1.2975 0.101 9
15.1965 1.3085001 0.097000003 9
15.1935 1.3214999 0.094999999 9
15.2115 1.3025 0.064000003 9
15.1765 1.3095 0.148 9
15.1815 1.3085001 0.13500001 9
15.1875 1.3195 0.11 9
15.2085 1.3465 0.035999998 9
15.2105 1.3045 0.064000003 9
15.1915 1.3085001 0.109 9
15.1885 1.3115 0.114 9
15.2135 1.2995 0.061999999 9
15.1955 1.3435 0.071000002 9
15.1775 1.3155 0.139 9
15.1835 1.3095 0.13 9
15.1995 1.3365 0.066 9
15.2055 1.3045 0.079000004 9
15.1925 1.3365 0.083999999 9
15.1905 1.3075 0.114 9
15.2145 1.2934999 0.064999998 9
15.1975 1.3305 0.077 9
15.1995 1.3025 0.096000001 9
15.1735 1.3145 0.152 9
15.2115 1.3465 0.028000001 9
15.1955 1.3135 0.096000001 9
15.2105 1.3405 0.035999998 9
15.2135 1.3205 0.044 9
15.2025 1.3045 0.085000001 9
15.2105 1.2915 0.075000003 9
15.2045 1.3235 0.066 9
15.1965 1.3145 0.093000002 9
15.2155 1.2984999 0.057 9
15.2155 1.3235 0.037 9
15.1945 1.3375 0.079000004 9
15.1885 1.3235 0.107 9
15.1935 1.3135 0.102 9
15.2075 1.3105 0.068000004 9
15.2125 1.3285 0.039999999 9
15.2095 1.3295 0.046999998 9
15.2075 1.3575 0.030999999 9
15.2005 1.3285 0.07 9
15.1885 1.3085001 0.117 9
15.2085 1.3305 0.050000001 9
15.1865 1.3095 0.123 9
15.2165 1.2845 0.066 9
15.2065 1.3435 0.043000001 9
15.1915 1.3205 0.098999999 9
15.2045 1.3355 0.056000002 9
15.1775 1.3135 0.141 9
15.1755 1.3155 0.145 9
15.1775 1.3105 0.14300001 9
15.1995 1.3315001 0.071000002 9
15.1815 1.3025 0.139 9
15.1855 1.3245 0.112 9
15.2095 1.3365 0.041000001 9
15.2125 1.2975 0.066 9
15.2035 1.1925 0.114 9
15.2085 1.1935 0.1 9
15.2175 1.1135 0.085000001 9
15.2095 1.1185 0.105 9
15.2055 1.1285 0.115 9
15.2175 1.2295001 0.072999999 9
15.1945 1.1525 0.14 9
15.2135 1.1575 0.092 9
15.2205 1.2424999 0.063000001 9
15.2175 1.1165 0.086999997 9
15.1975 1.1475 0.133 9
15.2085 1.2085 0.097000003 9
15.2195 1.2385 0.068000004 9
15.2175 1.1975 0.077 9
15.2135 1.1295 0.094999999 9
15.2135 1.2194999 0.085000001 9
15.2205 1.2025 0.068999998 9
15.2085 1.1855 0.102 9
15.2215 1.2275 0.061999999 9
15.1935 1.1465 0.142 9
15.2185 1.1555001 0.078000002 9
15.2035 1.1525 0.117 9
15.2135 1.1635 0.090999998 9
15.2065 1.1885 0.105 9
15.2065 1.1755 0.106 9
15.2185 1.1505001 0.078000002 9
15.2045 1.1115 0.119 9
15.2075 1.1935 0.101 9
15.2195 1.1684999 0.074000001 9
15.2075 1.2035 0.102 9
15.2105 1.1985 0.093999997 9
15.2095 1.1914999 0.097000003 9
15.2145 1.1995 0.082999997 9
15.2165 1.2365 0.074000001 9
15.2225 1.1135 0.072999999 9
15.2175 1.1815 0.079000004 9
15.2145 1.2045 0.082999997 9
15.1895 1.1165 0.15800001 9
15.1945 1.1454999 0.142 9
15.2205 1.1684999 0.072999999 9
15.2015 1.1625 0.122 9
15.2215 1.2165 0.064999998 9
15.1945 1.1454999 0.14 9
15.2215 1.1835001 0.068000004 9
15.2125 1.1425 0.096000001 9
15.2145 1.1975 0.082999997 9
15.2165 1.2424999 0.074000001 9
15.2155 1.1095001 0.093000002 9
15.1915 1.1255 0.15099999 9
15.2225 1.1385 0.07 9
15.2115 1.1475 0.098999999 9
15.2085 1.1975 0.098999999 9
15.2045 1.1795 0.11 9
15.2205 1.2515 0.061999999 9
15.2065 1.1995 0.104 9
15.2065 1.1665 0.108 9
15.2215 1.1715 0.07 9
15.2185 1.2085 0.074000001 9
15.2135 1.1885 0.088 9
15.2175 1.2635 0.068000004 9
15.2115 1.1545 0.097999997 9
15.2165 1.1075 0.090999998 9
15.2175 1.1174999 0.085000001 9
15.2165 1.2244999 0.075000003 9
15.2165 1.1725 0.081 9
15.1985 1.1165 0.13500001 9
15.2235 1.1745 0.063000001 9
15.2225 1.2135 0.063000001 9
15.2145 1.2225 0.081 9
15.2225 1.1275001 0.071999997 9
15.1965 1.1125 0.139 9
15.1885 1.1145 0.161 9
15.2095 1.1285 0.106 9
15.2175 1.2135 0.074000001 9
15.2185 1.2525001 0.067000002 9
15.2205 1.1945 0.07 9
15.2075 1.1235 0.112 9
15.1975 1.1415 0.134 9
15.2035 1.1885 0.114 9
15.2015 1.1395 0.124 9
15.1955 1.1435 0.139 9
15.2125 1.1905 0.090000004 9
15.2115 1.2305 0.086999997 9
15.2165 1.1964999 0.078000002 9
15.1955 1.1475 0.13699999 9
15.2035 1.1765 0.115 9
15.2235 1.1155 0.071000002 9
15.2015 1.1235 0.125 9
15.2075 1.1185 0.111 9
15.2045 1.1475 0.114 9
15.2225 1.1625 0.068999998 9
15.2205 1.2715 0.059999999 9
15.2065 1.1625 0.107 9
15.2235 1.1525 0.066 9
15.2195 1.2145 0.068000004 9
15.2135 1.1065 0.097000003 9
15.1955 1.1454999 0.139 9
15.2105 1.2035 0.093000002 9
15.2355 1.1995 0.056000002 9
15.2345 1.1115 0.061000001 9
15.2275 1.2155 0.057999998 9
15.2465 1.2055 0.050999999 9
15.2325 1.2575001 0.054000001 9
15.2425 1.2045 0.052000001 9
15.2375 1.2005 0.055 9
15.2335 1.1985 0.057 9
15.2285 1.2345001 0.057 9
15.2345 1.2555 0.052999999 9
15.2265 1.1515 0.061999999 9
15.2345 1.1895 0.057 9
15.2315 1.1325001 0.061000001 9
15.2265 1.2375 0.057 9
15.2235 1.2205 0.059999999 9
15.2305 1.1995 0.057999998 9
15.2315 1.1555001 0.059999999 9
15.2345 1.2265 0.054000001 9
15.2335 1.1305 0.059999999 9
15.2355 1.2565 0.052000001 9
15.2265 1.2375 0.057 9
15.2315 1.1675 0.059 9
15.2315 1.1845 0.057999998 9
15.2375 1.1245 0.059 9
15.2455 1.2465 0.048999999 9
15.2385 1.2445 0.052000001 9
15.2435 1.1845 0.052999999 9
15.2285 1.2345001 0.057 9
15.2365 1.2505 0.052000001 9
15.2225 1.2575001 0.057999998 9
15.2355 1.2505 0.052999999 9
15.2325 1.1684999 0.057999998 9
15.2465 1.2825 0.025 9
15.2315 1.2995 0.033 9
15.2285 1.2725 0.054000001 9
15.2435 1.2665 0.039999999 9
15.2335 1.2825 0.041000001 9
15.2365 1.2755001 0.041999999 9
15.2325 1.3095 0.025 9
15.2315 1.3135 0.024 9
15.2505 1.2445 0.046 9
15.2535 1.2725 0.024 9
15.2415 1.2805001 0.034000002 9
15.2255 1.2775 0.055 9
15.2265 1.3135 0.028999999 9
15.2235 1.2795 0.055 9
15.2405 1.2635 0.045000002 9
15.2435 1.2815 0.030999999 9
15.2325 1.2885 0.039000001 9
15.2375 1.3015 0.024 9
15.2315 1.2805001 0.046 9
15.2505 1.2595 0.035999998 9
15.2395 1.2605 0.048999999 9
15.2185 1.3195 0.035999998 9
15.2315 1.2835 0.043000001 9
15.2305 1.2905 0.039000001 9
