# .PCD v0.7 - Point Cloud Data file format
VERSION 0.7
FIELDS x y z label
SIZE 4 4 4 4
TYPE F F F U
COUNT 1 1 1 1
WIDTH 1811
HEIGHT 1
VIEWPOINT 0 0 0 1 0 0 0
POINTS 1811
DATA ascii
14.6915 1.5005 0.19499999 9
14.6305 1.4905 0.171 9
14.8435 1.5204999 0.15700001 9
14.6355 1.4955 0.25799999 9
14.6385 1.4945 0.226 9
14.6695 1.4955 0.17 9
14.6175 1.4835 0.067000002 9
14.6245 1.4855 0.089000002 9
14.7145 1.4995 0.115 9
14.5975 1.4885 0.21799999 9
14.6955 1.5025001 0.23 9
14.6175 1.4875 0.146 9
14.8025 1.5165 0.192 9
14.6465 1.4935 0.19400001 9
14.6005 1.4825 0.109 9
14.8525 1.5225 0.176 9
14.5975 1.4845001 0.154 9
14.5765 1.4835 0.184 9
14.7095 1.4985 0.104 9
14.5815 1.4885 0.26199999 9
14.6415 1.4885 0.108 9
14.5885 1.4815 0.126 9
14.5975 1.4855 0.162 9
14.5715 1.4795001 0.118 9
14.5715 1.4885 0.29100001 9
14.6435 1.4965 0.25 9
14.6895 1.4995 0.185 9
14.6905 1.4965 0.131 9
14.5865 1.4875 0.229 9
14.6855 1.5015 0.23899999 9
14.6125 1.4935 0.28 9
14.5855 1.4805 0.106 9
14.6895 1.4985 0.155 9
14.6435 1.4955 0.236 9
14.7615 1.5105 0.2 9
14.7135 1.5005 0.13699999 9
14.6165 1.4905 0.22 9
14.8475 1.5204999 0.152 9
14.6355 1.4885 0.112 9
14.7935 1.5145 0.185 9
14.5715 1.4765 0.068999998 9
14.6055 1.4895 0.23100001 9
14.6655 1.4974999 0.22 9
14.6215 1.4865 0.113 9
14.7225 1.5025001 0.155 9
14.6335 1.4865 0.082999997 9
14.6905 1.5005 0.199 9
14.5785 1.4805 0.125 9
14.6335 1.4945 0.23800001 9
14.6405 1.4895 0.119 9
14.6505 1.4965 0.22499999 9
14.6585 1.4924999 0.133 9
14.6225 1.4905 0.199 9
14.6355 1.4875 0.097000003 9
14.5705 1.4775 0.085000001 9
14.7945 1.5165 0.211 9
14.7045 1.4995 0.134 9
14.5885 1.4785 0.064000003 9
14.8585 1.5235 0.17200001 9
14.6485 1.4915 0.142 9
14.6915 1.5025001 0.23899999 9
14.6015 1.4875 0.20200001 9
14.6625 1.4974999 0.212 9
14.5685 1.4765 0.066 9
14.6445 1.4885 0.1 9
14.7765 1.5125 0.198 9
14.7105 1.5025001 0.18000001 9
14.8325 1.5185 0.149 9
14.8005 1.5165 0.2 9
14.6395 1.4895 0.13600001 9
14.6355 1.4924999 0.19499999 9
14.6555 1.4924999 0.141 9
14.5995 1.4865 0.182 9
14.8245 1.5175 0.149 9
14.5995 1.4815 0.089000002 9
14.6545 1.4905 0.112 9
14.7615 1.5115 0.219 9
14.7155 1.5015 0.145 9
14.6045 1.4895 0.21799999 9
14.7255 1.5035 0.163 9
14.7185 1.5005 0.116 9
14.6955 1.5015 0.19499999 9
14.6015 1.4825 0.106 9
14.5745 1.4785 0.090999998 9
14.7005 1.5025001 0.204 9
14.7825 1.5115 0.147 9
14.6835 1.5015 0.244 9
14.5975 1.4885 0.23100001 9
14.5765 1.4875 0.25799999 9
14.6245 1.4945 0.26800001 9
14.7255 1.5065 0.219 9
14.6515 1.4885 0.078000002 9
14.6225 1.4845001 0.074000001 9
14.6415 1.4905 0.146 9
14.7065 1.4995 0.14399999 9
14.5935 1.4845001 0.16 9
14.6265 1.4855 0.078000002 9
14.6165 1.4915 0.228 9
14.8145 1.5185 0.206 9
14.7925 1.5145 0.191 9
14.8765 1.5255001 0.17200001 9
14.8135 1.5175 0.177 9
14.7175 1.5065 0.23100001 9
14.7075 1.4995 0.127 9
14.6065 1.4924999 0.27700001 9
14.5765 1.4805 0.131 9
14.6135 1.4885 0.186 9
14.6605 1.4965 0.199 9
14.6755 1.4945 0.13 9
14.6705 1.4955 0.15800001 9
14.6925 1.4985 0.15899999 9
14.6155 1.4835 0.07 9
14.7705 1.5085 0.12899999 9
14.7205 1.5045 0.186 9
14.6325 1.4905 0.171 9
14.6105 1.4915 0.25600001 9
14.8345 1.5195 0.156 9
14.6205 1.4875 0.13500001 9
14.6255 1.4915 0.20999999 9
14.7065 1.5005 0.155 9
14.7925 1.5154999 0.19599999 9
14.5865 1.4845001 0.176 9
14.5745 1.4795001 0.115 9
14.8815 1.5265 0.17299999 9
14.7445 1.5065 0.15700001 9
14.7215 1.5025001 0.146 9
14.6795 1.4965 0.162 9
14.6105 1.4855 0.127 9
14.6455 1.4935 0.191 9
14.6075 1.4845001 0.117 9
14.5705 1.4835 0.212 9
14.7235 1.5025001 0.149 9
14.6235 1.4885 0.15099999 9
14.6605 1.4945 0.169 9
14.6505 1.4915 0.141 9
14.7095 1.5015 0.16599999 9
14.6855 1.4945 0.089000002 9
14.6165 1.4885 0.17900001 9
14.6735 1.4945 0.127 9
14.5765 1.4765 0.048999999 9
14.6965 1.4965 0.109 9
14.6115 1.4875 0.161 9
14.7355 1.5085 0.23199999 9
14.7115 1.5025001 0.17900001 9
14.7065 1.5035 0.212 9
14.5745 1.4815 0.15000001 9
14.7075 1.5025001 0.182 9
14.7245 1.5005 0.11 9
14.6515 1.4895 0.093999997 9
14.6805 1.4955 0.13699999 9
14.6795 1.4935 0.103 9
14.5955 1.4805 0.079999998 9
14.6245 1.4945 0.264 9
14.6595 1.4955 0.184 9
14.6395 1.4965 0.266 9
14.6685 1.4924999 0.105 9
14.7635 1.5075001 0.126 9
14.7495 1.5065 0.15099999 9
14.6005 1.4885 0.211 9
14.6145 1.4915 0.24600001 9
14.6155 1.4915 0.237 9
14.6825 1.4995 0.197 9
14.7965 1.5135 0.155 9
14.7045 1.5005 0.161 9
14.5815 1.4795001 0.094999999 9
14.5715 1.4885 0.29499999 9
14.5955 1.4895 0.241 9
14.7345 1.5025001 0.122 9
14.7355 1.5085 0.234 9
14.6365 1.4905 0.148 9
14.8295 1.5185 0.167 9
14.6755 1.4974999 0.18799999 9
14.6805 1.4955 0.134 9
14.8165 1.5165 0.148 9
14.7235 1.5055 0.198 9
14.6035 1.4905 0.248 9
14.6995 1.5015 0.18799999 9
14.7665 1.5125 0.227 9
14.6225 1.4945 0.27700001 9
14.5775 1.4805 0.119 9
14.6885 1.4985 0.168 9
14.5865 1.4815 0.132 9
14.5685 1.4815 0.163 9
14.6095 1.4915 0.259 9
14.5805 1.4775 0.063000001 9
14.6865 1.4974999 0.148 9
14.5715 1.4795001 0.12 9
14.6855 1.4945 0.098999999 9
14.6405 1.4905 0.15099999 9
14.5825 1.4845001 0.198 9
14.7605 1.5085 0.153 9
14.5885 1.4815 0.117 9
14.6825 1.4995 0.20299999 9
14.7635 1.5065 0.12 9
14.7025 1.5015 0.182 9
14.7145 1.5035 0.189 9
14.6275 1.4865 0.109 9
14.7355 1.5025001 0.117 9
14.6465 1.4924999 0.163 9
14.5775 1.4895 0.30199999 9
14.6735 1.5005 0.23800001 9
14.5875 1.4865 0.20999999 9
14.7095 1.5005 0.142 9
14.6935 1.5025001 0.221 9
14.6225 1.4935 0.25799999 9
14.8965 1.5285 0.168 9
14.7205 1.5045 0.185 9
14.5915 1.4815 0.097999997 9
14.5885 1.4845001 0.17299999 9
14.7225 1.5055 0.214 9
14.7235 1.5055 0.20299999 9
14.7285 1.5015 0.117 9
14.6245 1.4895 0.17399999 9
14.8135 1.5154999 0.153 9
14.6985 1.5005 0.178 9
14.6445 1.4915 0.148 9
14.7215 1.5055 0.213 9
14.8465 1.5225 0.191 9
14.6075 1.4875 0.177 9
14.6585 1.4955 0.19599999 9
14.6635 1.4924999 0.12800001 9
14.5875 1.4785 0.061999999 9
14.6085 1.4845001 0.117 9
14.6015 1.4805 0.059999999 9
14.7215 1.5065 0.228 9
14.7855 1.5154999 0.21699999 9
14.8305 1.5185 0.15000001 9
14.7635 1.5085 0.155 9
14.6315 1.4905 0.163 9
14.6905 1.4985 0.16500001 9
14.6015 1.4924999 0.28999999 9
14.6405 1.4875 0.093999997 9
14.6365 1.4885 0.112 9
14.6895 1.4945 0.090999998 9
14.5685 1.4805 0.145 9
14.6565 1.4955 0.19400001 9
14.7415 1.5065 0.17399999 9
14.6995 1.5135 0.34999999 9
14.6435 1.5025001 0.33000001 9
14.7025 1.5075001 0.27900001 9
14.7955 1.5204999 0.25799999 9
14.5885 1.4924999 0.31299999 9
14.7135 1.5145 0.336 9
14.7925 1.5235 0.294 9
14.7025 1.5125 0.33399999 9
14.7575 1.5175 0.29499999 9
14.7795 1.5225 0.31200001 9
14.6745 1.5045 0.29499999 9
14.6495 1.5025001 0.32100001 9
14.6295 1.4974999 0.303 9
14.7025 1.5095 0.29899999 9
14.7715 1.5175 0.27000001 9
14.7865 1.5154999 0.223 9
14.7695 1.5145 0.236 9
14.8185 1.5245 0.266 9
14.7045 1.5055 0.25400001 9
14.7145 1.5075001 0.255 9
14.7245 1.5125 0.30399999 9
14.7755 1.5185 0.27399999 9
14.7775 1.5204999 0.29800001 9
14.7985 1.5175 0.21699999 9
14.8335 1.5215 0.204 9
14.6095 1.4955 0.31999999 9
14.7115 1.5125 0.317 9
14.8525 1.5255001 0.211 9
14.8175 1.5225 0.244 9
14.7225 1.5105 0.28400001 9
14.7005 1.5075001 0.285 9
14.7575 1.5204999 0.324 9
14.7185 1.5154999 0.34200001 9
14.7645 1.5154999 0.25999999 9
14.6335 1.4995 0.31600001 9
14.8345 1.5255001 0.25 9
14.7455 1.5165 0.30000001 9
14.6925 1.5075001 0.294 9
14.6875 1.5095 0.32800001 9
14.7775 1.5195 0.27900001 9
14.7665 1.5165 0.26300001 9
14.8045 1.5225 0.26800001 9
14.7165 1.5135 0.32499999 9
14.8515 1.5255001 0.211 9
14.8195 1.5225 0.236 9
14.7265 1.5135 0.30899999 9
14.7675 1.5165 0.26699999 9
14.7075 1.5135 0.34200001 9
14.7305 1.5145 0.315 9
14.6875 1.5045 0.271 9
14.8115 1.5215 0.243 9
14.7055 1.5055 0.255 9
14.6315 1.5005 0.32499999 9
14.7645 1.5135 0.236 9
14.6755 1.5025001 0.27700001 9
14.7045 1.5115 0.32100001 9
14.6675 1.5045 0.31200001 9
14.7495 1.5115 0.23899999 9
14.6995 1.5065 0.27700001 9
14.8085 1.5185 0.213 9
14.6285 1.4974999 0.29899999 9
14.8285 1.5245 0.243 9
14.7175 1.5135 0.32600001 9
14.5965 1.4935 0.31400001 9
14.7015 1.5065 0.273 9
14.7885 1.5225 0.301 9
14.6045 1.4945 0.31299999 9
14.8105 1.5195 0.22400001 9
14.7295 1.5125 0.296 9
14.8485 1.5245 0.205 9
14.6905 1.5065 0.296 9
14.7615 1.5204999 0.32699999 9
14.8185 1.5204999 0.223 9
14.7495 1.5154999 0.28600001 9
14.6785 1.5075001 0.322 9
14.7895 1.5235 0.30199999 9
14.7465 1.5204999 0.354 9
14.8005 1.5204999 0.248 9
14.8145 1.5245 0.27200001 9
14.7295 1.5165 0.338 9
14.7295 1.5175 0.34299999 9
14.7475 1.5115 0.24600001 9
14.6635 1.5055 0.329 9
14.7335 1.5185 0.34999999 9
14.7155 1.5065 0.25 9
14.7505 1.5185 0.31799999 9
14.7775 1.5195 0.28200001 9
14.7955 1.5165 0.22 9
14.8065 1.5235 0.27500001 9
14.8125 1.5225 0.25600001 9
14.7595 1.5204999 0.32100001 9
14.7125 1.5154999 0.34999999 9
14.7005 1.5115 0.336 9
14.6525 1.5005 0.29100001 9
14.6965 1.5105 0.32600001 9
14.7275 1.5135 0.30700001 9
14.7185 1.5135 0.324 9
14.7175 1.5095 0.271 9
14.7115 1.5075001 0.26300001 9
14.6645 1.5045 0.31099999 9
14.7495 1.5115 0.245 9
14.7875 1.5225 0.303 9
14.7895 1.5165 0.23 9
14.6215 1.4974999 0.315 9
14.6705 1.5025001 0.28099999 9
14.7135 1.5145 0.33700001 9
14.7865 1.5195 0.26499999 9
14.7995 1.5175 0.221 9
14.7265 1.5105 0.271 9
14.6705 1.5065 0.333 9
14.6915 1.5045 0.27000001 9
14.6985 1.5095 0.31200001 9
14.7005 1.5125 0.33700001 9
14.8195 1.5225 0.237 9
14.7055 1.5105 0.31299999 9
14.7315 1.5154999 0.322 9
14.7065 1.5125 0.33000001 9
14.6265 1.4985 0.315 9
14.7555 1.5135 0.25600001 9
14.6715 1.5075001 0.33500001 9
14.7575 1.5165 0.28 9
14.7545 1.5115 0.236 9
14.7105 1.5145 0.35100001 9
14.6325 1.4985 0.30899999 9
14.7055 1.5075001 0.27500001 9
14.6565 1.5045 0.32600001 9
14.7435 1.5175 0.32300001 9
14.7335 1.5125 0.287 9
14.6445 1.4995 0.301 9
14.6135 1.4965 0.31200001 9
14.8385 1.5235 0.212 9
14.6365 1.4974999 0.29100001 9
14.7285 1.5154999 0.32600001 9
14.6595 1.5015 0.29499999 9
14.6645 1.5025001 0.29100001 9
14.7005 1.5115 0.32800001 9
14.7725 1.5165 0.26100001 9
14.7885 1.5165 0.23 9
14.8405 1.5225 0.2 9
14.6355 1.4985 0.30700001 9
14.8435 1.5245 0.21699999 9
14.7565 1.5154999 0.27399999 9
14.7805 1.5185 0.264 9
14.7795 1.5165 0.249 9
14.7315 1.5185 0.354 9
14.6705 1.5035 0.29699999 9
14.7445 1.5105 0.242 9
14.6235 1.4965 0.29499999 9
14.6715 1.5035 0.28799999 9
14.7855 1.5225 0.30700001 9
14.7845 1.5165 0.23100001 9
14.8395 1.5225 0.207 9
14.7025 1.5135 0.34900001 9
14.7735 1.5185 0.27399999 9
14.7915 1.5215 0.27900001 9
14.5785 1.4905 0.31 9
14.6525 1.5025001 0.31799999 9
14.7865 1.5195 0.26800001 9
14.7655 1.5215 0.32600001 9
14.6565 1.5035 0.315 9
14.8135 1.5235 0.264 9
14.7565 1.5154999 0.27200001 9
14.7575 1.5145 0.257 9
14.7205 1.5105 0.28200001 9
14.7575 1.5175 0.29899999 9
14.6845 1.5055 0.289 9
14.6935 1.5055 0.278 9
14.8255 1.5215 0.21600001 9
14.7045 1.5055 0.25400001 9
14.6625 1.5025001 0.29899999 9
14.7015 1.5125 0.34 9
14.7175 1.5085 0.27000001 9
14.8925 1.5285 0.175 9
14.7415 1.5175 0.32300001 9
14.6535 1.5035 0.329 9
14.6255 1.4974999 0.31 9
14.6755 1.5025001 0.27200001 9
14.6805 1.5065 0.31200001 9
14.7185 1.5154999 0.34 9
14.6505 1.4995 0.28799999 9
14.8475 1.5255001 0.22499999 9
14.7515 1.5154999 0.28799999 9
14.7285 1.5085 0.24699999 9
14.7105 1.5075001 0.26100001 9
14.6135 1.4955 0.31 9
14.6865 1.5055 0.29300001 9
14.8115 1.5245 0.27700001 9
14.6855 1.5045 0.28099999 9
14.7655 1.5204999 0.31200001 9
14.7605 1.5165 0.28 9
14.6655 1.5015 0.27599999 9
14.7555 1.5195 0.31900001 9
14.7805 1.5185 0.26199999 9
14.6325 1.4985 0.30599999 9
14.7185 1.5105 0.28799999 9
14.6195 1.4965 0.30899999 9
14.7285 1.5145 0.31200001 9
14.7305 1.5165 0.33700001 9
14.7145 1.5105 0.30000001 9
14.7485 1.5125 0.25999999 9
14.7315 1.5145 0.308 9
14.6835 1.5075001 0.31600001 9
14.7725 1.5175 0.273 9
14.7135 1.5085 0.26899999 9
14.7185 1.5135 0.322 9
14.6955 1.5105 0.32699999 9
14.7935 1.5225 0.289 9
14.7925 1.5175 0.226 9
14.8315 1.5235 0.23199999 9
14.6825 1.5065 0.303 9
14.7855 1.5125 0.064000003 9
14.7525 1.5075001 0.048 9
14.6935 1.4965 0.043000001 9
14.5995 1.4805 0.043000001 9
14.7405 1.5045 0.050999999 9
14.7945 1.5125 0.122 9
14.6515 1.4895 0.052999999 9
14.6325 1.4855 0.059 9
14.7235 1.5015 0.071000002 9
14.7835 1.5125 0.064000003 9
14.7075 1.4985 0.068000004 9
14.6745 1.4924999 0.064999998 9
14.7875 1.5125 0.071000002 9
14.7925 1.5145 0.041999999 9
14.7545 1.5085 0.024 9
14.7315 1.5035 0.057999998 9
14.7715 1.5085 0.102 9
14.7005 1.4965 0.088 9
14.7785 1.5105 0.075000003 9
14.6435 1.4885 0.035999998 9
14.6895 1.4955 0.075000003 9
14.7135 1.5005 0.044 9
14.7735 1.5095 0.079999998 9
14.8215 1.5185 0.074000001 9
14.7205 1.5025001 0.029999999 9
14.7215 1.5005 0.088 9
14.8925 1.5285 0.162 9
14.7395 1.5045 0.059999999 9
14.7685 1.5085 0.085000001 9
14.7585 1.5065 0.108 9
14.6145 1.4825 0.052999999 9
14.7015 1.4974999 0.066 9
14.6325 1.4865 0.037 9
14.7835 1.5135 0.041999999 9
14.7105 1.4985 0.072999999 9
14.7055 1.4985 0.057 9
14.8555 1.5225 0.132 9
14.7655 1.5095 0.035 9
14.8435 1.5195 0.14300001 9
14.6485 1.4885 0.063000001 9
14.7665 1.5105 0.039999999 9
14.8255 1.5185 0.097999997 9
14.8375 1.5185 0.142 9
14.7255 1.5025001 0.055 9
14.8375 1.5195 0.134 9
14.7635 1.5095 0.041000001 9
14.7405 1.5055 0.029999999 9
14.8015 1.5145 0.083999999 9
14.8415 1.5215 0.105 9
14.7145 1.4995 0.068000004 9
14.7205 1.5005 0.072999999 9
14.7555 1.5075001 0.061999999 9
14.6805 1.4945 0.037999999 9
14.6725 1.4924999 0.068999998 9
14.8585 1.5235 0.121 9
14.7935 1.5115 0.124 9
14.8195 1.5154999 0.13500001 9
14.8565 1.5225 0.132 9
14.7645 1.5075001 0.098999999 9
14.8275 1.5185 0.117 9
14.8135 1.5165 0.093999997 9
14.7585 1.5065 0.111 9
14.7255 1.5025001 0.039000001 9
14.6575 1.4895 0.074000001 9
14.7945 1.5145 0.041999999 9
14.7125 1.4985 0.086999997 9
14.6845 1.4945 0.074000001 9
14.8685 1.5245 0.14 9
14.8485 1.5215 0.123 9
14.7805 1.5105 0.093000002 9
14.7385 1.5045 0.046999998 9
14.7495 1.5045 0.108 9
14.8105 1.5175 0.057 9
14.6775 1.4935 0.046 9
14.7725 1.5115 0.028999999 9
14.7185 1.5005 0.068000004 9
14.7315 1.5035 0.061999999 9
14.8565 1.5235 0.124 9
14.8545 1.5225 0.119 9
14.7045 1.4974999 0.086999997 9
14.6775 1.4945 0.044 9
14.8265 1.5175 0.14 9
14.8655 1.5235 0.14 9
14.7945 1.5145 0.057999998 9
14.7535 1.5065 0.086000003 9
14.7035 1.4985 0.064000003 9
14.7365 1.5035 0.063000001 9
14.8135 1.5165 0.088 9
14.7675 1.5085 0.090000004 9
14.8155 1.5175 0.077 9
14.7425 1.5035 0.104 9
14.8785 1.5265 0.141 9
14.5885 1.4785 0.046999998 9
14.8385 1.5195 0.132 9
14.6665 1.4915 0.046999998 9
14.6065 1.4815 0.041000001 9
14.8895 1.5275 0.161 9
14.7745 1.5125 0.022 9
14.7155 1.4995 0.071999997 9
14.7825 1.5125 0.052000001 9
14.7465 1.5055 0.072999999 9
14.7955 1.5135 0.089000002 9
14.7285 1.5035 0.025 9
14.6965 1.4965 0.059 9
14.7955 1.5135 0.090999998 9
14.7455 1.5045 0.083999999 9
14.8585 1.5235 0.131 9
14.6555 1.4895 0.074000001 9
14.6685 1.4924999 0.052000001 9
14.5825 1.4775 0.039000001 9
14.7495 1.5065 0.061000001 9
14.6895 1.4965 0.034000002 9
14.6305 1.4855 0.035 9
14.7175 1.5015 0.039999999 9
14.7505 1.5075001 0.039999999 9
14.7685 1.5085 0.103 9
14.7945 1.5145 0.054000001 9
14.6295 1.4855 0.052999999 9
14.7285 1.5035 0.025 9
14.6225 1.4835 0.057999998 9
14.6495 1.4875 0.07 9
14.7435 1.5065 0.034000002 9
14.6525 1.4895 0.035 9
14.8115 1.5165 0.086999997 9
14.7895 1.5135 0.054000001 9
14.6425 1.4875 0.044 9
14.7435 1.5055 0.046999998 9
14.8265 1.5185 0.098999999 9
14.8725 1.5255001 0.145 9
14.8925 1.5285 0.162 9
14.7955 1.5125 0.103 9
14.6945 1.4965 0.061000001 9
14.6565 1.4895 0.064000003 9
14.7855 1.5125 0.064999998 9
14.8375 1.5195 0.14 9
14.8125 1.5165 0.075000003 9
14.7535 1.5075001 0.035 9
14.6675 1.4924999 0.048999999 9
14.8575 1.5225 0.133 9
14.8175 1.5165 0.105 9
14.7965 1.5125 0.122 9
14.7335 1.5035 0.064999998 9
14.8575 1.5225 0.131 9
14.7785 1.5095 0.11 9
14.8745 1.5255001 0.14399999 9
14.7035 1.4974999 0.082999997 9
14.7355 1.5035 0.067000002 9
14.7935 1.5125 0.092 9
14.7295 1.5015 0.078000002 9
14.7045 1.4974999 0.067000002 9
14.7815 1.5115 0.086000003 9
14.5955 1.4795001 0.039999999 9
14.7505 1.5055 0.078000002 9
14.6105 1.4815 0.056000002 9
14.7265 1.5025001 0.041999999 9
14.8775 1.5255001 0.15000001 9
14.6935 1.4965 0.063000001 9
14.7025 1.4965 0.086999997 9
14.7385 1.5035 0.092 9
14.7175 1.4995 0.094999999 9
14.7625 1.5095 0.039000001 9
14.6775 1.4935 0.057 9
14.6855 1.4945 0.064999998 9
14.5915 1.4785 0.037999999 9
14.5825 1.4775 0.046 9
14.7385 1.5055 0.028000001 9
14.8135 1.5154999 0.121 9
14.7895 1.5115 0.125 9
14.8345 1.5195 0.102 9
14.7825 1.5095 0.121 9
14.8135 1.5165 0.088 9
14.8825 1.5265 0.161 9
14.7855 1.5115 0.086999997 9
14.7325 1.5035 0.045000002 9
14.9125 1.5515 0.35299999 9
14.8355 1.5275 0.26199999 9
14.8765 1.5365 0.27399999 9
14.8125 1.5285 0.30899999 9
14.9045 1.5345 0.207 9
14.8195 1.5325 0.33700001 9
14.8345 1.5275 0.26199999 9
14.8935 1.5405 0.28099999 9
14.9055 1.5445 0.30000001 9
14.8975 1.5295 0.18099999 9
14.8895 1.5465 0.34400001 9
14.9115 1.5455 0.294 9
14.8495 1.5365 0.32300001 9
14.8115 1.5295 0.31900001 9
14.8695 1.5295 0.222 9
14.8715 1.5355 0.27200001 9
14.8045 1.5255001 0.30000001 9
14.8285 1.5275 0.278 9
14.8505 1.5275 0.23999999 9
14.8195 1.5275 0.29499999 9
14.8725 1.5365 0.28600001 9
14.8725 1.5415 0.32300001 9
14.8215 1.5255001 0.27200001 9
14.7715 1.5245 0.34400001 9
14.7925 1.5275 0.33500001 9
14.8745 1.5355 0.26800001 9
14.8915 1.5285 0.182 9
14.8385 1.5345 0.31900001 9
14.8285 1.5295 0.292 9
14.9165 1.5465 0.294 9
14.9065 1.5465 0.31999999 9
14.8935 1.5345 0.227 9
14.7575 1.5225 0.35299999 9
14.8285 1.5365 0.36000001 9
14.7545 1.5235 0.36199999 9
14.9295 1.5535001 0.34299999 9
14.7915 1.5295 0.35499999 9
14.7865 1.5285 0.35600001 9
14.8325 1.5335 0.32800001 9
14.8525 1.5305001 0.26300001 9
14.9085 1.5505 0.34400001 9
14.9115 1.5505 0.34299999 9
14.8405 1.5385 0.354 9
14.8955 1.5425 0.29800001 9
14.8925 1.5295 0.18700001 9
14.8615 1.5375 0.30899999 9
14.9025 1.5425 0.28600001 9
14.8605 1.5365 0.301 9
14.8805 1.5355 0.259 9
14.7875 1.5265 0.33899999 9
14.8865 1.5445 0.32699999 9
14.8855 1.5434999 0.32699999 9
14.9265 1.5535001 0.34200001 9
14.8915 1.5455 0.331 9
14.8515 1.5395 0.345 9
14.9125 1.5495 0.33199999 9
14.8975 1.5385 0.25799999 9
14.8375 1.5345 0.324 9
14.8945 1.5465 0.33500001 9
14.8625 1.5434999 0.36000001 9
14.8885 1.5365 0.25600001 9
14.8115 1.5255001 0.287 9
14.7615 1.5225 0.34 9
14.7495 1.5215 0.354 9
14.9035 1.5484999 0.336 9
14.7825 1.5275 0.354 9
14.8695 1.5345 0.26899999 9
14.8975 1.5365 0.242 9
14.9035 1.5475 0.331 9
14.8555 1.5345 0.29699999 9
14.7925 1.5305001 0.36300001 9
14.8815 1.5425 0.322 9
14.9115 1.5505 0.347 9
14.8145 1.5285 0.30599999 9
14.9295 1.5555 0.361 9
14.9065 1.5385 0.244 9
14.8135 1.5335 0.35600001 9
14.8735 1.5295 0.213 9
14.8585 1.5305001 0.248 9
14.8715 1.5385 0.30599999 9
14.9145 1.5445 0.28299999 9
14.9065 1.5495 0.34400001 9
14.8975 1.5465 0.33000001 9
14.8905 1.5405 0.292 9
14.8265 1.5305001 0.308 9
14.7705 1.5235 0.33500001 9
14.7855 1.5285 0.35800001 9
14.8605 1.5335 0.273 9
14.8675 1.5295 0.228 9
14.8115 1.5305001 0.33199999 9
14.9095 1.5405 0.25999999 9
14.7525 1.5215 0.34799999 9
14.8765 1.5345 0.26199999 9
14.8695 1.5445 0.35600001 9
14.8975 1.5465 0.32699999 9
14.8135 1.5285 0.30899999 9
14.8765 1.5415 0.317 9
14.8215 1.5325 0.33500001 9
14.7785 1.5255001 0.34099999 9
14.8275 1.5355 0.34799999 9
14.8905 1.5295 0.186 9
14.8205 1.5255001 0.27000001 9
14.8495 1.5295 0.255 9
14.8715 1.5335 0.259 9
14.8685 1.5315 0.241 9
14.9155 1.5484999 0.31600001 9
14.8065 1.5295 0.33199999 9
14.9025 1.5355 0.21799999 9
14.8855 1.5335 0.234 9
14.8165 1.5245 0.273 9
14.8955 1.5484999 0.347 9
14.8095 1.5245 0.28400001 9
14.8925 1.5325 0.20900001 9
14.8445 1.5405 0.36199999 9
14.8935 1.5475 0.34799999 9
14.8635 1.5345 0.28299999 9
14.8455 1.5395 0.35600001 9
14.8465 1.5345 0.30500001 9
14.9295 1.5535001 0.34099999 9
14.8535 1.5305001 0.26300001 9
14.8175 1.5255001 0.27500001 9
14.8695 1.5285 0.215 9
14.8475 1.5335 0.29699999 9
14.7715 1.5235 0.338 9
14.9185 1.5505 0.329 9
14.8045 1.5315 0.34900001 9
14.8905 1.5345 0.23 9
14.8665 1.5385 0.30899999 9
14.8845 1.5425 0.31799999 9
14.9135 1.5425 0.26499999 9
14.7815 1.5255001 0.34099999 9
14.8695 1.5295 0.223 9
14.9185 1.5535001 0.36199999 9
14.9205 1.5545 0.36199999 9
14.7515 1.5215 0.352 9
14.8045 1.5325 0.36000001 9
14.8985 1.5484999 0.35100001 9
14.8595 1.5305001 0.24600001 9
14.7785 1.5235 0.322 9
14.8935 1.5345 0.227 9
14.8435 1.5405 0.36399999 9
14.8845 1.5455 0.34299999 9
14.8605 1.5365 0.29899999 9
14.8145 1.5335 0.34900001 9
14.8795 1.5425 0.32600001 9
14.9105 1.5425 0.27599999 9
14.9225 1.5545 0.36300001 9
14.8595 1.5325 0.271 9
14.8415 1.5315 0.292 9
14.9045 1.5335 0.20200001 9
14.8705 1.5325 0.25 9
14.8395 1.5375 0.34400001 9
14.9055 1.5445 0.29899999 9
14.8115 1.5265 0.29499999 9
14.9055 1.5385 0.24699999 9
14.8045 1.5255001 0.29699999 9
14.7615 1.5235 0.352 9
14.8415 1.5295 0.26899999 9
14.8105 1.5265 0.29800001 9
14.8875 1.5335 0.23100001 9
14.8425 1.5385 0.35600001 9
14.8205 1.5325 0.33500001 9
14.8605 1.5415 0.347 9
14.7925 1.5295 0.359 9
14.8265 1.5345 0.34099999 9
14.8475 1.5355 0.31600001 9
14.8875 1.5345 0.243 9
14.8945 1.5434999 0.30899999 9
14.8895 1.5325 0.21600001 9
14.7695 1.5255001 0.359 9
14.8655 1.5434999 0.361 9
14.9165 1.5495 0.329 9
14.8755 1.5445 0.35299999 9
14.8595 1.5315 0.25799999 9
14.9015 1.5484999 0.34200001 9
14.8955 1.5365 0.23999999 9
14.8615 1.5385 0.32300001 9
14.7975 1.5305001 0.35100001 9
14.9085 1.5525 0.36399999 9
14.8285 1.5345 0.34099999 9
14.8245 1.5255001 0.26300001 9
14.9015 1.5395 0.25799999 9
14.9015 1.5385 0.24699999 9
14.8605 1.5305001 0.245 9
14.7725 1.5235 0.33000001 9
14.8745 1.5455 0.361 9
14.8595 1.5355 0.29699999 9
14.8845 1.5385 0.27900001 9
14.9135 1.5415 0.25600001 9
14.7905 1.5285 0.352 9
14.9175 1.5505 0.33500001 9
14.8975 1.5365 0.242 9
14.9125 1.5434999 0.278 9
14.8605 1.5405 0.34099999 9
14.9035 1.5265 0.035 9
14.8905 1.5265 0.090999998 9
14.8925 1.5275 0.114 9
14.8375 1.5204999 0.071000002 9
14.8665 1.5245 0.089000002 9
14.8985 1.5275 0.101 9
14.8635 1.5235 0.075999998 9
14.8435 1.5215 0.085000001 9
14.9065 1.5275 0.064999998 9
14.8735 1.5245 0.075000003 9
14.8935 1.5275 0.125 9
14.8995 1.5295 0.161 9
14.8905 1.5255001 0.045000002 9
14.8925 1.5275 0.125 9
14.8625 1.5235 0.075999998 9
14.8645 1.5235 0.064000003 9
14.8595 1.5235 0.082000002 9
14.8985 1.5265 0.064000003 9
14.9045 1.5285 0.124 9
14.9045 1.5275 0.068000004 9
14.8495 1.5215 0.079999998 9
14.8785 1.5245 0.068000004 9
14.8735 1.5245 0.057999998 9
14.8735 1.5255001 0.12899999 9
14.9055 1.5275 0.068999998 9
14.8815 1.5265 0.113 9
14.9135 1.5285 0.037 9
14.8385 1.5204999 0.044 9
14.8755 1.5255001 0.126 9
14.8325 1.5204999 0.075999998 9
14.9115 1.5285 0.085000001 9
14.9045 1.5285 0.096000001 9
14.8925 1.5275 0.13699999 9
14.8995 1.5295 0.15899999 9
14.9165 1.5285 0.061000001 9
14.8315 1.5195 0.037999999 9
14.8755 1.5255001 0.124 9
14.8275 1.5195 0.052000001 9
14.8415 1.5215 0.085000001 9
14.8395 1.5204999 0.041000001 9
14.8945 1.5285 0.152 9
14.8925 1.5275 0.105 9
14.8665 1.5235 0.071999997 9
14.9005 1.5285 0.118 9
14.8655 1.5235 0.082999997 9
14.8545 1.5225 0.061000001 9
14.8785 1.5255001 0.081 9
14.8725 1.5245 0.077 9
14.8825 1.5245 0.023 9
14.8895 1.5275 0.125 9
14.9055 1.5285 0.078000002 9
14.8265 1.5195 0.072999999 9
14.8545 1.5225 0.055 9
14.8275 1.5185 0.023 9
14.8085 1.5165 0.027000001 9
14.8785 1.5245 0.041999999 9
14.8525 1.5225 0.072999999 9
14.8575 1.5225 0.054000001 9
14.8835 1.5265 0.138 9
14.8805 1.5265 0.121 9
14.8895 1.5255001 0.037 9
14.8915 1.5255001 0.037 9
14.9055 1.5275 0.033 9
14.8985 1.5275 0.067000002 9
14.8395 1.5204999 0.054000001 9
14.8955 1.5265 0.052000001 9
14.8785 1.5245 0.046999998 9
14.8515 1.5225 0.106 9
14.8975 1.5265 0.041999999 9
14.9025 1.5285 0.125 9
14.8455 1.5204999 0.043000001 9
14.8275 1.5195 0.075999998 9
14.8545 1.5235 0.11 9
14.9035 1.5285 0.134 9
14.9015 1.5265 0.039000001 9
14.8585 1.5235 0.116 9
14.8615 1.5225 0.027000001 9
14.8925 1.5285 0.152 9
14.8425 1.5204999 0.027000001 9
14.8995 1.5275 0.061000001 9
14.8005 1.5154999 0.023 9
14.8815 1.5265 0.12 9
14.8875 1.5255001 0.030999999 9
14.8635 1.5245 0.115 9
14.8485 1.5215 0.061000001 9
14.8795 1.5255001 0.105 9
14.8935 1.5265 0.081 9
14.8485 1.5204999 0.028000001 9
14.8465 1.5215 0.071999997 9
14.9055 1.5285 0.122 9
14.8435 1.5215 0.068000004 9
14.8775 1.5255001 0.124 9
14.8025 1.5154999 0.029999999 9
14.8715 1.5235 0.034000002 9
14.8075 1.5165 0.032000002 9
14.8905 1.5265 0.067000002 9
14.9055 1.5295 0.12800001 9
14.8335 1.5204999 0.079000004 9
14.8105 1.5165 0.023 9
14.8305 1.5185 0.027000001 9
14.8905 1.5275 0.14 9
14.9435 1.3585 0.115 9
14.9225 1.3315001 0.152 9
14.9415 1.3545001 0.134 9
14.9285 1.3385 0.15000001 9
14.9415 1.3565 0.106 9
14.9365 1.3494999 0.14399999 9
14.9425 1.3575 0.126 9
14.9315 1.3415 0.164 9
14.9435 1.3565 0.149 9
14.9425 1.3575 0.125 9
14.9375 1.3505 0.134 9
14.9465 1.3645 0.083999999 9
14.9215 1.3315001 0.141 9
14.9305 1.3435 0.121 9
14.9285 1.3395 0.13600001 9
14.9345 1.3444999 0.17200001 9
14.9435 1.3595001 0.097000003 9
14.9415 1.3575 0.103 9
14.9405 1.3555 0.107 9
14.9325 1.3435 0.16500001 9
14.9325 1.3444999 0.134 9
14.9445 1.3605 0.092 9
14.9355 1.3494999 0.115 9
14.9235 1.3335 0.142 9
14.9335 1.4985 0.138 9
14.9425 1.4765 0.114 9
14.9445 1.4365 0.066 9
14.9345 1.4485 0.078000002 9
14.9255 1.5125 0.154 9
14.9125 1.5055 0.142 9
14.9295 1.4915 0.12899999 9
14.9385 1.4924999 0.132 9
14.9465 1.4395 0.07 9
14.9405 1.4455 0.075999998 9
14.9155 1.5195 0.16 9
14.9085 1.5235 0.163 9
14.9445 1.4875 0.127 9
14.9475 1.4215 0.048 9
14.9325 1.4875 0.124 9
14.9265 1.5025001 0.141 9
14.9385 1.4425 0.071000002 9
14.9125 1.5075001 0.145 9
14.9375 1.4555 0.086999997 9
14.9215 1.5025001 0.14 9
14.9165 1.4974999 0.133 9
14.9235 1.4744999 0.108 9
14.9325 1.5035 0.14399999 9
14.9125 1.5035 0.14 9
14.9415 1.4455 0.077 9
14.9385 1.4545 0.086000003 9
14.9185 1.4895 0.125 9
14.9065 1.5255001 0.16500001 9
14.9195 1.5035 0.141 9
14.9205 1.5015 0.14 9
14.9375 1.4985 0.138 9
14.9485 1.4115 0.037 9
14.9145 1.5145 0.153 9
14.9405 1.4385 0.068000004 9
14.9285 1.5455 0.29800001 9
14.9185 1.5315 0.214 9
14.9265 1.5255001 0.2 9
14.9315 1.5475 0.31200001 9
14.9295 1.5445 0.29499999 9
14.9325 1.5355 0.25799999 9
14.9395 1.5265 0.23 9
14.9205 1.5445 0.27599999 9
14.9385 1.5275 0.233 9
14.9235 1.5345 0.236 9
14.9245 1.5305001 0.21799999 9
14.9135 1.5355 0.223 9
14.9325 1.5154999 0.167 9
14.9355 1.5515 0.33700001 9
14.9275 1.5315 0.233 9
14.9325 1.5455 0.30599999 9
14.9145 1.5405 0.245 9
14.9205 1.5245 0.184 9
14.9365 1.5335 0.259 9
14.9345 1.5215 0.199 9
14.9175 1.5295 0.20200001 9
14.9335 1.5445 0.303 9
14.9255 1.5484999 0.30700001 9
14.9365 1.5295 0.243 9
14.9295 1.5495 0.31999999 9
14.9325 1.5275 0.221 9
14.9065 1.5275 0.168 9
14.9275 1.5215 0.185 9
14.9095 1.5355 0.214 9
14.9205 1.5375 0.24600001 9
14.9115 1.5355 0.215 9
14.9315 1.5484999 0.31799999 9
14.9205 1.5255001 0.18799999 9
14.9175 1.5235 0.17299999 9
14.9365 1.5305001 0.245 9
14.9285 1.5165 0.161 9
14.9135 1.5375 0.233 9
14.9275 1.5204999 0.18000001 9
14.9385 1.5225 0.20900001 9
14.9385 1.5235 0.214 9
14.9335 1.5295 0.234 9
14.9305 1.5225 0.19499999 9
14.9215 1.5235 0.183 9
14.9095 1.5355 0.214 9
14.9345 1.5165 0.17299999 9
14.9085 1.5335 0.20299999 9
14.9205 1.5245 0.183 9
14.9445 1.3865 0.243 9
14.9445 1.3865 0.249 9
14.9455 1.3995 0.25799999 9
14.9435 1.3865 0.23899999 9
14.9465 1.4075 0.27700001 9
14.9445 1.3845 0.245 9
14.9445 1.3845 0.23999999 9
14.9455 1.3645 0.243 9
14.9465 1.4245 0.28799999 9
14.9465 1.3935 0.26300001 9
14.9425 1.3585 0.215 9
14.9435 1.3665 0.229 9
14.9435 1.3715 0.226 9
14.9425 1.3635 0.213 9
14.9435 1.3575 0.219 9
14.9455 1.3705 0.242 9
14.9465 1.4085 0.27599999 9
14.9475 1.4375 0.29899999 9
14.9515 1.3795 0.052000001 9
14.9535 1.4035 0.032000002 9
14.9515 1.3855 0.052000001 9
14.9475 1.3975 0.088 9
14.9505 1.3835 0.063000001 9
14.9495 1.4285001 0.068000004 9
14.9515 1.3995 0.052000001 9
14.9455 1.4395 0.113 9
14.9515 1.3835 0.046999998 9
14.9535 1.3975 0.030999999 9
14.9505 1.3925 0.057999998 9
14.9485 1.4464999 0.086999997 9
14.9475 1.4155 0.089000002 9
14.9465 1.4405 0.109 9
14.9485 1.4335001 0.086000003 9
14.9465 1.4414999 0.109 9
14.9495 1.3775001 0.07 9
14.9505 1.3785 0.063000001 9
14.9535 1.4035 0.029999999 9
14.9515 1.4075 0.052999999 9
14.9515 1.3845 0.055 9
14.9515 1.3975 0.054000001 9
14.9515 1.4085 0.055 9
14.9465 1.4375 0.108 9
14.9445 1.4744999 0.13 9
14.9485 1.3855 0.083999999 9
14.9495 1.4285001 0.068000004 9
14.9505 1.3845 0.056000002 9
14.9505 1.3885 0.064000003 9
14.9455 1.4744999 0.12 9
14.9535 1.3915 0.030999999 9
14.9495 1.4265 0.068999998 9
14.9495 1.3915 0.068000004 9
14.9445 1.4765 0.13 9
14.9525 1.3845 0.043000001 9
14.9465 1.4585 0.103 9
14.9465 1.4655 0.108 9
14.9515 1.3945 0.050999999 9
14.9475 1.4055001 0.090999998 9
14.9535 1.3954999 0.028000001 9
14.9495 1.3975 0.075999998 9
14.9465 1.4735 0.112 9
14.9515 1.3825001 0.048 9
14.9505 1.3785 0.061000001 9
14.9515 1.3985 0.052000001 9
14.9485 1.3765 0.077 9
14.9525 1.3945 0.044 9
14.9475 1.4005001 0.088 9
14.9525 1.4105 0.045000002 9
14.9475 1.4305 0.094999999 9
14.9425 1.3904999 0.17200001 9
14.9455 1.3825001 0.117 9
14.9445 1.4205 0.13 9
14.9415 1.4005001 0.176 9
14.9425 1.4175 0.163 9
14.9445 1.3635 0.14300001 9
14.9425 1.4515001 0.153 9
14.9435 1.4845001 0.145 9
14.9435 1.3724999 0.149 9
14.9455 1.4345 0.117 9
14.9455 1.3724999 0.119 9
14.9445 1.4515001 0.123 9
14.9455 1.4345 0.117 9
14.9465 1.4165 0.102 9
14.9465 1.3785 0.11 9
14.9425 1.4755 0.154 9
14.9435 1.4805 0.145 9
14.9435 1.3585 0.15800001 9
14.9425 1.4475 0.155 9
14.9435 1.4705 0.134 9
14.9445 1.4575 0.13500001 9
14.9435 1.4895 0.142 9
14.9475 1.3995 0.097000003 9
14.9445 1.4545 0.122 9
14.9425 1.4505 0.16599999 9
14.9455 1.3705 0.12800001 9
14.9465 1.3705 0.105 9
14.9435 1.3985 0.154 9
14.9455 1.4325 0.115 9
14.9425 1.3975 0.162 9
14.9455 1.4195 0.122 9
14.9415 1.3755 0.182 9
14.9425 1.3585 0.168 9
14.9465 1.3775001 0.111 9
14.9425 1.3875 0.175 9
14.9425 1.4355 0.15700001 9
14.9445 1.4735 0.133 9
14.9435 1.4075 0.147 9
14.9485 1.3805 0.082000002 9
14.9475 1.3674999 0.093999997 9
14.9425 1.4355 0.16599999 9
14.9425 1.3585 0.17 9
14.9455 1.4365 0.116 9
14.9435 1.4075 0.149 9
14.9435 1.4805 0.13600001 9
14.9465 1.3635 0.116 9
14.9445 1.4635 0.132 9
14.9425 1.4575 0.153 9
14.9475 1.3915 0.096000001 9
14.9465 1.3885 0.111 9
14.9465 1.3845 0.105 9
14.9455 1.4055001 0.127 9
14.9445 1.3755 0.141 9
14.9415 1.4165 0.175 9
14.9425 1.4385 0.167 9
14.9415 1.3635 0.189 9
14.9455 1.3785 0.123 9
14.9445 1.3885 0.139 9
14.9445 1.4365 0.132 9
14.9425 1.4225 0.15899999 9
14.9415 1.3755 0.177 9
14.9435 1.3755 0.154 9
14.9465 1.4085 0.108 9
14.9455 1.3775001 0.122 9
14.9485 1.3674999 0.079000004 9
14.9485 1.3785 0.086000003 9
14.9425 1.4775 0.15099999 9
14.9425 1.3875 0.169 9
14.9455 1.3645 0.126 9
14.9425 1.3915 0.161 9
14.9415 1.3555 0.18099999 9
14.9425 1.3775001 0.16500001 9
14.9465 1.3715 0.115 9
14.9425 1.3575 0.16599999 9
14.9435 1.4265 0.147 9
14.9485 1.3885 0.086999997 9
14.9465 1.3785 0.103 9
14.9445 1.4015 0.131 9
14.9455 1.3755 0.122 9
14.9445 1.3995 0.14399999 9
14.9465 1.3954999 0.106 9
14.9455 1.3785 0.132 9
14.9415 1.3575 0.19 9
14.9465 1.3735 0.112 9
14.9415 1.3535 0.18799999 9
14.9465 1.4035 0.107 9
14.9465 1.4145 0.107 9
14.9465 1.4215 0.106 9
14.9475 1.3945 0.1 9
14.9415 1.4315 0.169 9
14.9425 1.4945 0.15700001 9
14.9445 1.4815 0.20100001 9
14.9425 1.4015 0.208 9
14.9435 1.4815 0.18000001 9
14.9425 1.4225 0.19499999 9
14.9425 1.4184999 0.199 9
14.9425 1.4065 0.19599999 9
14.9425 1.4575 0.176 9
14.9465 1.4405 0.287 9
14.9415 1.4184999 0.17900001 9
14.9425 1.4435 0.191 9
14.9415 1.3705 0.19400001 9
14.9425 1.4175 0.205 9
14.9455 1.4414999 0.24600001 9
14.9415 1.4265 0.17399999 9
14.9445 1.4375 0.23 9
14.9445 1.4615 0.213 9
14.9435 1.4105 0.213 9
14.9445 1.4085 0.252 9
14.9435 1.4535 0.197 9
14.9465 1.4455 0.29100001 9
14.9415 1.3595001 0.20200001 9
14.9445 1.4715 0.205 9
14.9425 1.4675 0.177 9
14.9425 1.3724999 0.211 9
14.9435 1.4065 0.227 9
14.9425 1.3825001 0.219 9
14.9435 1.4535 0.19599999 9
14.9445 1.4095 0.241 9
14.9415 1.3925 0.18799999 9
14.9465 1.4525 0.278 9
14.9425 1.4345 0.2 9
14.9455 1.4385 0.26800001 9
14.9445 1.4325 0.228 9
14.9455 1.4425 0.25400001 9
14.9415 1.3755 0.20299999 9
14.9425 1.4835 0.167 9
14.9435 1.4255 0.21600001 9
14.9415 1.3605 0.20299999 9
14.9465 1.4555 0.26499999 9
14.9425 1.3835 0.21799999 9
14.9435 1.4245 0.20999999 9
14.9415 1.3635 0.20900001 9
14.9465 1.4555 0.26499999 9
14.9425 1.4705 0.18000001 9
14.9455 1.4385 0.25299999 9
14.9425 1.4445 0.17299999 9
14.9435 1.4915 0.17900001 9
14.9435 1.4195 0.21699999 9
14.9425 1.4035 0.19499999 9
14.9435 1.4155 0.227 9
14.9425 1.3915 0.207 9
14.9425 1.4895 0.16500001 9
14.9435 1.4775 0.19599999 9
14.9435 1.4365 0.205 9
14.9425 1.4825 0.17 9
14.9445 1.4595 0.23 9
14.9435 1.4705 0.204 9
14.9425 1.4385 0.198 9
14.9445 1.4675 0.23100001 9
14.9445 1.4265 0.252 9
14.9425 1.4785 0.17399999 9
14.9465 1.4555 0.26300001 9
14.9425 1.4455 0.18099999 9
14.9425 1.4445 0.18000001 9
14.9455 1.4425 0.25 9
14.9435 1.4845001 0.182 9
14.9425 1.4615 0.18000001 9
14.9435 1.4035 0.234 9
14.9435 1.4345 0.20299999 9
14.9445 1.4385 0.235 9
14.9475 1.4435 0.29699999 9
14.9435 1.4464999 0.213 9
14.9415 1.4205 0.18000001 9
14.9435 1.4165 0.22499999 9
14.9435 1.4595 0.18799999 9
14.9465 1.4345 0.287 9
14.9425 1.4885 0.168 9
14.9435 1.4885 0.178 9
14.9445 1.4775 0.208 9
14.9425 1.4155 0.208 9
14.9415 1.4215 0.177 9
14.9435 1.3945 0.233 9
14.9445 1.4405 0.226 9
14.9445 1.4285001 0.25099999 9
14.9435 1.4225 0.21699999 9
14.9425 1.4605 0.169 9
14.9425 1.4735 0.161 9
14.9425 1.4625 0.176 9
14.9445 1.4085 0.24600001 9
14.9455 1.4655 0.237 9
14.9435 1.4665 0.18799999 9
14.9425 1.4715 0.16500001 9
14.9425 1.4205 0.2 9
14.9455 1.4455 0.24699999 9
14.9435 1.3935 0.235 9
14.9455 1.4605 0.23899999 9
14.9435 1.3995 0.241 9
14.9415 1.3635 0.191 9
14.9445 1.4555 0.23 9
14.9425 1.4055001 0.20299999 9
14.9445 1.4265 0.23 9
14.9445 1.4495 0.22 9
14.9425 1.4325 0.185 9
14.9425 1.5045 0.185 9
14.9425 1.5045 0.16599999 9
14.9425 1.4905 0.271 9
14.9415 1.5005 0.259 9
14.9435 1.4805 0.25600001 9
14.9415 1.5154999 0.189 9
14.9465 1.4535 0.287 9
14.9425 1.4995 0.183 9
14.9405 1.5165 0.257 9
14.9435 1.4905 0.22400001 9
14.9385 1.5235 0.34 9
14.9445 1.4815 0.234 9
14.9365 1.5455 0.31299999 9
14.9365 1.5375 0.354 9
14.9445 1.4785 0.229 9
14.9435 1.4935 0.19400001 9
14.9405 1.5105 0.28 9
14.9375 1.5375 0.30500001 9
14.9405 1.5135 0.28099999 9
14.9425 1.5015 0.178 9
14.9415 1.5115 0.23199999 9
14.9395 1.5215 0.301 9
14.9395 1.5275 0.26699999 9
14.9425 1.5095 0.168 9
14.9415 1.5125 0.205 9
14.9415 1.5105 0.234 9
14.9435 1.4955 0.19599999 9
14.9425 1.5055 0.2 9
14.9455 1.4685 0.26300001 9
14.9415 1.4955 0.32699999 9
14.9415 1.4974999 0.292 9
14.9435 1.4885 0.219 9
14.9425 1.4945 0.227 9
14.9375 1.5305001 0.34599999 9
14.9395 1.5185 0.34099999 9
14.9395 1.5265 0.266 9
14.9415 1.5035 0.29499999 9
14.9415 1.4985 0.292 9
14.9385 1.5315 0.266 9
14.9405 1.5235 0.222 9
14.9405 1.5115 0.296 9
14.9425 1.4965 0.24699999 9
14.9415 1.5035 0.29800001 9
14.9415 1.5025001 0.29300001 9
14.9385 1.5255001 0.31799999 9
14.9435 1.4875 0.227 9
14.9395 1.5245 0.26499999 9
14.9415 1.4985 0.28099999 9
14.9425 1.4965 0.21699999 9
14.9445 1.4755 0.29499999 9
14.9425 1.5015 0.17200001 9
14.9435 1.4895 0.206 9
14.9375 1.5295 0.34900001 9
14.9415 1.4985 0.29300001 9
14.9425 1.4985 0.23 9
14.9385 1.5215 0.34299999 9
14.9445 1.4725 0.28799999 9
14.9455 1.4655 0.27000001 9
14.9455 1.4565001 0.294 9
14.9425 1.4935 0.289 9
14.9415 1.5065 0.244 9
14.9395 1.5195 0.28799999 9
14.9385 1.5255001 0.28999999 9
14.9415 1.5045 0.229 9
14.9405 1.5095 0.333 9
14.9445 1.4725 0.30500001 9
14.9455 1.4735 0.234 9
14.9385 1.5215 0.32800001 9
14.9395 1.5145 0.324 9
14.9435 1.4965 0.185 9
14.9455 1.4685 0.26199999 9
14.9425 1.5005 0.236 9
14.9415 1.5035 0.249 9
14.9425 1.5085 0.18099999 9
14.9365 1.5415 0.34400001 9
14.9435 1.4845001 0.25299999 9
14.9375 1.5365 0.31900001 9
14.9415 1.5175 0.19400001 9
14.9435 1.4905 0.206 9
14.9375 1.5395 0.32699999 9
14.9385 1.5235 0.329 9
14.9445 1.4795001 0.25099999 9
14.9415 1.5095 0.206 9
14.9445 1.4694999 0.28299999 9
14.9385 1.5265 0.32100001 9
14.9445 1.4865 0.206 9
14.9415 1.5045 0.266 9
14.9435 1.4865 0.26199999 9
14.9455 1.4735 0.23100001 9
14.9385 1.5295 0.25999999 9
14.9425 1.4845001 0.30599999 9
14.9455 1.4665 0.278 9
14.9455 1.4575 0.29499999 9
14.9415 1.5115 0.192 9
14.9435 1.4905 0.213 9
14.9405 1.5154999 0.255 9
14.9415 1.5035 0.292 9
14.9425 1.5015 0.229 9
14.9425 1.4945 0.223 9
14.9435 1.4825 0.28400001 9
14.9375 1.5345 0.324 9
14.9445 1.4705 0.29499999 9
14.9415 1.5065 0.27500001 9
14.9445 1.4735 0.27700001 9
14.9445 1.4694999 0.27599999 9
14.9385 1.5275 0.301 9
14.9415 1.5025001 0.30399999 9
14.9395 1.5154999 0.33000001 9
14.9235 1.4665 0.32300001 9
14.9245 1.4645 0.345 9
14.9495 1.4395 0.338 9
14.9375 1.4525 0.33899999 9
14.9475 1.4414999 0.33500001 9
14.9065 1.4835 0.35100001 9
14.9455 1.4435 0.35299999 9
14.9405 1.4485 0.33199999 9
14.9495 1.4395 0.33199999 9
14.9135 1.4765 0.33500001 9
14.9085 1.4815 0.345 9
14.9325 1.4565001 0.34599999 9
14.9375 1.4515001 0.31799999 9
14.9445 1.4445 0.34799999 9
14.9295 1.4595 0.32800001 9
14.9485 1.4414999 0.34599999 9
14.9215 1.4685 0.35299999 9
14.9475 1.4414999 0.31 9
14.9555 1.4335001 0.35299999 9
14.9205 1.4685 0.32800001 9
14.9405 1.4485 0.34999999 9
14.9345 1.4545 0.32600001 9
14.9375 1.4525 0.33199999 9
14.9005 1.4895 0.34200001 9
14.9215 1.4675 0.336 9
14.9325 1.4575 0.315 9
14.9315 1.4575 0.32100001 9
14.9005 1.4885 0.34599999 9
14.9645 1.3625 0.35800001 9
14.9565 1.3815 0.31900001 9
14.9625 1.3724999 0.35499999 9
14.9605 1.3775001 0.34599999 9
14.9505 1.3605 0.26899999 9
14.9565 1.3674999 0.31 9
14.9525 1.3825001 0.29699999 9
14.9495 1.4015 0.28999999 9
14.9475 1.3885 0.27000001 9
14.9505 1.4205 0.30899999 9
14.9565 1.3585 0.30700001 9
14.9565 1.3665 0.31200001 9
14.9615 1.3585 0.33899999 9
14.9565 1.3665 0.315 9
14.9575 1.3954999 0.333 9
14.9595 1.3724999 0.33399999 9
14.9495 1.3935 0.28600001 9
14.9525 1.4015 0.31099999 9
14.9485 1.3605 0.257 9
14.9535 1.4085 0.31900001 9
14.9525 1.3605 0.28 9
14.9585 1.3835 0.333 9
14.9535 1.3825001 0.30000001 9
14.9645 1.3625 0.36300001 9
14.9535 1.3825001 0.30199999 9
14.9505 1.4175 0.30399999 9
14.9495 1.3945 0.28600001 9
14.9475 1.4045 0.28099999 9
14.9575 1.3685 0.31900001 9
14.9495 1.3695 0.27000001 9
14.9625 1.3685 0.34900001 9
14.9515 1.3695 0.28600001 9
14.9475 1.4255 0.294 9
14.9505 1.3995 0.29800001 9
14.9585 1.3755 0.33000001 9
14.9505 1.3885 0.28999999 9
14.9535 1.3915 0.308 9
14.9595 1.3825001 0.34 9
14.9635 1.3665 0.35699999 9
14.9535 1.3995 0.31600001 9
14.9515 1.3685 0.28099999 9
14.9495 1.3625 0.264 9
14.9475 1.3665 0.257 9
14.9565 1.3635 0.308 9
14.9575 1.3865 0.32800001 9
14.9575 1.3615 0.317 9
14.9495 1.3685 0.271 9
14.9625 1.3674999 0.35299999 9
14.9615 1.3775001 0.35100001 9
14.9605 1.3665 0.33500001 9
14.9525 1.3825001 0.29899999 9
14.9555 1.4005001 0.32499999 9
14.9575 1.3705 0.31900001 9
14.9515 1.4295 0.324 9
14.9545 1.4125 0.33199999 9
14.9615 1.3925 0.36399999 9
14.9505 1.4355 0.317 9
14.9495 1.4325 0.31200001 9
14.9565 1.4295 0.35299999 9
14.9585 1.4055001 0.34999999 9
14.9555 1.4245 0.34400001 9
14.9605 1.4025 0.36000001 9
14.9635 1.3705 0.35800001 9
14.9605 1.4005001 0.36199999 9
14.9525 1.4315 0.33199999 9
14.9595 1.3925 0.34900001 9
14.9565 1.3995 0.33500001 9
14.9515 1.4345 0.32499999 9
14.9555 1.4085 0.33399999 9
14.9555 1.4275 0.34599999 9
14.9585 1.3945 0.34400001 9
14.9555 1.4215 0.345 9
14.9585 1.4135 0.35699999 9
14.9495 1.4335001 0.31400001 9
14.9575 1.4095 0.34900001 9
14.5415 1.4865 0.037999999 9
14.5565 1.4675 0.037 9
14.5425 1.4705 0.035 9
14.5445 1.4825 0.037999999 9
14.5405 1.4585 0.030999999 9
14.5575 1.4865 0.037999999 9
14.5545 1.4924999 0.037 9
14.6045 1.3164999 0.34099999 9
14.6205 1.3195 0.29800001 9
14.6195 1.3214999 0.27599999 9
14.7015 1.3145 0.359 9
14.5965 1.3164999 0.34999999 9
14.6585 1.3155 0.35800001 9
14.6175 1.3155 0.35699999 9
14.6825 1.3155 0.34999999 9
14.6425 1.3205 0.27700001 9
14.6345 1.3155 0.35600001 9
14.5965 1.3155 0.35800001 9
14.6035 1.3185 0.31 9
14.6045 1.3195 0.308 9
14.6375 1.3195 0.301 9
14.5855 1.3164999 0.35600001 9
14.6275 1.3214999 0.26199999 9
14.6485 1.3185 0.30899999 9
14.5865 1.3155 0.368 9
14.6335 1.3155 0.354 9
14.6155 1.3214999 0.27599999 9
14.6225 1.3214999 0.26800001 9
14.6475 1.3195 0.29899999 9
14.6495 1.3175 0.331 9
14.6475 1.3175 0.33000001 9
14.5995 1.3185 0.31900001 9
14.6355 1.3185 0.308 9
14.6335 1.3155 0.36399999 9
14.6575 1.3155 0.352 9
14.6195 1.3155 0.36300001 9
14.6345 1.3214999 0.26800001 9
14.5895 1.3155 0.36300001 9
14.5995 1.3175 0.33000001 9
14.6005 1.3155 0.359 9
14.6135 1.3195 0.30199999 9
14.6205 1.3185 0.31200001 9
14.6295 1.3155 0.361 9
14.6255 1.3195 0.29100001 9
14.6265 1.3205 0.27900001 9
14.6375 1.3205 0.28099999 9
14.6345 1.3205 0.28 9
14.6625 1.3164999 0.336 9
14.6115 1.3205 0.28999999 9
14.6185 1.3175 0.32600001 9
14.6335 1.3175 0.33500001 9
14.6515 1.3175 0.33199999 9
14.6885 1.3155 0.34599999 9
14.5925 1.3164999 0.352 9
14.6325 1.3164999 0.34099999 9
14.6205 1.3164999 0.34099999 9
14.6335 1.3185 0.31400001 9
14.6635 1.3185 0.31400001 9
14.5895 1.3155 0.361 9
14.6805 1.3155 0.34999999 9
14.6945 1.3155 0.35299999 9
14.6205 1.3195 0.29300001 9
14.6265 1.3155 0.36300001 9
14.6445 1.3164999 0.34599999 9
14.5985 1.3155 0.361 9
14.6345 1.3214999 0.26899999 9
14.5875 1.3155 0.361 9
14.5995 1.3175 0.333 9
14.6325 1.3185 0.31299999 9
14.6535 1.3195 0.29300001 9
14.6465 1.3175 0.32300001 9
14.6405 1.3205 0.285 9
14.6135 1.3205 0.28999999 9
14.6085 1.3185 0.31099999 9
14.6655 1.3145 0.36399999 9
14.6625 1.3185 0.31299999 9
14.6725 1.3175 0.329 9
14.5865 1.3155 0.368 9
14.6195 1.3185 0.31600001 9
14.5665 1.4755 0.039999999 9
14.5675 1.4755 0.039000001 9
14.5665 1.4885 0.037 9
14.5795 1.4945 0.035999998 9
14.5855 1.4935 0.037 9
14.6795 1.3214999 0.30599999 9
14.6595 1.3245 0.273 9
14.6825 1.3195 0.31799999 9
14.6535 1.3285 0.25 9
14.6475 1.3225 0.271 9
14.7015 1.3145 0.35800001 9
14.6765 1.3195 0.31299999 9
14.6905 1.3195 0.32800001 9
14.6595 1.3235 0.27900001 9
14.6315 1.3225 0.25999999 9
14.6435 1.3255 0.252 9
14.6715 1.3265001 0.273 9
14.6765 1.3185 0.31600001 9
14.6555 1.3245 0.27000001 9
14.6755 1.3295 0.26499999 9
14.6905 1.3225 0.31299999 9
14.6685 1.3214999 0.29699999 9
14.6665 1.3255 0.27599999 9
14.6685 1.3295 0.25799999 9
14.6585 1.3285 0.25400001 9
14.6605 1.3225 0.287 9
14.6705 1.3214999 0.29899999 9
14.6435 1.3245 0.257 9
14.6725 1.3235 0.29300001 9
14.6545 1.3285 0.252 9
14.6855 1.3255 0.29300001 9
14.6765 1.3285 0.27200001 9
14.6675 1.3275 0.26800001 9
14.6595 1.3214999 0.289 9
14.6765 1.3205 0.30700001 9
14.5835 1.4785 0.037999999 9
14.6625 1.5075001 0.030999999 9
14.6145 1.4924999 0.035999998 9
14.7105 1.5145 0.027000001 9
14.5815 1.4775 0.037999999 9
14.6215 1.4895 0.035 9
14.6695 1.4935 0.029999999 9
14.6485 1.4905 0.032000002 9
14.7085 1.5154999 0.027000001 9
14.6495 1.5005 0.033 9
14.6935 1.4985 0.028000001 9
14.7675 1.5135 0.022 9
14.6165 1.4965 0.035 9
14.7535 1.5085 0.023 9
14.7555 1.5105 0.023 9
14.6525 1.5005 0.032000002 9
14.6655 1.5065 0.030999999 9
14.7355 1.5225 0.025 9
14.6015 1.4905 0.037 9
14.6175 1.4955 0.035 9
14.6095 1.4885 0.035999998 9
14.6315 1.4924999 0.034000002 9
14.7655 1.5165 0.022 9
14.5905 1.4845001 0.037999999 9
14.6515 1.4905 0.032000002 9
14.6225 1.4995 0.035 9
14.5965 1.4875 0.037 9
14.7195 1.5035 0.026000001 9
14.7695 1.5175 0.022 9
14.6195 1.4965 0.035 9
14.5865 1.4785 0.037999999 9
14.7475 1.3315001 0.322 9
14.7085 1.3265001 0.308 9
14.7595 1.3355 0.31400001 9
14.7135 1.3345 0.273 9
14.7595 1.3365 0.308 9
14.8125 1.3444999 0.31900001 9
14.7825 1.3395 0.31400001 9
14.7065 1.3305 0.287 9
14.7055 1.3195 0.338 9
14.7365 1.3245 0.34599999 9
14.7165 1.3205 0.34299999 9
14.7005 1.3325 0.27500001 9
14.7415 1.3365 0.29499999 9
14.7155 1.3365 0.27000001 9
14.7365 1.3305 0.31400001 9
14.7125 1.3225 0.33000001 9
14.6965 1.3214999 0.32300001 9
14.7945 1.3415 0.31900001 9
14.7735 1.3425 0.296 9
14.7305 1.3325 0.303 9
14.7085 1.3335 0.27500001 9
14.7155 1.3365 0.27000001 9
14.7615 1.3285 0.34799999 9
14.7095 1.3164999 0.359 9
14.7315 1.3315001 0.30599999 9
14.8205 1.3444999 0.32800001 9
14.7785 1.3355 0.33000001 9
14.7385 1.3235 0.34999999 9
14.7055 1.3315001 0.28299999 9
14.7605 1.3365 0.30899999 9
14.7005 1.3185 0.34099999 9
14.7115 1.3335 0.27700001 9
14.6905 1.3345 0.25400001 9
14.7475 1.3325 0.31400001 9
14.7455 1.3345 0.303 9
14.7405 1.3315001 0.31400001 9
14.7575 1.3385 0.30000001 9
14.7285 1.3265001 0.33000001 9
14.7275 1.3285 0.315 9
14.7635 1.3315001 0.336 9
14.7465 1.3255 0.35100001 9
14.8065 1.3395 0.34 9
14.7715 1.3325 0.33899999 9
14.7425 1.3345 0.301 9
14.7175 1.3275 0.31099999 9
14.7195 1.3235 0.33500001 9
14.8265 1.3435 0.336 9
14.7245 1.3285 0.31600001 9
14.7455 1.3265001 0.34200001 9
14.7245 1.3195 0.35800001 9
14.7705 1.3335 0.333 9
14.7585 1.3365 0.30700001 9
14.7555 1.3405 0.28799999 9
14.8455 1.3494999 0.32699999 9
14.7885 1.3425 0.30899999 9
14.7805 1.3345 0.33899999 9
14.7005 1.3185 0.338 9
14.7835 1.3335 0.345 9
14.7465 1.3375 0.29100001 9
14.7495 1.3385 0.289 9
14.7155 1.3365 0.26800001 9
14.7505 1.3305 0.329 9
14.7495 1.3375 0.29300001 9
14.7005 1.3325 0.27399999 9
14.7155 1.3265001 0.315 9
14.7065 1.3285 0.29699999 9
14.7195 1.3365 0.27200001 9
14.6915 1.3315001 0.271 9
14.7515 1.3345 0.31200001 9
14.7255 1.3235 0.34099999 9
14.6975 1.3235 0.31400001 9
14.7075 1.3164999 0.35499999 9
14.6805 1.3305 0.26300001 9
14.7745 1.3355 0.33000001 9
14.7125 1.3205 0.34200001 9
14.8085 1.3455 0.31200001 9
14.7765 1.3365 0.32699999 9
14.7245 1.3285 0.31400001 9
14.7025 1.3185 0.34200001 9
14.6875 1.3325 0.25999999 9
14.7175 1.3275 0.31400001 9
14.7085 1.3205 0.33899999 9
14.7125 1.3175 0.35699999 9
14.7635 1.3385 0.30500001 9
14.7505 1.3305 0.329 9
14.7365 1.3225 0.35299999 9
14.7425 1.3255 0.347 9
14.7685 1.3425 0.29100001 9
14.7495 1.3295 0.33199999 9
14.7555 1.3355 0.308 9
14.7175 1.3275 0.315 9
14.6895 1.3325 0.26499999 9
14.6905 1.3335 0.259 9
14.7905 1.3425 0.308 9
14.7085 1.3245 0.31999999 9
14.7535 1.3275 0.34799999 9
14.7105 1.3235 0.32800001 9
14.7075 1.3295 0.292 9
14.8805 1.3405 0.34400001 9
14.8355 1.3205 0.34799999 9
14.8615 1.3205 0.354 9
14.7935 1.3025 0.35100001 9
14.8705 1.3395 0.34299999 9
14.8245 1.3225 0.34400001 9
14.8615 1.3494999 0.33399999 9
14.8475 1.3255 0.347 9
14.8795 1.3345 0.34799999 9
14.8615 1.3285 0.34799999 9
14.8825 1.3345 0.34900001 9
14.8055 1.3085001 0.34999999 9
14.7995 1.3075 0.34900001 9
14.8315 1.3235 0.345 9
14.8515 1.3375 0.33899999 9
14.8515 1.3305 0.345 9
14.8935 1.3355 0.34999999 9
14.8405 1.3335 0.34 9
14.8685 1.3325 0.347 9
14.8915 1.3335 0.352 9
14.8195 1.3235 0.34200001 9
14.8645 1.3465 0.336 9
14.8745 1.3345 0.347 9
14.8425 1.3175 0.35100001 9
14.8835 1.3395 0.345 9
14.8145 1.3425 0.22499999 9
14.8505 1.3494999 0.308 9
14.7245 1.3375 0.26300001 9
14.7305 1.3375 0.24600001 9
14.8225 1.3444999 0.242 9
14.8265 1.3444999 0.23 9
14.8565 1.3505 0.31999999 9
14.8205 1.3444999 0.237 9
14.7725 1.3415 0.25600001 9
14.7695 1.3405 0.243 9
14.7555 1.3385 0.233 9
14.7545 1.3385 0.23800001 9
14.8405 1.3475 0.28099999 9
14.7605 1.3415 0.27700001 9
14.7435 1.3385 0.252 9
14.8155 1.3465 0.31 9
14.7875 1.3415 0.235 9
14.8165 1.3465 0.29300001 9
14.7395 1.3375 0.242 9
14.7945 1.3435 0.28 9
14.8055 1.3435 0.25099999 9
14.8135 1.3465 0.308 9
14.7335 1.3385 0.26800001 9
14.8305 1.3465 0.28400001 9
14.8445 1.3465 0.23800001 9
14.8295 1.3455 0.25600001 9
14.7925 1.3415 0.23 9
14.8455 1.3494999 0.30399999 9
14.8245 1.3444999 0.245 9
14.7455 1.3385 0.244 9
14.7335 1.3375 0.25099999 9
14.7385 1.3385 0.26800001 9
14.8265 1.3475 0.29499999 9
14.7855 1.3425 0.25400001 9
14.8315 1.3465 0.28099999 9
14.8325 1.3475 0.303 9
14.8285 1.3465 0.28600001 9
14.8525 1.3465 0.243 9
14.8355 1.3485 0.31200001 9
14.8345 1.3485 0.315 9
14.8505 1.3494999 0.31600001 9
14.7545 1.3395 0.24600001 9
14.6895 1.3345 0.25099999 9
14.7895 1.3435 0.27200001 9
14.7925 1.3435 0.27599999 9
14.8175 1.3435 0.23100001 9
14.7775 1.3415 0.257 9
14.7505 1.3385 0.24699999 9
14.7995 1.3444999 0.273 9
