# .PCD v0.7 - Point Cloud Data file format
VERSION 0.7
FIELDS x y z label
SIZE 4 4 4 4
TYPE F F F U
COUNT 1 1 1 1
WIDTH 1669
HEIGHT 1
VIEWPOINT 0 0 0 1 0 0 0
POINTS 1669
DATA ascii
17.7195 4.7605 2.296 9
17.762501 4.7765002 2.2939999 9
17.9585 4.7554998 2.299 9
17.900499 4.7635002 2.2969999 9
18.068501 4.7585001 2.3 9
17.747499 4.7655001 2.296 9
17.803499 4.8154998 2.289 9
17.8255 4.8115001 2.29 9
17.706499 4.8214998 2.2880001 9
17.793501 4.7775002 2.2950001 9
17.866501 4.8045001 2.2909999 9
18.015499 4.7645001 2.2980001 9
17.828501 4.7605 2.2969999 9
17.869499 4.7865 2.2939999 9
17.709499 4.7455001 2.2980001 9
17.956499 4.7554998 2.299 9
17.6675 4.8315001 2.286 9
18.046499 4.7465 2.3010001 9
17.803499 4.8074999 2.2909999 9
17.6185 4.7684999 2.2939999 9
17.9625 4.7804999 2.296 9
17.928499 4.7505002 2.3 9
17.6525 4.7895002 2.2920001 9
17.789499 4.7465 2.299 9
17.845501 4.8134999 2.29 9
17.834499 4.8105001 2.29 9
17.592501 4.7445002 2.2969999 9
17.7085 4.7795 2.2939999 9
17.772499 4.7525001 2.2980001 9
17.7335 4.7835002 2.293 9
17.692499 4.8204999 2.2880001 9
17.9125 4.7694998 2.2969999 9
17.880501 4.7455001 2.3 9
17.703501 4.8165002 2.2880001 9
17.7225 4.8185 2.2880001 9
17.7355 4.8024998 2.2909999 9
17.8825 4.7585001 2.2980001 9
17.789499 4.8144999 2.289 9
18.0235 4.7605 2.299 9
17.709499 4.8245001 2.2869999 9
17.7845 4.7725 2.2950001 9
17.723499 4.7554998 2.2969999 9
17.681499 4.7505002 2.2969999 9
17.887501 4.7975001 2.293 9
17.7955 4.7744999 2.2950001 9
18.053499 4.7525001 2.3 9
17.8255 4.7934999 2.293 9
17.9575 4.7845001 2.2950001 9
17.848499 4.8084998 2.2909999 9
17.658501 4.7795 2.293 9
17.9415 4.7915001 2.2939999 9
17.901501 4.7655001 2.2969999 9
17.9035 4.7725 2.296 9
18.1015 4.7484999 2.3010001 9
17.7255 4.8055 2.29 9
17.818501 4.7824998 2.2939999 9
17.8095 4.7535 2.2980001 9
17.755501 4.8235002 2.2880001 9
17.8235 4.7965002 2.2920001 9
17.8335 4.8115001 2.29 9
17.9505 4.7525001 2.299 9
17.893499 4.7614999 2.2980001 9
17.637501 4.7835002 2.2920001 9
18.0455 4.7775002 2.2969999 9
18.1495 4.7905002 2.299 9
18.1385 4.8575001 2.2939999 9
17.855499 4.8134999 2.29 9
17.693501 4.8544998 2.2839999 9
18.172501 4.8515 2.2950001 9
17.765499 4.8495002 2.286 9
18.175501 4.8045001 2.2980001 9
18.165501 4.8484998 2.2950001 9
18.054501 4.8344998 2.2939999 9
18.1535 4.8585 2.2939999 9
17.852501 4.8425002 2.2880001 9
18.115499 4.8255 2.296 9
17.9415 4.8944998 2.2869999 9
17.9865 4.8775001 2.289 9
18.088499 4.8425002 2.2939999 9
18.1565 4.7765002 2.3 9
18.133499 4.8755002 2.293 9
17.914499 4.8585 2.289 9
17.980499 4.8924999 2.2880001 9
17.9485 4.8724999 2.289 9
17.811501 4.8315001 2.2880001 9
17.814501 4.8334999 2.2880001 9
18.071501 4.7775002 2.2980001 9
18.0735 4.8495002 2.293 9
18.054501 4.7985001 2.296 9
18.0375 4.8835001 2.29 9
18.1495 4.8425002 2.2950001 9
17.870501 4.8264999 2.29 9
18.022499 4.8235002 2.2939999 9
18.0345 4.8325 2.293 9
18.0355 4.8274999 2.2939999 9
17.747499 4.8484998 2.2850001 9
17.929501 4.8744998 2.2880001 9
18.1625 4.8534999 2.2950001 9
17.949499 4.8125 2.2920001 9
18.029499 4.7934999 2.296 9
18.185499 4.7455001 2.303 9
17.9505 4.8375001 2.2909999 9
18.119499 4.8744998 2.293 9
17.932501 4.8455 2.29 9
17.7365 4.8534999 2.2850001 9
17.9995 4.8214998 2.293 9
17.9995 4.8024998 2.2939999 9
17.953501 4.8965001 2.2869999 9
17.988501 4.8734999 2.29 9
17.8055 4.8425002 2.2869999 9
17.973499 4.8295002 2.2920001 9
18.130501 4.8565001 2.2939999 9
17.9615 4.8414998 2.2909999 9
18.112499 4.7674999 2.299 9
18.1555 4.8575001 2.2950001 9
18.0875 4.8874998 2.2909999 9
18.0035 4.8515 2.2909999 9
17.6905 4.8555002 2.283 9
18.015499 4.8245001 2.293 9
17.813499 4.8295002 2.2880001 9
17.9505 4.8365002 2.2909999 9
17.8165 4.8664999 2.286 9
18.1415 4.8495002 2.2950001 9
18.0875 4.8065 2.296 9
18.0345 4.7845001 2.296 9
18.1185 4.8105001 2.2969999 9
18.1535 4.8134999 2.2969999 9
18.0305 4.8744998 2.2909999 9
18.0935 4.8484998 2.2939999 9
18.0625 4.8274999 2.2939999 9
18.0005 4.8855 2.289 9
18.0215 4.8985 2.289 9
18.0945 4.8385 2.2939999 9
18.091499 4.7775002 2.2980001 9
18.1535 4.9184999 2.2909999 9
18.081499 4.7684999 2.299 9
18.0795 4.8655 2.2920001 9
18.0455 4.8525 2.2920001 9
17.921499 4.8225002 2.2909999 9
17.849501 4.8295002 2.289 9
17.8925 4.8505001 2.289 9
18.182501 4.7874999 2.3 9
17.9335 4.8625002 2.289 9
18.1245 4.7595 2.3 9
18.0305 4.8325 2.293 9
18.047501 4.8864999 2.29 9
18.1175 4.8835001 2.2920001 9
18.057501 4.7814999 2.2969999 9
17.945499 4.7944999 2.2939999 9
18.022499 4.8474998 2.2920001 9
17.9935 4.8235002 2.293 9
18.1745 4.8484998 2.296 9
18.1005 4.8445001 2.2939999 9
17.678499 4.8525 2.283 9
18.144501 4.8924999 2.2920001 9
18.029499 4.8425002 2.293 9
18.1355 4.8165002 2.2969999 9
17.804501 4.8375001 2.2869999 9
18.054501 4.8315001 2.2939999 9
17.783501 4.8695002 2.2850001 9
18.0035 4.7884998 2.2950001 9
17.8675 4.8845 2.286 9
18.1805 4.8095002 2.2980001 9
18.025499 4.9074998 2.2880001 9
17.9825 4.8395 2.2920001 9
17.835501 4.8365002 2.2880001 9
18.1675 4.8264999 2.2969999 9
17.943501 4.8295002 2.2909999 9
18.137501 4.8635001 2.2939999 9
18.1495 4.8505001 2.2950001 9
18.0805 4.9134998 2.289 9
17.894501 4.8065 2.2920001 9
18.1705 4.8734999 2.2939999 9
18.119499 4.8794999 2.2920001 9
17.8715 4.8664999 2.2869999 9
18.0165 4.7884998 2.296 9
18.092501 4.8425002 2.2939999 9
18.164499 4.8555002 2.2950001 9
17.751499 4.8555002 2.2850001 9
17.942499 4.8804998 2.2880001 9
18.140499 4.8695002 2.293 9
17.9485 4.8004999 2.293 9
18.056499 4.8835001 2.2909999 9
18.120501 4.9095001 2.29 9
17.8755 4.8295002 2.29 9
18.0445 4.8445001 2.293 9
18.060499 4.8474998 2.293 9
18.1465 4.8814998 2.293 9
18.0515 4.7725 2.2980001 9
17.782499 4.8365002 2.2869999 9
18.157499 4.7944999 2.299 9
17.907499 4.8864999 2.2869999 9
18.144501 4.8404999 2.2950001 9
17.9405 4.8944998 2.2869999 9
18.172501 4.7484999 2.302 9
17.9445 4.8744998 2.2880001 9
18.1745 4.8204999 2.2969999 9
18.134501 4.8715 2.293 9
17.9795 4.8604999 2.29 9
18.0305 4.8084998 2.2950001 9
18.126499 4.7605 2.3 9
18.084499 4.8004999 2.2969999 9
18.0555 4.8614998 2.2920001 9
18.1565 4.7735 2.3 9
17.7785 4.8435001 2.286 9
17.901501 4.8765001 2.2869999 9
18.095501 4.7845001 2.2980001 9
18.185499 4.7635002 2.3010001 9
18.036501 4.8264999 2.2939999 9
18.154499 4.7995 2.2980001 9
18.1565 4.8195 2.2969999 9
18.1485 4.9225001 2.29 9
18.150499 4.8445001 2.2950001 9
17.963499 4.8814998 2.2880001 9
18.025499 4.8464999 2.2920001 9
17.7125 4.8585 2.2839999 9
17.932501 4.8125 2.2920001 9
17.998501 4.8955002 2.2880001 9
17.9725 4.8084998 2.293 9
17.8585 4.8455 2.2880001 9
18.047501 4.8755002 2.2909999 9
18.078501 4.8905001 2.2909999 9
18.098499 4.8435001 2.2939999 9
18.1045 4.8344998 2.2950001 9
18.143499 4.7564998 2.3010001 9
17.827499 4.8274999 2.289 9
18.0725 4.8604999 2.2920001 9
17.9415 4.8115001 2.2920001 9
18.0875 4.7954998 2.2969999 9
18.186501 4.7605 2.302 9
18.102501 4.8414998 2.2939999 9
17.755501 4.8515 2.2850001 9
18.1465 4.7775002 2.3 9
18.054501 4.8685002 2.2909999 9
18.154499 4.7665 2.3 9
18.0795 4.8055 2.296 9
18.157499 4.8804998 2.293 9
18.077499 4.7915001 2.2969999 9
18.029499 4.8855 2.29 9
17.6915 4.8505001 2.2839999 9
18.0485 4.8855 2.29 9
18.026501 4.8544998 2.2920001 9
18.032499 4.8744998 2.2909999 9
18.0665 4.8604999 2.2920001 9
18.0905 4.8724999 2.2920001 9
17.8505 4.8565001 2.2869999 9
18.0305 4.8724999 2.2909999 9
17.744499 4.8544998 2.2850001 9
18.144501 4.8814998 2.293 9
18.1075 4.7814999 2.2980001 9
17.9855 4.7934999 2.2950001 9
18.0205 4.8575001 2.2909999 9
18.0835 4.8744998 2.2920001 9
18.084499 4.7845001 2.2980001 9
17.793501 4.8664999 2.2850001 9
18.1525 4.9115 2.2909999 9
18.1015 4.9225001 2.289 9
18.025499 4.8185 2.2939999 9
18.064501 4.8375001 2.2939999 9
17.7995 4.8575001 2.286 9
17.7675 4.8404999 2.286 9
17.914499 4.8505001 2.289 9
17.800501 4.8264999 2.2880001 9
18.137501 4.9245 2.29 9
18.1555 4.8065 2.2980001 9
17.817499 4.8664999 2.286 9
17.9485 4.7985001 2.293 9
18.105499 4.8195 2.296 9
18.0345 4.8134999 2.2939999 9
17.9695 4.8785 2.289 9
17.8405 4.8685002 2.286 9
17.820499 4.8484998 2.2869999 9
18.0755 4.9025002 2.29 9
18.099501 4.7694998 2.299 9
18.126499 4.8715 2.293 9
17.9025 4.8165002 2.2909999 9
18.0105 4.9004998 2.2880001 9
18.1535 4.8804998 2.293 9
18.0385 4.8004999 2.2950001 9
17.747499 4.8534999 2.2850001 9
18.1605 4.8944998 2.2920001 9
18.070499 4.7804999 2.2969999 9
17.953501 4.8115001 2.293 9
17.9265 4.8455 2.29 9
17.949499 4.8295002 2.2909999 9
17.9615 4.8555002 2.29 9
18.1875 4.7445002 2.303 9
17.9925 4.8464999 2.2909999 9
18.1425 4.9145002 2.2909999 9
18.001499 4.7944999 2.2950001 9
18.1625 4.8625002 2.2939999 9
18.088499 4.8214998 2.2950001 9
18.1775 4.8515 2.296 9
18.112499 4.8264999 2.296 9
18.106501 4.8965001 2.2909999 9
18.1605 4.9054999 2.2920001 9
18.0935 4.8785 2.2920001 9
18.1075 4.8885002 2.2909999 9
18.178499 4.7515001 2.302 9
17.9925 4.8724999 2.29 9
18.1535 4.9124999 2.2909999 9
17.9995 4.8375001 2.2920001 9
18.0485 4.7925 2.296 9
18.0245 4.8455 2.2920001 9
17.960501 4.8835001 2.2880001 9
18.0595 4.8985 2.29 9
18.047501 4.8455 2.293 9
18.0175 4.8505001 2.2920001 9
18.1395 4.7605 2.3 9
18.164499 4.7624998 2.3010001 9
17.994499 4.7934999 2.2950001 9
17.821501 4.8544998 2.2869999 9
17.977501 4.8474998 2.2909999 9
18.1035 4.8915 2.2909999 9
18.161501 4.7804999 2.3 9
17.7045 4.8474998 2.2839999 9
17.717501 4.8445001 2.2850001 9
18.008499 4.8024998 2.2950001 9
17.995501 4.8334999 2.2920001 9
17.987499 4.8525 2.2909999 9
18.0825 4.8125 2.296 9
18.1385 4.8895001 2.2920001 9
18.1175 4.8934999 2.2909999 9
17.866501 4.8575001 2.2880001 9
17.897499 4.8505001 2.289 9
18.1705 4.8525 2.2950001 9
17.887501 4.8825002 2.2869999 9
18.067499 4.8004999 2.296 9
18.1675 4.7865 2.299 9
18.1565 4.8235002 2.2969999 9
17.8645 4.8785 2.286 9
17.8855 4.8084998 2.2909999 9
18.039499 4.7865 2.296 9
18.0735 4.8905001 2.29 9
17.8965 4.8794999 2.2869999 9
18.029499 4.7824998 2.296 9
17.8465 4.8165002 2.29 9
17.9625 4.7995 2.2939999 9
18.186501 4.7624998 2.3010001 9
18.109501 4.8635001 2.293 9
17.922501 4.8664999 2.2880001 9
18.078501 4.8455 2.2939999 9
18.1215 4.8604999 2.2939999 9
18.0895 4.8575001 2.293 9
17.907499 4.8455 2.289 9
17.8895 4.8705001 2.2869999 9
18.1665 4.8014998 2.2980001 9
17.9405 4.8794999 2.2880001 9
18.0525 4.8455 2.293 9
17.852501 4.8505001 2.2880001 9
18.0965 4.7934999 2.2969999 9
17.7295 4.8604999 2.2839999 9
18.064501 4.8045001 2.296 9
17.811501 4.8435001 2.2869999 9
17.9025 4.8544998 2.289 9
17.9765 4.8734999 2.289 9
18.0235 4.8004999 2.2950001 9
18.0275 4.8484998 2.2920001 9
17.9865 4.7905002 2.2950001 9
17.848499 4.8344998 2.289 9
17.945499 4.8775001 2.2880001 9
17.9175 4.8555002 2.289 9
18.1605 4.8755002 2.2939999 9
18.1085 4.9064999 2.29 9
18.056499 4.7754998 2.2969999 9
18.165501 4.8525 2.2950001 9
18.0455 4.7884998 2.296 9
17.7945 4.8295002 2.2880001 9
17.990499 4.7865 2.2950001 9
18.1145 4.7744999 2.299 9
18.130501 4.8515 2.2939999 9
18.0835 4.8885002 2.2909999 9
17.8965 4.8905001 2.286 9
18.1355 4.7965002 2.2980001 9
17.945499 4.8965001 2.2869999 9
18.109501 4.7795 2.2980001 9
18.1695 4.8905001 2.293 9
18.0355 4.8235002 2.2939999 9
17.9095 4.8185 2.2909999 9
17.935499 4.8035002 2.293 9
18.099501 4.8515 2.2939999 9
18.070499 4.8585 2.2920001 9
18.0515 4.8175001 2.2950001 9
18.005501 4.8385 2.2920001 9
18.123501 4.8695002 2.293 9
17.8295 4.8274999 2.289 9
17.8745 4.8305001 2.29 9
18.0175 4.8024998 2.2950001 9
18.047501 4.9045 2.289 9
18.0385 4.8295002 2.2939999 9
18.0075 4.7884998 2.2950001 9
17.9515 4.8845 2.2880001 9
18.0935 4.8095002 2.296 9
18.1735 4.7575002 2.3010001 9
18.0725 4.8555002 2.293 9
18.120501 4.8544998 2.2939999 9
17.7775 4.8455 2.286 9
17.7925 4.8295002 2.2880001 9
18.116501 4.8544998 2.2939999 9
18.0755 4.8934999 2.29 9
17.887501 4.8385 2.289 9
18.068501 4.7985001 2.296 9
18.0665 4.7915001 2.2969999 9
18.070499 4.8385 2.2939999 9
18.1325 4.8125 2.2969999 9
17.9165 4.8295002 2.2909999 9
18.040501 4.7865 2.296 9
18.0485 4.8154998 2.2950001 9
17.7845 4.8534999 2.286 9
17.939501 4.8765001 2.2880001 9
18.0905 4.8955002 2.2909999 9
17.991501 4.9054999 2.2880001 9
17.859501 4.8204999 2.29 9
17.880501 4.8354998 2.289 9
18.1185 4.8295002 2.296 9
17.915501 4.8344998 2.29 9
17.943501 4.8225002 2.2920001 9
18.1175 4.7824998 2.2980001 9
17.925501 4.8185 2.2920001 9
17.8095 4.8315001 2.2880001 9
17.984501 4.7925 2.2950001 9
17.824499 4.8455 2.2869999 9
17.880501 4.8344998 2.289 9
17.9475 4.7944999 2.2939999 9
18.1105 4.8765001 2.2920001 9
18.0355 4.9015002 2.289 9
18.1555 4.7635002 2.3010001 9
17.995501 4.8105001 2.2939999 9
18.157499 4.8655 2.2939999 9
18.1625 4.7765002 2.3 9
17.880501 4.8835001 2.286 9
18.0105 4.8004999 2.2950001 9
18.1175 4.9004998 2.2909999 9
17.8255 4.8625002 2.286 9
18.071501 4.7765002 2.2980001 9
17.932501 4.8125 2.2920001 9
18.186501 4.7655001 2.3010001 9
17.8235 4.8755002 2.2850001 9
18.0005 4.8165002 2.293 9
18.084499 4.9054999 2.29 9
18.164499 4.8734999 2.2939999 9
18.0215 4.8385 2.293 9
18.150499 4.8944998 2.2920001 9
18.061501 4.7814999 2.2969999 9
18.0755 4.8035002 2.296 9
17.946501 4.8074999 2.293 9
18.129499 4.7915001 2.2980001 9
17.921499 4.8065 2.2920001 9
18.165501 4.9334998 2.29 9
17.991501 4.8944998 2.2880001 9
18.008499 4.8594999 2.2909999 9
17.811501 4.8464999 2.2869999 9
17.963499 4.8134999 2.293 9
17.724501 4.8575001 2.2839999 9
17.8515 4.8804998 2.286 9
17.8895 4.8325 2.29 9
18.115499 4.8565001 2.2939999 9
17.949499 4.8775001 2.2880001 9
18.0355 4.8344998 2.293 9
18.0165 4.9004998 2.2880001 9
18.060499 4.8515 2.293 9
18.1425 4.8864999 2.2920001 9
18.1035 4.8525 2.2939999 9
17.817499 4.8245001 2.289 9
18.009501 4.8695002 2.29 9
18.043501 4.8344998 2.293 9
17.856501 4.8134999 2.29 9
18.106501 4.7655001 2.299 9
17.790501 4.8274999 2.2880001 9
17.914499 4.8235002 2.2909999 9
18.0145 4.8024998 2.2950001 9
17.9375 4.8315001 2.2909999 9
17.9245 4.8375001 2.29 9
18.1525 4.7614999 2.3010001 9
18.074499 4.8775001 2.2909999 9
18.061501 4.8705001 2.2920001 9
17.952499 4.8544998 2.29 9
18.1535 4.8744998 2.293 9
17.9715 4.8074999 2.293 9
18.105499 4.9194999 2.289 9
17.987499 4.8175001 2.293 9
17.7045 4.8455 2.2839999 9
18.1285 4.7865 2.2980001 9
18.1835 4.8115001 2.2980001 9
17.9175 4.8934999 2.2869999 9
17.8885 4.8544998 2.2880001 9
18.0275 4.8195 2.2939999 9
17.7005 4.8585 2.283 9
18.126499 4.7965002 2.2980001 9
18.0355 4.8055 2.2950001 9
18.122499 4.8045001 2.2969999 9
17.911501 4.8344998 2.29 9
17.9645 4.8134999 2.293 9
18.1535 4.8915 2.2920001 9
18.0355 4.7954998 2.296 9
17.863501 4.8264999 2.289 9
18.084499 4.8544998 2.293 9
18.0375 4.7905002 2.296 9
17.807501 4.8685002 2.2850001 9
17.9025 4.8515 2.289 9
17.886499 4.8315001 2.29 9
18.0165 4.8404999 2.2920001 9
18.0275 4.9054999 2.2880001 9
17.981501 4.8245001 2.293 9
17.970501 4.8055 2.293 9
18.0935 4.7975001 2.2969999 9
17.8855 4.8534999 2.2880001 9
18.1495 4.8484998 2.2950001 9
18.0035 4.8484998 2.2909999 9
18.157499 4.9015002 2.2920001 9
17.810499 4.8295002 2.2880001 9
17.9345 4.8625002 2.289 9
17.7945 4.8674998 2.2850001 9
18.1415 4.8435001 2.2950001 9
18.0175 4.8095002 2.2939999 9
17.8445 4.8325 2.289 9
18.039499 4.8115001 2.2950001 9
17.959499 4.8154998 2.293 9
18.143499 4.7884998 2.299 9
18.0905 4.7884998 2.2969999 9
17.994499 4.8325 2.2920001 9
18.1595 4.7684999 2.3 9
18.1105 4.7895002 2.2980001 9
18.165501 4.8994999 2.2920001 9
18.077499 4.8065 2.296 9
18.001499 4.8975 2.2880001 9
17.6915 4.8525 2.2839999 9
17.7815 4.8365002 2.2869999 9
18.0165 4.8515 2.2920001 9
17.7705 4.8534999 2.286 9
18.064501 4.8635001 2.2920001 9
17.741501 4.8525 2.2850001 9
17.8435 4.8575001 2.2869999 9
18.1285 4.8604999 2.2939999 9
17.7845 4.8625002 2.2850001 9
18.099501 4.8204999 2.296 9
17.9265 4.8255 2.2909999 9
18.1665 4.7735 2.3 9
18.1555 4.8555002 2.2950001 9
18.0135 4.8885002 2.289 9
17.894501 4.8664999 2.2880001 9
17.988501 4.7995 2.2939999 9
18.0665 4.8505001 2.293 9
17.9575 4.8474998 2.29 9
17.7925 4.8604999 2.286 9
18.168501 4.8985 2.2920001 9
18.0215 4.8864999 2.289 9
17.8195 4.8695002 2.286 9
18.140499 4.8035002 2.2980001 9
17.7005 4.8495002 2.2839999 9
18.025499 4.9025002 2.289 9
17.723499 4.8474998 2.2850001 9
17.995501 4.8734999 2.29 9
17.939501 4.8084998 2.293 9
18.092501 4.8154998 2.296 9
18.036501 4.8755002 2.2909999 9
18.129499 4.8534999 2.2939999 9
16.1255 4.7315001 2.349 9
16.1105 4.7335 2.3369999 9
16.070499 4.7354999 2.306 9
16.129499 4.7335 2.3529999 9
17.4965 4.7354999 2.3180001 9
17.181499 4.7395 2.302 9
17.3545 4.7364998 2.3139999 9
17.2425 4.7395 2.302 9
17.490499 4.7395 2.3050001 9
17.5415 4.7424998 2.2980001 9
17.345501 4.7395 2.3050001 9
17.0725 4.7405 2.2980001 9
17.407499 4.7385001 2.306 9
17.4125 4.7364998 2.3139999 9
17.4515 4.7364998 2.3169999 9
17.414499 4.7405 2.3 9
17.4755 4.7385001 2.309 9
17.342501 4.7375002 2.3110001 9
17.3785 4.7405 2.3010001 9
17.438499 4.7354999 2.319 9
17.3605 4.7395 2.303 9
17.327499 4.7385001 2.306 9
17.498501 4.7344999 2.323 9
17.4965 4.7344999 2.322 9
17.1105 4.7405 2.2969999 9
17.4785 4.7375002 2.312 9
17.352501 4.7414999 2.299 9
17.509501 4.7395 2.306 9
17.525499 4.7395 2.306 9
17.3615 4.7375002 2.3110001 9
17.355499 4.7414999 2.296 9
17.2915 4.7385001 2.306 9
17.5625 4.7405 2.3039999 9
17.446501 4.7385001 2.3080001 9
17.355499 4.7375002 2.3110001 9
17.2675 4.7385001 2.306 9
17.175501 4.7405 2.299 9
17.310499 4.7414999 2.296 9
17.3915 4.7414999 2.2980001 9
17.349501 4.7405 2.302 9
17.237499 4.7395 2.3039999 9
17.0665 4.7405 2.2969999 9
17.335501 4.7414999 2.296 9
17.428499 4.7354999 2.3180001 9
17.2875 4.7405 2.3010001 9
17.3745 4.7385001 2.309 9
17.397499 4.7395 2.306 9
17.4445 4.7385001 2.3069999 9
17.203501 4.7385001 2.3039999 9
17.5725 4.7414999 2.3010001 9
17.3755 4.7414999 2.2969999 9
17.379499 4.7414999 2.296 9
17.157499 4.7395 2.3 9
17.019501 4.7405 2.2939999 9
17.502501 4.7385001 2.3099999 9
17.1695 4.7385001 2.3039999 9
17.3985 4.7364998 2.3150001 9
17.238501 4.7375002 2.3080001 9
17.4925 4.7405 2.3039999 9
17.394501 4.7405 2.303 9
17.0215 4.7405 2.2950001 9
17.185499 4.7405 2.2969999 9
17.460501 4.7375002 2.3110001 9
17.553499 4.7405 2.303 9
17.4925 4.7385001 2.3110001 9
17.383499 4.7414999 2.2969999 9
17.4995 4.7344999 2.322 9
17.511499 4.7405 2.303 9
17.4025 4.7375002 2.3099999 9
17.262501 4.7385001 2.306 9
17.348499 4.7405 2.302 9
17.4335 4.7414999 2.3 9
17.5075 4.7414999 2.3 9
17.026501 4.7405 2.2950001 9
17.481501 4.7375002 2.312 9
17.473499 4.7354999 2.319 9
17.338499 4.7375002 2.3099999 9
17.2745 4.7405 2.3 9
17.1975 4.7385001 2.306 9
17.328501 4.7414999 2.2980001 9
17.466499 4.7385001 2.309 9
17.1395 4.7414999 2.296 9
17.5355 4.7405 2.3039999 9
17.2885 4.7414999 2.2950001 9
17.4545 4.7414999 2.299 9
17.5445 4.7414999 2.3 9
17.3745 4.7405 2.302 9
17.3235 4.7405 2.3010001 9
17.355499 4.7405 2.299 9
17.3825 4.7375002 2.3110001 9
17.311501 4.7375002 2.348 9
17.411501 4.7354999 2.3210001 9
17.2335 4.7385001 2.3399999 9
17.0935 4.7395 2.3139999 9
17.338499 4.7375002 2.345 9
17.209499 4.7385001 2.3110001 9
17.3085 4.7375002 2.3329999 9
17.3195 4.7375002 2.3329999 9
17.362499 4.7364998 2.335 9
17.2085 4.7385001 2.332 9
17.377501 4.7364998 2.3440001 9
17.2845 4.7385001 2.346 9
17.1775 4.7385001 2.3110001 9
17.3445 4.7364998 2.3280001 9
17.2745 4.7375002 2.325 9
17.217501 4.7385001 2.3410001 9
17.328501 4.7364998 2.3180001 9
17.175501 4.7385001 2.3050001 9
17.3535 4.7364998 2.332 9
17.068501 4.7395 2.299 9
17.453501 4.7354999 2.335 9
17.3745 4.7354999 2.3169999 9
17.282499 4.7385001 2.362 9
17.2645 4.7375002 2.326 9
17.2575 4.7385001 2.335 9
17.252501 4.7385001 2.3329999 9
17.422501 4.7354999 2.329 9
17.2735 4.7385001 2.3599999 9
17.074499 4.7395 2.3 9
17.3745 4.7364998 2.329 9
17.217501 4.7385001 2.3269999 9
17.272499 4.7385001 2.3540001 9
17.404499 4.7354999 2.329 9
17.286501 4.7375002 2.3199999 9
17.157499 4.7385001 2.3080001 9
17.4265 4.7354999 2.3239999 9
17.2775 4.7375002 2.312 9
17.206499 4.7385001 2.3099999 9
17.210501 4.7385001 2.332 9
17.445499 4.7344999 2.326 9
17.074499 4.7395 2.306 9
17.304501 4.7375002 2.342 9
17.3435 4.7364998 2.3239999 9
17.1215 4.7395 2.3180001 9
17.4755 4.7344999 2.323 9
17.2995 4.7375002 2.3469999 9
17.484501 4.7344999 2.3269999 9
17.109501 4.7395 2.306 9
17.217501 4.7385001 2.3429999 9
17.241501 4.7375002 2.3110001 9
17.0355 4.7405 2.3010001 9
17.202499 4.7395 2.339 9
17.1805 4.7385001 2.3080001 9
17.311501 4.7364998 2.323 9
17.2125 4.7385001 2.3169999 9
17.248501 4.7385001 2.3410001 9
17.3085 4.7385001 2.3670001 9
17.178499 4.7395 2.3329999 9
17.2785 4.7385001 2.3499999 9
17.331499 4.7375002 2.3510001 9
17.2575 4.7385001 2.3329999 9
17.3515 4.7364998 2.325 9
17.2465 4.7385001 2.3499999 9
17.1905 4.7385001 2.3280001 9
17.2805 4.7375002 2.3429999 9
17.1465 4.7395 2.3169999 9
17.286501 4.7375002 2.3329999 9
17.394501 4.7354999 2.325 9
17.342501 4.7364998 2.3310001 9
17.2575 4.7385001 2.3340001 9
17.296499 4.7385001 2.359 9
17.453501 4.7354999 2.3340001 9
17.011499 4.7405 2.299 9
17.283501 4.7385001 2.3610001 9
17.2775 4.7375002 2.332 9
17.2005 4.7385001 2.3150001 9
17.2435 4.7385001 2.342 9
17.383499 4.7354999 2.3269999 9
17.0865 4.7395 2.3099999 9
17.453501 4.7344999 2.329 9
17.289499 4.7375002 2.336 9
17.171499 4.7385001 2.3080001 9
17.081499 4.7395 2.302 9
17.043501 4.7405 2.3 9
17.390499 4.7364998 2.3380001 9
17.2325 4.7385001 2.3429999 9
17.276501 4.7375002 2.326 9
17.2605 4.7375002 2.3139999 9
17.095501 4.7395 2.306 9
17.3715 4.7364998 2.3299999 9
17.4165 4.7354999 2.3239999 9
17.2955 4.7375002 2.3429999 9
17.1455 4.7395 2.323 9
17.0835 4.7395 2.3039999 9
17.376499 4.7364998 2.336 9
17.2575 4.7375002 2.3199999 9
17.1665 4.7385001 2.319 9
17.393499 4.7354999 2.332 9
17.2465 4.7375002 2.326 9
17.3515 4.7364998 2.3299999 9
17.272499 4.7375002 2.3380001 9
17.4625 4.7344999 2.3239999 9
17.2925 4.7375002 2.3340001 9
17.2925 4.7385001 2.3629999 9
17.359501 4.7364998 2.3310001 9
17.370501 4.7364998 2.3499999 9
17.3195 4.7375002 2.3599999 9
17.370501 4.7364998 2.348 9
17.3605 4.7364998 2.335 9
17.2125 4.7385001 2.319 9
17.0245 4.7405 2.302 9
17.335501 4.7364998 2.3169999 9
17.127501 4.7395 2.323 9
17.251499 4.7385001 2.342 9
17.1425 4.7395 2.3110001 9
17.362499 4.7364998 2.3429999 9
17.3235 4.7375002 2.3629999 9
17.3395 4.7375002 2.346 9
17.3365 4.7375002 2.342 9
17.3445 4.7375002 2.3559999 9
17.286501 4.7375002 2.3269999 9
17.306499 4.7375002 2.3340001 9
17.185499 4.7385001 2.3239999 9
17.342501 4.7364998 2.326 9
17.2775 4.7385001 2.3559999 9
17.185499 4.7395 2.3369999 9
17.2055 4.7385001 2.332 9
17.3155 4.7375002 2.3469999 9
17.262501 4.7375002 2.322 9
17.259501 4.7385001 2.335 9
17.168501 4.7385001 2.3150001 9
17.334499 4.7375002 2.3510001 9
17.1905 4.7385001 2.319 9
17.099501 4.7395 2.306 9
17.2335 4.7385001 2.336 9
17.2715 4.7375002 2.322 9
17.192499 4.7395 2.3399999 9
17.365499 4.7364998 2.3510001 9
17.2075 4.7385001 2.3169999 9
17.436501 4.7354999 2.329 9
17.349501 4.7364998 2.3429999 9
17.3575 4.7354999 2.316 9
17.4335 4.7354999 2.3380001 9
17.1255 4.7395 2.3139999 9
17.182501 4.7385001 2.306 9
17.158501 4.7385001 2.306 9
17.4505 4.7445002 2.3469999 9
17.418501 4.7414999 2.3499999 9
17.463499 4.7435002 2.3429999 9
17.443501 4.7435002 2.3469999 9
17.4265 4.7385001 2.3440001 9
17.404499 4.7375002 2.348 9
17.4405 4.7354999 2.3380001 9
17.429501 4.7405 2.3469999 9
17.4025 4.7405 2.3510001 9
17.494499 4.7375002 2.329 9
17.4615 4.7494998 2.3499999 9
17.438499 4.7484999 2.3529999 9
17.394501 4.7515001 2.3659999 9
17.418501 4.7364998 2.3440001 9
17.438499 4.7414999 2.345 9
17.438499 4.7484999 2.3529999 9
17.356501 4.7435002 2.365 9
17.372499 4.7424998 2.3610001 9
17.397499 4.7525001 2.3659999 9
17.3745 4.7474999 2.365 9
17.435499 4.7455001 2.3510001 9
17.4165 4.7364998 2.345 9
17.4065 4.7414999 2.352 9
17.3785 4.7474999 2.3640001 9
17.429501 4.7494998 2.3559999 9
17.380501 4.7494998 2.3670001 9
17.498501 4.7354999 2.326 9
17.4345 4.7424998 2.3469999 9
17.379499 4.7455001 2.362 9
17.3545 4.7455001 2.3670001 9
17.3575 4.7395 2.3599999 9
17.3585 4.7424998 2.3629999 9
17.484501 4.7465 2.342 9
17.4615 4.7354999 2.3340001 9
17.4305 4.7585001 2.3670001 9
17.4585 4.7515001 2.352 9
17.4505 4.7455001 2.348 9
17.4855 4.7364998 2.3299999 9
17.428499 4.7405 2.3469999 9
17.4765 4.7395 2.335 9
17.4265 4.7535 2.362 9
17.480499 4.7414999 2.3369999 9
17.387501 4.7455001 2.3599999 9
17.4725 4.7515001 2.3499999 9
17.4095 4.7494998 2.3599999 9
17.473499 4.7624998 2.362 9
17.554501 4.7525001 2.3610001 9
17.595501 4.7525001 2.369 9
17.4965 4.7494998 2.346 9
17.488501 4.7564998 2.3540001 9
17.515499 4.7605 2.3640001 9
17.546499 4.7474999 2.352 9
17.568501 4.7445002 2.352 9
17.5135 4.7484999 2.348 9
17.5665 4.7474999 2.3559999 9
17.5245 4.7474999 2.3469999 9
17.536501 4.7595 2.3670001 9
17.5695 4.7474999 2.3559999 9
17.5415 4.7515001 2.358 9
17.505501 4.7455001 2.3410001 9
17.6145 4.7494998 2.369 9
17.585501 4.7535 2.368 9
17.526501 4.7455001 2.345 9
17.6115 4.7505002 2.369 9
17.5835 4.7505002 2.3640001 9
17.5905 4.7494998 2.3640001 9
17.5315 4.7494998 2.3529999 9
17.620501 4.7515001 2.372 9
17.5355 4.7455001 2.348 9
17.6035 4.7435002 2.358 9
17.5005 4.7525001 2.3510001 9
17.598499 4.7484999 2.3629999 9
17.5525 4.7494998 2.3559999 9
17.605499 4.7505002 2.368 9
17.5285 4.7474999 2.348 9
17.5175 4.7595 2.3640001 9
17.5425 4.7484999 2.3529999 9
17.5665 4.7455001 2.3540001 9
17.515499 4.7554998 2.358 9
17.5895 4.7515001 2.3670001 9
17.504499 4.7575002 2.359 9
17.4935 4.7474999 2.342 9
17.6315 4.7484999 2.369 9
17.540501 4.7554998 2.362 9
17.584499 4.7474999 2.3599999 9
17.504499 4.7614999 2.3629999 9
17.5875 4.7494998 2.3629999 9
17.577499 4.7465 2.3559999 9
17.490499 4.7645001 2.3659999 9
17.539499 4.7465 2.349 9
17.5445 4.7544999 2.362 9
17.592501 4.7505002 2.3659999 9
17.605499 4.7435002 2.332 9
17.5825 4.7414999 2.342 9
17.570499 4.7405 2.3169999 9
17.5965 4.7435002 2.3210001 9
17.5305 4.7364998 2.3280001 9
17.584499 4.7414999 2.332 9
17.599501 4.7435002 2.3299999 9
17.533501 4.7375002 2.3310001 9
17.5905 4.7424998 2.3310001 9
17.6245 4.7455001 2.349 9
17.5315 4.7364998 2.3269999 9
17.5385 4.7375002 2.3269999 9
17.5355 4.7375002 2.323 9
17.556499 4.7395 2.3340001 9
17.536501 4.7375002 2.326 9
17.5725 4.7405 2.323 9
17.584499 4.7414999 2.3310001 9
17.550501 4.7385001 2.3329999 9
17.643499 4.7465 2.365 9
17.5735 4.7405 2.3329999 9
17.529499 4.7375002 2.3169999 9
17.6455 4.7474999 2.369 9
17.550501 4.7385001 2.3340001 9
17.522499 4.7364998 2.3269999 9
17.5525 4.7385001 2.3310001 9
17.568501 4.7405 2.313 9
17.5455 4.7385001 2.3239999 9
17.6115 4.7445002 2.3559999 9
17.570499 4.7405 2.3069999 9
17.574499 4.7414999 2.3039999 9
17.536501 4.7375002 2.3329999 9
17.509501 4.7344999 2.3239999 9
17.568501 4.7405 2.346 9
17.599501 4.7435002 2.3169999 9
17.6395 4.7465 2.365 9
17.5975 4.7435002 2.312 9
17.633499 4.7465 2.3570001 9
17.6115 4.7445002 2.329 9
17.591499 4.7424998 2.3469999 9
17.6085 4.7435002 2.3529999 9
17.529499 4.7364998 2.3210001 9
17.7195 4.7494998 2.3640001 9
17.7215 4.7505002 2.3670001 9
17.775499 4.7515001 2.359 9
17.7605 4.7544999 2.372 9
17.7215 4.7494998 2.3640001 9
17.717501 4.7505002 2.3699999 9
17.727501 4.7525001 2.3729999 9
17.7845 4.7515001 2.355 9
17.800501 4.7494998 2.346 9
17.747499 4.7505002 2.3640001 9
17.7425 4.7525001 2.3699999 9
17.761499 4.7494998 2.3559999 9
17.658501 4.7484999 2.3729999 9
17.759501 4.7484999 2.352 9
17.7705 4.7515001 2.359 9
17.7265 4.7494998 2.3640001 9
17.7605 4.7515001 2.3640001 9
17.744499 4.7515001 2.365 9
17.7885 4.7515001 2.3559999 9
17.636499 4.7455001 2.3399999 9
17.665501 4.7474999 2.369 9
17.650499 4.7465 2.355 9
17.616501 4.7445002 2.3169999 9
17.7785 4.7484999 2.345 9
17.6765 4.7474999 2.359 9
17.706499 4.7474999 2.3499999 9
17.633499 4.7435002 2.3080001 9
17.6675 4.7455001 2.3310001 9
17.650499 4.7465 2.345 9
17.678499 4.7465 2.348 9
17.755501 4.7474999 2.3399999 9
17.682501 4.7465 2.335 9
17.6765 4.7455001 2.329 9
17.7045 4.7465 2.3280001 9
17.695499 4.7474999 2.362 9
17.622499 4.7445002 2.329 9
17.6805 4.7455001 2.323 9
17.7875 4.7484999 2.342 9
17.681499 4.7474999 2.3559999 9
17.7395 4.7474999 2.3429999 9
17.665501 4.7445002 2.319 9
17.713499 4.7465 2.3310001 9
17.612499 4.7435002 2.3039999 9
17.679501 4.7465 2.346 9
17.675501 4.7465 2.3510001 9
17.6455 4.7465 2.345 9
17.665501 4.7474999 2.3659999 9
17.6385 4.7445002 2.312 9
17.633499 4.7455001 2.3340001 9
17.7745 4.7474999 2.336 9
17.6105 4.7435002 2.316 9
17.6905 4.7455001 2.3239999 9
17.672501 4.7465 2.336 9
17.6845 4.7455001 2.3180001 9
17.6915 4.7465 2.346 9
17.6595 4.7455001 2.332 9
17.6045 4.7435002 2.306 9
17.6385 4.7455001 2.3440001 9
17.668501 4.7474999 2.3670001 9
17.6605 4.7455001 2.322 9
17.7185 4.7484999 2.3570001 9
17.720501 4.7465 2.336 9
17.6175 4.7445002 2.329 9
17.675501 4.7474999 2.368 9
17.6565 4.7474999 2.3599999 9
17.745501 4.7474999 2.3380001 9
17.626499 4.7455001 2.3399999 9
17.755501 4.7474999 2.3310001 9
17.6875 4.7474999 2.3510001 9
17.6975 4.7455001 2.3269999 9
17.668501 4.7465 2.349 9
17.6495 4.7445002 2.312 9
17.7005 4.7465 2.345 9
17.619499 4.7435002 2.3150001 9
17.800501 4.7484999 2.342 9
17.6015 4.7435002 2.3039999 9
17.658501 4.7445002 2.3169999 9
17.665501 4.7455001 2.3299999 9
17.696501 4.7474999 2.346 9
17.6985 4.7465 2.3329999 9
17.723499 4.7474999 2.355 9
17.6325 4.7445002 2.3199999 9
17.6535 4.7445002 2.312 9
17.7715 4.7474999 2.3399999 9
17.7355 4.7474999 2.3440001 9
17.6635 4.7465 2.346 9
17.692499 4.7465 2.3340001 9
17.6565 4.7455001 2.332 9
17.679501 4.7455001 2.323 9
17.835501 4.7465 2.336 9
17.8925 4.7455001 2.3269999 9
17.852501 4.7445002 2.3150001 9
17.9615 4.7435002 2.312 9
17.911501 4.7455001 2.3280001 9
18.0935 4.7424998 2.3039999 9
17.633499 4.7424998 2.3 9
17.960501 4.7424998 2.3039999 9
18.0835 4.7424998 2.303 9
17.751499 4.7435002 2.3080001 9
17.6975 4.7424998 2.303 9
17.717501 4.7435002 2.3069999 9
17.811501 4.7445002 2.316 9
17.855499 4.7445002 2.3169999 9
17.8395 4.7435002 2.312 9
17.702499 4.7435002 2.3080001 9
17.890499 4.7435002 2.309 9
17.998501 4.7445002 2.3199999 9
17.956499 4.7455001 2.322 9
17.768499 4.7455001 2.326 9
18.0795 4.7424998 2.302 9
17.901501 4.7435002 2.3099999 9
17.834499 4.7445002 2.3150001 9
18.144501 4.7435002 2.306 9
17.834499 4.7465 2.3280001 9
17.8055 4.7455001 2.322 9
17.845501 4.7435002 2.3110001 9
17.797501 4.7435002 2.3050001 9
17.949499 4.7455001 2.3280001 9
17.862499 4.7424998 2.3039999 9
17.8715 4.7455001 2.326 9
17.824499 4.7424998 2.3039999 9
17.7735 4.7455001 2.326 9
17.7845 4.7424998 2.303 9
17.935499 4.7435002 2.309 9
17.783501 4.7435002 2.3080001 9
17.9855 4.7445002 2.313 9
17.827499 4.7424998 2.3039999 9
18.120501 4.7435002 2.3080001 9
18.1455 4.7424998 2.306 9
17.8395 4.7474999 2.339 9
17.907499 4.7424998 2.303 9
18.1745 4.7424998 2.3039999 9
17.7705 4.7435002 2.3069999 9
18.0275 4.7445002 2.3180001 9
17.745501 4.7455001 2.3199999 9
18.0795 4.7445002 2.3139999 9
17.9335 4.7435002 2.3110001 9
17.7855 4.7445002 2.316 9
17.706499 4.7435002 2.3080001 9
17.973499 4.7445002 2.3210001 9
17.873501 4.7445002 2.3139999 9
17.6635 4.7424998 2.3 9
17.980499 4.7435002 2.313 9
17.7115 4.7445002 2.3139999 9
17.720501 4.7424998 2.3 9
18.053499 4.7435002 2.3099999 9
17.9475 4.7445002 2.3139999 9
17.911501 4.7435002 2.3080001 9
17.755501 4.7455001 2.3199999 9
17.907499 4.7455001 2.3210001 9
17.827499 4.7455001 2.325 9
17.661501 4.7435002 2.309 9
17.8465 4.7445002 2.313 9
17.942499 4.7435002 2.3099999 9
17.8785 4.7435002 2.309 9
17.9765 4.7455001 2.325 9
17.9685 4.7445002 2.3199999 9
17.7435 4.7435002 2.3069999 9
17.769501 4.7455001 2.3269999 9
17.752501 4.7435002 2.306 9
18.0515 4.7435002 2.3110001 9
17.820499 4.7455001 2.326 9
17.810499 4.7424998 2.3 9
18.092501 4.7424998 2.302 9
18.077499 4.7424998 2.302 9
18.0525 4.7445002 2.3169999 9
17.7645 4.7455001 2.326 9
17.842501 4.7445002 2.316 9
17.8395 4.7455001 2.3199999 9
17.7995 4.7435002 2.3069999 9
17.8535 4.7455001 2.322 9
17.8365 4.7465 2.3329999 9
17.9555 4.7445002 2.3199999 9
18.1355 4.7424998 2.306 9
17.8885 4.7445002 2.316 9
17.738501 4.7435002 2.3069999 9
17.901501 4.7435002 2.312 9
18.1875 4.7424998 2.303 9
17.741501 4.7435002 2.3099999 9
17.877501 4.7424998 2.302 9
17.6595 4.7435002 2.309 9
17.862499 4.7424998 2.302 9
17.762501 4.7435002 2.303 9
18.004499 4.7445002 2.3210001 9
17.866501 4.7455001 2.322 9
17.7185 4.7445002 2.312 9
18.1465 4.7435002 2.3069999 9
17.9545 4.7445002 2.3169999 9
17.7335 4.7435002 2.3050001 9
17.752501 4.7455001 2.3199999 9
17.8505 4.7445002 2.313 9
17.8825 4.7435002 2.3110001 9
17.908501 4.7435002 2.3080001 9
17.6705 4.7424998 2.3010001 9
17.897499 4.7435002 2.306 9
17.8575 4.7455001 2.326 9
17.7705 4.7445002 2.3169999 9
17.6595 4.7435002 2.3080001 9
17.911501 4.7445002 2.319 9
17.8605 4.7465 2.3299999 9
17.988501 4.7435002 2.312 9
17.827499 4.7465 2.336 9
17.8395 4.7435002 2.306 9
17.865499 4.7424998 2.303 9
17.688499 4.7445002 2.3110001 9
17.8335 4.7455001 2.322 9
17.9995 4.7424998 2.3039999 9
18.154499 4.7435002 2.306 9
17.938499 4.7445002 2.3150001 9
18.112499 4.7435002 2.3080001 9
17.841499 4.7435002 2.3050001 9
17.900499 4.7435002 2.309 9
17.6915 4.7455001 2.3169999 9
17.765499 4.7474999 2.3310001 9
17.8265 4.7474999 2.3399999 9
17.8085 4.7474999 2.3369999 9
17.745501 4.7455001 2.3239999 9
17.7005 4.7445002 2.3169999 9
17.765499 4.7474999 2.332 9
17.6635 4.7445002 2.312 9
18.105499 4.7385001 2.319 9
18.071501 4.7335 2.329 9
18.136499 4.7435002 2.309 9
18.085501 4.7405 2.3180001 9
18.088499 4.7414999 2.3169999 9
18.1385 4.7435002 2.309 9
18.0865 4.7414999 2.3180001 9
18.116501 4.7414999 2.3139999 9
18.1675 4.7414999 2.3069999 9
18.1455 4.7414999 2.3099999 9
18.0585 4.7435002 2.319 9
18.1555 4.7424998 2.3069999 9
18.1035 4.7375002 2.3199999 9
18.0655 4.7385001 2.3239999 9
18.102501 4.7405 2.3169999 9
17.908501 4.7535 2.3529999 9
18.033501 4.7405 2.3380001 9
17.943501 4.7535 2.3540001 9
17.914499 4.7474999 2.3429999 9
17.9345 4.7575002 2.3599999 9
17.960501 4.7525001 2.3540001 9
17.9445 4.7435002 2.339 9
17.9305 4.7564998 2.358 9
18.0385 4.7375002 2.335 9
17.9795 4.7465 2.345 9
17.9685 4.7505002 2.3510001 9
17.960501 4.7494998 2.349 9
17.9245 4.7445002 2.339 9
17.9575 4.7484999 2.3469999 9
17.8965 4.7484999 2.3440001 9
17.943501 4.7445002 2.3410001 9
17.931499 4.7535 2.3540001 9
18.025499 4.7385001 2.336 9
18.0035 4.7455001 2.345 9
17.938499 4.7494998 2.348 9
17.935499 4.7564998 2.358 9
17.9245 4.7515001 2.3499999 9
17.8955 4.7445002 2.339 9
17.931499 4.7455001 2.3410001 9
18.005501 4.7445002 2.3440001 9
17.9485 4.7494998 2.348 9
17.9585 4.7595 2.3640001 9
17.9175 4.7505002 2.349 9
18.040501 4.7354999 2.332 9
18.036501 4.7405 2.339 9
17.967501 4.7494998 2.349 9
17.918501 4.7435002 2.3380001 9
18.0375 4.7395 2.3380001 9
17.9195 4.7465 2.342 9
18.033501 4.7395 2.3369999 9
17.980499 4.7465 2.345 9
17.9965 4.7424998 2.3399999 9
18.009501 4.7465 2.346 9
17.914499 4.7445002 2.339 9
18.0075 4.7375002 2.3340001 9
17.9475 4.7474999 2.345 9
18.002501 4.7564998 2.359 9
18.033501 4.7605 2.3629999 9
17.9895 4.7605 2.3640001 9
17.994499 4.7554998 2.358 9
18.0765 4.7544999 2.355 9
18.0765 4.7474999 2.3469999 9
17.981501 4.7614999 2.365 9
18.0595 4.7595 2.3610001 9
17.9715 4.7564998 2.3599999 9
18.026501 4.7544999 2.3570001 9
18.0285 4.7515001 2.352 9
18.0445 4.7474999 2.3469999 9
17.9935 4.7614999 2.365 9
18.0805 4.7505002 2.3499999 9
18.0375 4.7605 2.362 9
18.0495 4.7515001 2.352 9
18.063499 4.7474999 2.3469999 9
17.987499 4.7595 2.3629999 9
18.0455 4.7445002 2.3440001 9
18.008499 4.7535 2.355 9
18.0765 4.7525001 2.352 9
18.056499 4.7544999 2.3559999 9
17.9725 4.7585001 2.362 9
18.0795 4.7585001 2.3599999 9
18.078501 4.7595 2.3599999 9
18.0315 4.7505002 2.3510001 9
18.015499 4.7484999 2.3499999 9
18.078501 4.7575002 2.358 9
18.054501 4.7414999 2.3399999 9
18.0965 4.7535 2.3529999 9
18.046499 4.7525001 2.3529999 9
18.0485 4.7405 2.3399999 9
18.074499 4.7395 2.3369999 9
18.098499 4.7624998 2.3640001 9
18.032499 4.7465 2.346 9
18.0795 4.7515001 2.3510001 9
18.0825 4.7624998 2.3640001 9
18.074499 4.7605 2.362 9
18.0075 4.7515001 2.3540001 9
18.123501 4.7375002 2.3199999 9
18.1495 4.7544999 2.3369999 9
18.1395 4.7535 2.339 9
18.1215 4.7544999 2.3469999 9
18.1735 4.7414999 2.3080001 9
18.105499 4.7364998 2.323 9
18.1115 4.7564998 2.3529999 9
18.116501 4.7484999 2.3380001 9
18.1605 4.7505002 2.3280001 9
18.109501 4.7424998 2.3329999 9
18.126499 4.7585001 2.3510001 9
18.126499 4.7575002 2.3499999 9
18.1695 4.7455001 2.316 9
18.0935 4.7414999 2.3369999 9
18.116501 4.7364998 2.3199999 9
18.1555 4.7405 2.312 9
18.119499 4.7624998 2.362 9
18.127501 4.7465 2.332 9
18.109501 4.7515001 2.346 9
18.1625 4.7455001 2.3180001 9
18.113501 4.7405 2.3280001 9
18.1565 4.7445002 2.319 9
18.1385 4.7385001 2.316 9
18.112499 4.7554998 2.352 9
18.1675 4.7465 2.3180001 9
18.115499 4.7624998 2.3610001 9
18.1325 4.7554998 2.345 9
18.129499 4.7525001 2.342 9
18.1605 4.7455001 2.3180001 9
18.119499 4.7435002 2.329 9
18.098499 4.7484999 2.346 9
18.105499 4.7405 2.3310001 9
18.136499 4.7564998 2.345 9
18.1805 4.7665 2.3610001 9
18.1595 4.7605 2.3499999 9
18.1775 4.7544999 2.3329999 9
18.172501 4.7655001 2.3599999 9
18.1915 4.7455001 2.3099999 9
18.1875 4.7655001 2.359 9
18.182501 4.7465 2.3139999 9
18.123501 4.7655001 2.3670001 9
18.1745 4.7614999 2.3499999 9
18.1765 4.7674999 2.3640001 9
18.193501 4.7484999 2.3180001 9
18.179501 4.7605 2.348 9
18.143499 4.7585001 2.345 9
18.150499 4.7595 2.3469999 9
18.178499 4.7494998 2.3210001 9
18.133499 4.7655001 2.365 9
18.168501 4.7635002 2.3570001 9
18.1915 4.7665 2.3599999 9
18.1745 4.7535 2.3299999 9
18.1875 4.7564998 2.336 9
18.192499 4.7605 2.3469999 9
18.1355 4.7614999 2.3540001 9
18.1835 4.7525001 2.326 9
18.1605 4.7575002 2.3410001 9
18.179501 4.7544999 2.332 9
18.1905 4.7614999 2.348 9
18.192499 4.7515001 2.3239999 9
18.1905 4.7554998 2.335 9
18.171499 4.7525001 2.3280001 9
16.3375 4.9685001 2.3050001 9
16.449499 4.9664998 2.303 9
16.5585 4.9635 2.3010001 9
16.533501 4.9645 2.3 9
16.5315 4.9645 2.302 9
16.4935 4.9654999 2.3010001 9
16.304501 4.9685001 2.3039999 9
16.4235 4.9664998 2.306 9
16.619499 4.9625001 2.2969999 9
16.5835 4.9635 2.2980001 9
16.5165 4.9645 2.3039999 9
16.498501 4.9654999 2.299 9
16.481501 4.9654999 2.3050001 9
16.5285 4.9645 2.302 9
16.6845 4.9615002 2.2950001 9
16.616501 4.9625001 2.2969999 9
16.442499 4.9664998 2.3080001 9
16.5305 4.9645 2.3039999 9
16.713499 4.9604998 2.2939999 9
16.686501 4.9615002 2.2950001 9
16.456499 4.9654999 2.3 9
16.4965 4.9654999 2.299 9
16.515499 4.9645 2.3010001 9
16.438499 4.9664998 2.302 9
16.5555 4.9685001 2.323 9
16.738501 4.9615002 2.303 9
16.5805 4.9654999 2.309 9
16.681499 4.9625001 2.3010001 9
16.8375 4.9584999 2.2939999 9
16.6595 4.9635 2.306 9
16.502501 4.9664998 2.313 9
16.512501 4.9654999 2.3050001 9
16.5145 4.9675002 2.3150001 9
16.665501 4.9625001 2.3 9
16.7255 4.9604998 2.2969999 9
16.6695 4.9645 2.3150001 9
16.737499 4.9604998 2.299 9
16.5385 4.9685001 2.325 9
16.5135 4.9654999 2.309 9
16.4725 4.9685001 2.319 9
16.6525 4.9645 2.313 9
16.724501 4.9625001 2.3069999 9
16.591499 4.9654999 2.313 9
16.606501 4.9635 2.303 9
16.629499 4.9625001 2.302 9
16.703501 4.9635 2.309 9
16.651501 4.9625001 2.302 9
16.6915 4.9635 2.3110001 9
16.5495 4.9654999 2.309 9
16.657499 4.9654999 2.3150001 9
16.504499 4.9654999 2.3080001 9
16.518499 4.9654999 2.306 9
16.497499 4.9664998 2.3099999 9
16.6325 4.9635 2.3050001 9
16.571501 4.9635 2.303 9
16.745501 4.9615002 2.3010001 9
16.5415 4.9695001 2.3299999 9
16.5425 4.9695001 2.3299999 9
16.6105 4.9645 2.3069999 9
16.5245 4.9654999 2.3069999 9
16.7005 4.9615002 2.2969999 9
16.740499 4.9604998 2.2969999 9
16.5625 4.9685001 2.3269999 9
16.657499 4.9625001 2.3039999 9
16.7945 4.9594998 2.2939999 9
16.5285 4.9675002 2.3210001 9
16.696501 4.9625001 2.302 9
16.5735 4.9654999 2.3099999 9
16.709499 4.9625001 2.303 9
16.811501 4.9594998 2.2969999 9
16.6075 4.9675002 2.322 9
16.7745 4.9604998 2.3 9
16.637501 4.9625001 2.302 9
16.508499 4.9705 2.3329999 9
16.643499 4.9654999 2.3139999 9
16.5245 4.9675002 2.3169999 9
16.8255 4.9584999 2.2939999 9
16.5835 4.9645 2.3069999 9
16.7145 4.9615002 2.302 9
16.550501 4.9654999 2.309 9
16.556499 4.9664998 2.3169999 9
16.585501 4.9675002 2.3199999 9
16.5035 4.9675002 2.319 9
16.5215 4.9705 2.332 9
16.4895 4.9654999 2.3080001 9
16.508499 4.9695001 2.329 9
16.571501 4.9654999 2.309 9
16.8235 4.9584999 2.293 9
16.713499 4.9615002 2.3 9
16.5585 4.9645 2.3039999 9
16.4625 4.9664998 2.309 9
16.8095 4.9654999 2.3199999 9
16.8295 4.9635 2.3110001 9
16.747499 4.9635 2.3099999 9
16.786501 4.9664998 2.322 9
16.737499 4.9654999 2.319 9
16.762501 4.9675002 2.3269999 9
16.629499 4.9705 2.3369999 9
16.5805 4.9685001 2.3269999 9
16.7395 4.9695001 2.335 9
16.564501 4.9695001 2.329 9
16.7295 4.9664998 2.322 9
16.8155 4.9625001 2.309 9
16.755501 4.9675002 2.3269999 9
16.8435 4.9664998 2.3239999 9
16.7435 4.9695001 2.3340001 9
16.761499 4.9654999 2.3199999 9
16.658501 4.9714999 2.339 9
16.7985 4.9645 2.3150001 9
16.6605 4.9695001 2.3299999 9
16.6145 4.9685001 2.326 9
16.508499 4.9714999 2.3380001 9
16.761499 4.9664998 2.3239999 9
16.5735 4.9685001 2.3269999 9
16.7535 4.9695001 2.3329999 9
16.744499 4.9625001 2.3080001 9
16.8395 4.9594998 2.296 9
16.717501 4.9685001 2.3299999 9
16.5835 4.9705 2.336 9
16.7565 4.9615002 2.3050001 9
16.6535 4.9675002 2.323 9
16.831499 4.9625001 2.309 9
16.7955 4.9685001 2.332 9
16.7845 4.9654999 2.3169999 9
16.755501 4.9685001 2.3310001 9
16.5655 4.9705 2.3329999 9
16.838499 4.9675002 2.329 9
16.7495 4.9664998 2.3210001 9
16.8505 4.9654999 2.319 9
16.5935 4.9675002 2.3239999 9
16.7225 4.9695001 2.3340001 9
16.8435 4.9675002 2.3280001 9
16.7635 4.9705 2.336 9
16.8405 4.9654999 2.319 9
16.7195 4.9675002 2.3269999 9
16.838499 4.9705 2.3380001 9
16.547501 4.9705 2.3340001 9
16.7745 4.9705 2.336 9
16.834499 4.9685001 2.3329999 9
16.782499 4.9625001 2.3080001 9
16.790501 4.9625001 2.3080001 9
16.755501 4.9635 2.3110001 9
16.7295 4.9675002 2.3239999 9
16.800501 4.9685001 2.3310001 9
16.6705 4.9685001 2.329 9
16.849501 4.9584999 2.293 9
16.6635 4.9685001 2.3299999 9
16.703501 4.9685001 2.3310001 9
16.6145 4.9714999 2.3380001 9
16.8085 4.9615002 2.302 9
16.7885 4.9615002 2.3039999 9
16.7775 4.9664998 2.322 9
16.6185 4.9695001 2.3299999 9
16.8375 4.9594998 2.2969999 9
16.7745 4.9654999 2.3199999 9
16.6395 4.9685001 2.326 9
16.688499 4.9705 2.336 9
16.7775 4.9675002 2.3269999 9
16.8575 4.9604998 2.303 9
16.688499 4.9654999 2.3169999 9
16.5755 4.9705 2.3329999 9
16.775499 4.9635 2.312 9
16.765499 4.9695001 2.3340001 9
16.772499 4.9685001 2.3299999 9
16.7645 4.9625001 2.3050001 9
16.827499 4.9675002 2.3269999 9
16.814501 4.9685001 2.332 9
16.630501 4.9705 2.335 9
16.841499 4.9615002 2.306 9
16.747499 4.9695001 2.3340001 9
16.800501 4.9685001 2.3310001 9
16.6675 4.9695001 2.3310001 9
16.811501 4.9645 2.3169999 9
16.7605 4.9675002 2.325 9
16.706499 4.9645 2.3150001 9
16.765499 4.9695001 2.335 9
16.8265 4.9635 2.3110001 9
16.811501 4.9645 2.316 9
16.574499 4.9695001 2.3310001 9
16.821501 4.9635 2.313 9
16.8365 4.9654999 2.319 9
16.8095 4.9685001 2.332 9
16.894501 4.9675002 2.309 9
16.8515 4.9705 2.335 9
16.8955 4.9724998 2.325 9
16.9195 4.9745002 2.322 9
16.863501 4.9685001 2.323 9
16.855499 4.9714999 2.3380001 9
16.8925 4.9734998 2.3280001 9
16.8605 4.9705 2.332 9
16.887501 4.9685001 2.316 9
16.925501 4.9765 2.326 9
16.8755 4.9664998 2.3150001 9
16.931499 4.9794998 2.3329999 9
16.921499 4.9784999 2.3340001 9
16.866501 4.9724998 2.336 9
16.848499 4.9685001 2.3299999 9
16.886499 4.9714999 2.325 9
16.8755 4.9615002 2.3010001 9
16.883499 4.9645 2.3050001 9
16.8575 4.9685001 2.3269999 9
16.8515 4.9685001 2.3299999 9
16.904499 4.9734998 2.325 9
16.877501 4.9664998 2.3139999 9
16.879499 4.9695001 2.3210001 9
16.8895 4.9695001 2.3180001 9
16.9065 4.9745002 2.3269999 9
16.886499 4.9714999 2.325 9
16.8985 4.9755001 2.3340001 9
16.915501 4.9724998 2.319 9
17.127501 4.9835 2.3150001 9
16.9835 4.9734998 2.3110001 9
17.1175 4.9864998 2.323 9
17.0135 4.9724998 2.3050001 9
17.0945 4.9835 2.3199999 9
16.977501 4.9734998 2.312 9
16.9835 4.9784999 2.3210001 9
17.039499 4.9755001 2.309 9
17.1415 4.9875002 2.323 9
16.9765 4.9724998 2.3099999 9
16.966499 4.9805002 2.3269999 9
16.9245 4.9635 2.296 9
17.018499 4.9724998 2.3039999 9
17.040501 4.9805002 2.3180001 9
17.1045 4.9844999 2.3210001 9
17.071501 4.9775 2.309 9
17.154499 4.9864998 2.3199999 9
16.9135 4.9664998 2.3050001 9
16.9715 4.9724998 2.3099999 9
17.061501 4.9765 2.3080001 9
16.949499 4.9654999 2.299 9
16.9415 4.9664998 2.3010001 9
17.1985 4.9905 2.322 9
16.998501 4.9815001 2.3269999 9
17.0935 4.9825001 2.3169999 9
17.0945 4.9825001 2.3180001 9
17.001499 4.9805002 2.323 9
17.085501 4.9854999 2.325 9
16.974501 4.9745002 2.3150001 9
16.9965 4.9705 2.3039999 9
16.9515 4.9675002 2.3010001 9
16.974501 4.9755001 2.3150001 9
16.9895 4.9755001 2.3150001 9
17.1385 4.9864998 2.322 9
16.939501 4.9765 2.3210001 9
16.9695 4.9685001 2.303 9
17.039499 4.9815001 2.323 9
16.9515 4.9724998 2.3110001 9
16.956499 4.9705 2.309 9
17.098499 4.9854999 2.323 9
17.0825 4.9844999 2.3239999 9
16.967501 4.9685001 2.303 9
16.994499 4.9835 2.3310001 9
17.098499 4.9794998 2.3110001 9
17.036501 4.9805002 2.3199999 9
17.0135 4.9755001 2.312 9
17.1835 4.9895 2.322 9
17.095501 4.9805002 2.313 9
16.9855 4.9714999 2.306 9
17.1735 4.9885001 2.3210001 9
16.9625 4.9775 2.3210001 9
17.0375 4.9775 2.312 9
16.960501 4.9805002 2.329 9
17.136499 4.9844999 2.316 9
16.977501 4.9755001 2.3150001 9
17.105499 4.9854999 2.322 9
17.078501 4.9815001 2.3180001 9
17.157499 4.9854999 2.316 9
16.956499 4.9794998 2.3269999 9
17.004499 4.9805002 2.3239999 9
17.147499 4.9854999 2.3169999 9
16.9585 4.9734998 2.3139999 9
17.005501 4.9724998 2.306 9
17.0315 4.9844999 2.329 9
17.1035 4.9875002 2.326 9
17.050501 4.9844999 2.3269999 9
17.002501 4.9734998 2.3080001 9
17.0455 4.9784999 2.3150001 9
17.0385 4.9844999 2.329 9
17.033501 4.9844999 2.3280001 9
17.0555 4.9645 2.2969999 9
16.9995 4.9625001 2.296 9
17.265499 4.9745002 2.299 9
16.918501 4.9594998 2.2909999 9
16.9965 4.9625001 2.2939999 9
17.2605 4.9734998 2.3 9
17.1455 4.9685001 2.299 9
17.0065 4.9625001 2.296 9
17.209499 4.9714999 2.3 9
17.1555 4.9695001 2.2969999 9
17.078501 4.9645 2.3 9
17.178499 4.9685001 2.302 9
17.1285 4.9664998 2.3 9
17.0865 4.9654999 2.2969999 9
17.1045 4.9675002 2.2969999 9
17.084499 4.9654999 2.2969999 9
17.2145 4.9695001 2.3050001 9
16.9275 4.9594998 2.2920001 9
17.0525 4.9635 2.2980001 9
17.1675 4.9695001 2.299 9
17.1465 4.9664998 2.303 9
17.0515 4.9685001 2.302 9
16.9275 4.9625001 2.2950001 9
17.1145 4.9755001 2.3080001 9
17.0555 4.9714999 2.3039999 9
17.182501 4.9685001 2.306 9
17.130501 4.9805002 2.312 9
16.9925 4.9635 2.2980001 9
17.1915 4.9835 2.316 9
17.106501 4.9755001 2.3080001 9
17.0725 4.9755001 2.3069999 9
17.147499 4.9734998 2.3080001 9
17.213499 4.9895 2.3199999 9
17.178499 4.9794998 2.312 9
17.0935 4.9755001 2.3069999 9
17.1695 4.9714999 2.3080001 9
17.1525 4.9775 2.3099999 9
17.085501 4.9695001 2.3039999 9
17.039499 4.9705 2.303 9
16.997499 4.9645 2.2980001 9
17.1045 4.9664998 2.303 9
16.967501 4.9664998 2.2980001 9
17.2045 4.9794998 2.313 9
17.033501 4.9685001 2.302 9
17.196501 4.9784999 2.312 9
17.2125 4.9695001 2.3080001 9
17.2215 4.9784999 2.313 9
17.2285 4.9734998 2.3099999 9
17.136499 4.9724998 2.3069999 9
17.0875 4.9724998 2.306 9
16.984501 4.9675002 2.3 9
17.179501 4.9724998 2.3080001 9
17.068501 4.9675002 2.302 9
17.1115 4.9805002 2.3110001 9
17.136499 4.9765 2.309 9
17.1705 4.9775 2.3110001 9
16.960501 4.9604998 2.2950001 9
17.133499 4.9675002 2.3039999 9
16.997499 4.9625001 2.2969999 9
17.157499 4.9784999 2.3110001 9
17.224501 4.9805002 2.3150001 9
17.227501 4.9695001 2.3080001 9
17.1775 4.9844999 2.316 9
17.085501 4.9645 2.3010001 9
17.199499 4.9805002 2.3139999 9
17.1465 4.9765 2.3099999 9
16.9755 4.9635 2.2969999 9
17.0315 4.9654999 2.299 9
17.1045 4.9794998 2.3099999 9
17.3085 4.9755001 2.302 9
17.3885 4.9784999 2.3199999 9
17.487499 4.9825001 2.3210001 9
17.4235 4.9794998 2.325 9
17.4725 4.9815001 2.329 9
17.4105 4.9794998 2.3210001 9
17.4065 4.9784999 2.325 9
17.435499 4.9794998 2.3340001 9
17.449499 4.9805002 2.332 9
17.4405 4.9805002 2.3269999 9
17.5135 4.9825001 2.3310001 9
17.3095 4.9755001 2.303 9
17.3915 4.9784999 2.313 9
17.3365 4.9765 2.309 9
17.4065 4.9784999 2.326 9
17.400499 4.9794998 2.316 9
17.5355 4.9835 2.325 9
