# .PCD v0.7 - Point Cloud Data file format
VERSION 0.7
FIELDS x y z label
SIZE 4 4 4 4
TYPE F F F U
COUNT 1 1 1 1
WIDTH 1764
HEIGHT 1
VIEWPOINT 0 0 0 1 0 0 0
POINTS 1764
DATA ascii
14.6225 2.1925001 2.5999999 9
14.6135 2.0625 2.598 9
14.6215 2.1485 2.6010001 9
14.6155 2.1034999 2.598 9
14.6155 2.1735001 2.5899999 9
14.6225 2.2674999 2.5910001 9
14.6175 2.0915 2.6010001 9
14.6105 2.1264999 2.5869999 9
14.6095 2.0725 2.5910001 9
14.6115 2.0845001 2.592 9
14.6205 2.1605 2.599 9
14.6105 2.0875001 2.5910001 9
14.6085 2.1285 2.5829999 9
14.6045 2.0955 2.5799999 9
14.6165 2.1155 2.5969999 9
14.6155 2.0595 2.6099999 9
14.6105 2.2045 2.625 9
14.6215 2.1665001 2.6029999 9
14.6205 2.1715 2.6040001 9
14.6205 2.2605 2.608 9
14.6145 2.1684999 2.6159999 9
14.6075 2.1385 2.6289999 9
14.6175 2.0925 2.6059999 9
14.6175 2.1264999 2.608 9
14.6165 2.0855 2.609 9
14.6125 2.1015 2.618 9
14.6195 2.1064999 2.6040001 9
14.6185 2.1264999 2.6059999 9
14.6145 2.1765001 2.6170001 9
14.6255 2.2744999 2.598 9
14.6205 2.1865001 2.605 9
14.6085 2.1635001 2.628 9
14.5955 2.1005001 2.651 9
14.6055 2.1055 2.632 9
14.5995 2.1224999 2.6440001 9
14.6085 2.1765001 2.6300001 9
14.6115 2.1845 2.6240001 9
14.6025 2.1364999 2.6400001 9
14.6235 2.2485001 2.602 9
14.6175 2.1224999 2.608 9
14.6155 2.1895001 2.615 9
14.6205 2.1554999 2.6029999 9
14.6195 2.2485001 2.6110001 9
14.6185 2.1954999 2.6099999 9
14.6085 2.1635001 2.6270001 9
14.6045 2.1554999 2.6370001 9
14.6145 2.0825 2.6129999 9
14.6065 2.0925 2.6289999 9
14.6195 2.2225001 2.608 9
14.6035 2.0825 2.6340001 9
14.6115 2.1145 2.6199999 9
14.6215 2.2105 2.605 9
14.6115 2.0964999 2.6199999 9
14.6025 2.1135001 2.6389999 9
14.6115 2.1015 2.6199999 9
14.6165 2.0615001 2.6070001 9
14.6045 2.1324999 2.635 9
14.6095 2.1055 2.6229999 9
14.6185 2.1435001 2.6070001 9
14.6055 2.1705 2.635 9
14.6065 2.0845001 2.628 9
14.6145 2.0945001 2.612 9
14.6045 2.0845001 2.631 9
14.6105 2.1224999 2.6229999 9
14.6145 2.1695001 2.6159999 9
14.6125 2.1695001 2.6199999 9
14.6095 2.0804999 2.6210001 9
14.6185 2.1784999 2.608 9
14.6085 2.1505001 2.628 9
14.6135 2.0994999 2.615 9
14.6045 2.1454999 2.6359999 9
14.6225 2.2375 2.6040001 9
14.6075 2.1735001 2.632 9
14.6025 2.1075001 2.638 9
14.6035 2.1594999 2.6370001 9
14.6095 2.0685 2.622 9
14.6125 2.2014999 2.622 9
14.6145 2.1665001 2.6159999 9
14.6235 2.2425001 2.6029999 9
14.6165 2.0764999 2.6070001 9
14.6235 2.2105 2.5999999 9
14.6225 2.2205 2.6029999 9
14.6175 2.1275001 2.6070001 9
14.6145 2.0704999 2.6110001 9
14.6195 2.1754999 2.6070001 9
14.6145 2.1815 2.618 9
14.6255 2.2934999 2.6029999 9
14.6115 2.1155 2.619 9
14.6205 2.1954999 2.605 9
14.6095 2.0704999 2.622 9
14.6125 2.0755 2.615 9
14.6125 2.2605 2.6240001 9
14.6245 2.2955 2.605 9
14.6095 2.2495 2.6289999 9
14.6195 2.2855 2.6129999 9
14.6135 2.2685001 2.622 9
14.6215 2.3015001 2.6110001 9
14.6185 2.2674999 2.6140001 9
14.6145 2.2605 2.6199999 9
14.6125 2.2444999 2.6229999 9
14.6125 2.2375 2.6229999 9
14.6025 2.2555001 2.6400001 9
14.6145 2.2525001 2.6199999 9
14.6135 2.2585001 2.6210001 9
14.6185 2.2815001 2.615 9
14.6115 2.2455001 2.625 9
14.6225 2.3074999 2.608 9
14.6055 2.2375 2.635 9
14.6165 2.2514999 2.6159999 9
14.6115 2.2225001 2.625 9
14.6205 2.2765 2.6099999 9
14.6105 2.2314999 2.6259999 9
14.6185 2.2774999 2.615 9
14.6235 2.6845 2.618 9
14.6195 2.9284999 2.605 9
14.6245 2.7595 2.6110001 9
14.6215 2.9655001 2.5999999 9
14.6155 3.0545001 2.5999999 9
14.6215 2.8645 2.6070001 9
14.6095 2.6875 2.6370001 9
14.6215 2.7985001 2.612 9
14.6125 2.7595 2.628 9
14.6145 2.6695001 2.632 9
14.6195 3.0155001 2.598 9
14.6025 2.7035 2.645 9
14.6275 2.8525 2.5999999 9
14.6205 2.9105 2.605 9
14.6205 3.1264999 2.5880001 9
14.6205 2.8994999 2.605 9
14.6255 2.8345001 2.6040001 9
14.6095 2.6645 2.638 9
14.6085 2.7114999 2.6370001 9
14.6255 2.7595 2.609 9
14.6225 2.7465 2.615 9
14.6125 2.7205 2.6300001 9
14.6145 2.7455001 2.625 9
14.6115 2.8215001 2.6240001 9
14.6215 2.7744999 2.6140001 9
14.6125 2.9445 2.6129999 9
14.6275 2.7265 2.609 9
14.6135 2.9425001 2.612 9
14.6185 2.6925001 2.625 9
14.6095 2.8555 2.6240001 9
14.6225 3.0195 2.5940001 9
14.6075 2.7435 2.635 9
14.6125 2.8555 2.6199999 9
14.6255 2.6945 2.6140001 9
14.6195 2.9395001 2.6040001 9
14.6065 2.7155001 2.6389999 9
14.6035 2.6995001 2.6440001 9
14.6165 2.9315 2.608 9
14.6085 2.8555 2.625 9
14.6105 2.7625 2.6300001 9
14.6145 2.7385001 2.6259999 9
14.6145 2.9554999 2.609 9
14.6055 2.6884999 2.6429999 9
14.6195 3.0685 2.595 9
14.6195 3.1535001 2.5880001 9
14.6235 2.8994999 2.6010001 9
14.6215 3.0174999 2.596 9
14.6245 2.8034999 2.608 9
14.6105 2.8275001 2.6240001 9
14.6235 2.9245 2.599 9
14.6305 2.7335 2.605 9
14.6075 2.8215001 2.6289999 9
14.6165 2.8855 2.612 9
14.6265 2.7395 2.6099999 9
14.6055 2.6784999 2.6440001 9
14.6125 2.7165 2.631 9
14.6295 2.6594999 2.612 9
14.6155 2.8085001 2.6199999 9
14.6075 2.8025 2.631 9
14.6095 2.9075 2.6199999 9
14.6205 3.0905001 2.5910001 9
14.6275 2.6945 2.612 9
14.6125 2.9744999 2.612 9
14.6065 2.7314999 2.638 9
14.6245 2.6554999 2.619 9
14.6215 2.9895 2.5969999 9
14.6045 2.7435 2.6400001 9
14.6035 2.6905 2.6440001 9
14.6145 2.8885 2.6140001 9
14.6195 2.8304999 2.6129999 9
14.6175 2.6545 2.6289999 9
14.6105 2.8905001 2.619 9
14.6185 2.9944999 2.6010001 9
14.6295 2.7625 2.6040001 9
14.6185 2.8045001 2.615 9
14.6115 2.7674999 2.628 9
14.6225 2.8685 2.6059999 9
14.6135 3.0085001 2.6070001 9
14.6245 2.6545 2.619 9
14.6165 2.6684999 2.6289999 9
14.6235 2.8425 2.6059999 9
14.6225 2.8555 2.6070001 9
14.6225 2.9035001 2.6029999 9
14.6225 2.8045001 2.6099999 9
14.6195 2.9484999 2.6029999 9
14.6185 3.1454999 2.589 9
14.6185 2.9435 2.605 9
14.6095 2.6845 2.6370001 9
14.6135 2.8515 2.6199999 9
14.6305 2.6494999 2.6110001 9
14.6225 2.7145 2.6170001 9
14.6195 2.7665 2.6170001 9
14.6115 2.7825 2.6270001 9
14.6165 2.6735001 2.628 9
14.6145 3.0474999 2.6029999 9
14.6185 3.0704999 2.596 9
14.6175 2.8334999 2.615 9
14.6145 2.8185 2.6199999 9
14.6145 3.0014999 2.6059999 9
14.6165 2.8434999 2.615 9
14.6245 2.7735 2.609 9
14.6105 2.9275 2.618 9
14.6255 2.6845 2.615 9
14.6225 2.8195 2.609 9
14.6205 3.0485001 2.5940001 9
14.6305 2.6925001 2.608 9
14.6155 2.8945 2.6129999 9
14.6185 3.1445 2.5899999 9
14.6235 2.8285 2.6070001 9
14.6135 2.7395 2.6270001 9
14.6155 2.9454999 2.609 9
14.6225 2.9525001 2.598 9
14.6145 2.6835001 2.6300001 9
14.6165 2.9315 2.609 9
14.6095 2.7375 2.6340001 9
14.6245 2.9495001 2.5969999 9
14.6185 3.0704999 2.595 9
14.6205 3.0715001 2.5929999 9
14.6165 3.0395 2.5999999 9
14.6285 2.6805 2.612 9
14.6105 2.7414999 2.631 9
14.6025 2.7145 2.6440001 9
14.6195 2.9295001 2.605 9
14.6255 2.6765001 2.6159999 9
14.6055 2.7084999 2.641 9
14.6285 2.7605 2.605 9
14.6075 2.7095001 2.638 9
14.6275 2.8045001 2.6029999 9
14.6225 2.8594999 2.6059999 9
14.6075 2.7945001 2.631 9
14.6235 2.7275 2.6140001 9
14.6185 2.7465 2.6199999 9
14.6135 2.8285 2.6199999 9
14.6255 2.7444999 2.6110001 9
14.6225 2.7955 2.6110001 9
14.6305 2.7075 2.6070001 9
14.6045 2.7574999 2.6389999 9
14.6105 2.9195001 2.618 9
14.6245 2.9205 2.599 9
14.6215 3.0664999 2.592 9
14.6305 2.6705 2.6099999 9
14.6045 2.7695 2.6370001 9
14.6305 2.6695001 2.609 9
14.6145 3.0905001 2.608 9
14.6085 3.0065 2.6470001 9
14.6095 2.9735 2.6289999 9
14.6075 2.8924999 2.638 9
14.6135 3.0565 2.6159999 9
14.6045 2.7744999 2.6400001 9
14.6075 2.8615 2.6270001 9
14.6055 2.8015001 2.6389999 9
14.6115 3.0945001 2.6329999 9
14.6115 3.1194999 2.6370001 9
14.6085 2.9584999 2.6389999 9
14.6115 3.1605 2.6440001 9
14.6155 3.1285 2.6110001 9
14.6065 2.9154999 2.648 9
14.6165 3.1735001 2.612 9
14.6135 3.1055 2.6210001 9
14.6045 2.7995 2.6459999 9
14.6145 3.1654999 2.625 9
14.6055 2.8445001 2.641 9
14.6175 3.1654999 2.602 9
14.6105 3.0975001 2.645 9
14.6175 3.1615 2.596 9
14.6155 3.1405001 2.608 9
14.6115 3.0144999 2.619 9
14.6095 2.9105 2.6210001 9
14.6185 3.1675 2.589 9
14.6115 2.9695001 2.6129999 9
14.6125 3.0964999 2.6270001 9
14.6065 2.8785 2.6389999 9
14.6105 2.9665 2.6210001 9
14.6085 2.9844999 2.642 9
14.6095 2.9965 2.635 9
14.6125 3.1224999 2.6329999 9
14.6055 2.8645 2.6459999 9
14.6135 3.1494999 2.6289999 9
14.6085 2.9094999 2.6259999 9
14.6085 2.9254999 2.628 9
14.6015 2.6945 2.6489999 9
14.6145 3.0645001 2.605 9
14.6065 2.8785 2.6440001 9
14.6085 2.9725001 2.641 9
14.6175 3.1795001 2.6029999 9
14.6075 2.9835 2.6459999 9
14.6095 3.0285001 2.642 9
14.6125 3.0695 2.6210001 9
14.6105 3.1094999 2.6459999 9
14.6115 3.1275001 2.641 9
14.6075 2.9265001 2.6440001 9
14.6085 2.9384999 2.6300001 9
14.6065 2.9145 2.645 9
14.6045 2.8145001 2.6429999 9
14.6095 3.0445001 2.642 9
14.6155 3.0925 2.6010001 9
14.6115 3.0685 2.6340001 9
14.6125 3.1364999 2.6340001 9
14.6135 3.1524999 2.632 9
14.6115 3.1075001 2.6370001 9
14.6085 2.9635 2.642 9
14.6075 2.9275 2.641 9
14.6175 3.1465001 2.596 9
14.6135 3.1324999 2.625 9
14.6055 2.7995 2.6389999 9
14.6045 2.7835 2.638 9
14.6185 3.1465001 2.5910001 9
14.6045 2.8045001 2.6459999 9
14.6045 2.8445001 2.648 9
14.6055 2.8724999 2.6459999 9
14.6075 2.9045 2.6340001 9
14.6065 2.8385 2.6340001 9
14.6025 2.7225001 2.6440001 9
14.6155 3.0755 2.599 9
14.6185 3.1654999 2.5929999 9
14.6095 3.0055001 2.6359999 9
14.6055 2.8625 2.648 9
14.6165 3.1735001 2.605 9
14.6095 2.9135001 2.6240001 9
14.6165 3.1665001 2.6040001 9
14.6125 3.1445 2.6370001 9
14.6135 3.1615 2.632 9
14.6075 2.9335001 2.638 9
14.6055 2.8685 2.6429999 9
14.6115 3.0645001 2.628 9
14.6065 2.8824999 2.638 9
14.6145 3.0585001 2.6029999 9
14.6095 2.9554999 2.631 9
14.6115 3.0144999 2.6229999 9
14.6095 2.9384999 2.625 9
14.6095 2.9215 2.625 9
14.6035 2.7865 2.648 9
14.6055 2.8175001 2.6400001 9
14.6145 3.0504999 2.605 9
14.6045 2.7865 2.638 9
14.6025 2.7205 2.648 9
14.6065 2.8775001 2.641 9
14.6015 2.6754999 2.6489999 9
14.6145 3.1695001 2.622 9
14.6105 3.0664999 2.6359999 9
14.6085 2.9505 2.632 9
14.6115 3.0864999 2.631 9
14.6125 3.1415 2.6329999 9
14.6085 3.0434999 2.648 9
14.6105 3.0895 2.6400001 9
14.6175 3.1355 2.5969999 9
14.6135 3.0755 2.6199999 9
14.6175 3.1515 2.5969999 9
14.6125 3.1285 2.635 9
14.6115 3.1424999 2.6440001 9
14.6055 2.8965001 2.648 9
14.6125 2.9865 2.612 9
14.6065 2.9205 2.648 9
14.6145 3.0425 2.605 9
14.6125 3.0355 2.6170001 9
14.6095 3.0374999 2.6389999 9
14.6065 2.8415 2.6340001 9
14.6025 2.7095001 2.645 9
14.6085 3.0074999 2.6429999 9
14.6125 3.1724999 2.638 9
14.6105 2.9714999 2.6259999 9
14.6075 2.9675 2.6470001 9
14.6155 3.1245 2.6070001 9
14.6115 3.1675 2.645 9
14.6035 2.7525001 2.641 9
14.6145 3.0725 2.605 9
14.6055 2.8115001 2.6389999 9
14.6065 2.8255 2.6340001 9
14.6105 3.0135 2.6259999 9
14.6025 2.7135 2.6459999 9
14.6175 3.1665001 2.598 9
14.6145 3.0625 2.609 9
14.6105 3.0885 2.6400001 9
14.6075 2.9245 2.6370001 9
14.6125 3.1315 2.638 9
14.6105 3.0645001 2.641 9
14.6115 3.0185001 2.6240001 9
14.6125 3.1705 2.6429999 9
14.6105 3.0144999 2.6340001 9
14.6055 2.7965 2.635 9
14.6085 2.9825001 2.638 9
14.6115 3.0725 2.628 9
14.6095 2.9284999 2.6259999 9
14.6125 3.0395 2.6140001 9
14.6105 3.0055001 2.628 9
14.6125 3.1275001 2.632 9
14.6145 3.0734999 2.608 9
14.6165 3.1315 2.5999999 9
14.6035 2.7725 2.6440001 9
14.6165 3.1765001 2.6110001 9
14.6135 3.0704999 2.612 9
14.6085 2.9115 2.6270001 9
14.6095 2.9254999 2.6259999 9
14.6045 2.7744999 2.638 9
14.6115 3.1594999 2.6440001 9
14.6095 2.9675 2.632 9
14.6135 3.1125 2.6240001 9
14.6145 3.1224999 2.6170001 9
14.6075 2.9735 2.648 9
14.6135 3.1185 2.6270001 9
14.6115 3.0304999 2.622 9
14.6175 3.1705 2.6029999 9
14.6175 3.1524999 2.5969999 9
14.6165 3.3364999 2.5880001 9
14.6155 3.4705 2.6059999 9
14.6135 3.4645 2.589 9
14.6135 3.5344999 2.6059999 9
14.6135 3.5174999 2.6040001 9
14.6135 3.5875001 2.6159999 9
14.6135 3.5174999 2.6010001 9
14.6165 3.3115001 2.5880001 9
14.6135 3.5734999 2.612 9
14.6175 3.3445001 2.6040001 9
14.6095 3.5725 2.585 9
14.6155 3.5304999 2.6210001 9
14.6125 3.5374999 2.5999999 9
14.6145 3.5344999 2.6129999 9
14.6115 3.5905001 2.602 9
14.6125 3.4985001 2.592 9
14.6145 3.5174999 2.612 9
14.6185 3.3145001 2.5999999 9
14.6145 3.3965001 2.585 9
14.6125 3.4645 2.5869999 9
14.6145 3.6585 2.6370001 9
14.6165 3.3505001 2.5929999 9
14.6175 3.2685001 2.589 9
14.6155 3.5715001 2.6300001 9
14.6145 3.5114999 2.612 9
14.6115 3.6155 2.6040001 9
14.6145 3.5014999 2.608 9
14.6135 3.5125 2.5999999 9
14.6155 3.4875 2.615 9
14.6145 3.4584999 2.6010001 9
14.6135 3.6215 2.6240001 9
14.6125 3.5445001 2.5999999 9
14.6125 3.4614999 2.585 9
14.6135 3.6305001 2.6210001 9
14.6155 3.4605 2.609 9
14.6145 3.5434999 2.6140001 9
14.6125 3.4525001 2.586 9
14.6155 3.4914999 2.612 9
14.6145 3.5415001 2.615 9
14.6135 3.4855001 2.5929999 9
14.6165 3.4414999 2.6140001 9
14.6155 3.4675 2.6070001 9
14.6165 3.4414999 2.6099999 9
14.6105 3.5685 2.5899999 9
14.6095 3.5625 2.5810001 9
14.6105 3.6264999 2.5999999 9
14.6165 3.3434999 2.5940001 9
14.6115 3.5574999 2.5940001 9
14.6125 3.5025001 2.5899999 9
14.6115 3.5114999 2.5840001 9
14.6135 3.6055 2.618 9
14.6155 3.5985 2.6329999 9
14.6155 3.4714999 2.608 9
14.6135 3.5795 2.6140001 9
14.6165 3.4955001 2.6199999 9
14.6085 3.6045001 2.5829999 9
14.6155 3.3935001 2.598 9
14.6085 3.6034999 2.585 9
14.6155 3.4425001 2.6059999 9
14.6135 3.5725 2.615 9
14.6175 3.4245 2.6129999 9
14.6155 3.4035001 2.592 9
14.6135 3.5625 2.6110001 9
14.6145 3.3805001 2.585 9
14.6125 3.5285001 2.599 9
14.6135 3.5095 2.6029999 9
14.6125 3.6345 2.619 9
14.6135 3.5574999 2.6129999 9
14.6095 3.5905001 2.586 9
14.6165 3.3215001 2.589 9
14.6165 3.3095 2.5880001 9
14.6145 3.6075001 2.625 9
14.6175 3.2985001 2.5940001 9
14.6125 3.6405001 2.622 9
14.6175 3.3705001 2.6029999 9
14.6145 3.5325 2.6099999 9
14.6175 3.3304999 2.595 9
14.6175 3.3845 2.608 9
14.6135 3.5035 2.6010001 9
14.6105 3.6294999 2.6040001 9
14.6135 3.5244999 2.602 9
14.6155 3.4505 2.605 9
14.6165 3.4135001 2.608 9
14.6125 3.6285 2.6170001 9
14.6115 3.5025001 2.5880001 9
14.6185 3.2704999 2.592 9
14.6185 3.2214999 2.585 9
14.6145 3.3675001 2.5840001 9
14.6155 3.5144999 2.6210001 9
14.6165 3.4215 2.605 9
14.6155 3.3805001 2.5929999 9
14.6135 3.4154999 2.5840001 9
14.6105 3.6064999 2.5929999 9
14.6175 3.3494999 2.6040001 9
14.6135 3.4744999 2.5969999 9
14.6115 3.5374999 2.5940001 9
14.6125 3.5725 2.6070001 9
14.6165 3.5295 2.6270001 9
14.6145 3.4985001 2.605 9
14.6165 3.5085001 2.625 9
14.6185 3.2795 2.5969999 9
14.6115 3.5065 2.586 9
14.6165 3.4935 2.6210001 9
14.6145 3.5244999 2.6110001 9
14.6145 3.5845001 2.6229999 9
14.6175 3.2915001 2.5899999 9
14.6175 3.4065001 2.608 9
14.6155 3.4714999 2.608 9
14.6125 3.5704999 2.6040001 9
14.6185 3.2995 2.599 9
14.6105 3.5485001 2.585 9
14.6145 3.3694999 2.5840001 9
14.6135 3.4384999 2.586 9
14.6125 3.4625001 2.5829999 9
14.6155 3.3845 2.5910001 9
14.6115 3.4895 2.585 9
14.6145 3.6594999 2.638 9
14.6135 3.4835 2.599 9
14.6185 3.3405001 2.6040001 9
14.6145 3.5125 2.6059999 9
14.6185 3.2284999 2.5869999 9
14.6135 3.6094999 2.6210001 9
14.6185 3.3134999 2.598 9
14.6185 3.2544999 2.5869999 9
14.6175 3.3045001 2.592 9
14.6165 3.3445001 2.5910001 9
14.6145 3.6535001 2.6340001 9
14.6125 3.5095 2.5910001 9
14.6105 3.6315 2.6040001 9
14.6185 3.3315001 2.602 9
14.6165 3.3954999 2.6029999 9
14.6175 3.4045 2.6110001 9
14.6135 3.6045001 2.619 9
14.6135 3.5374999 2.6059999 9
14.6165 3.3445001 2.596 9
14.6135 3.4124999 2.5840001 9
14.6135 3.5855 2.619 9
14.6175 3.3385 2.598 9
14.6125 3.5325 2.6010001 9
14.6125 3.5225 2.599 9
14.6125 3.5285001 2.599 9
14.6155 3.5344999 2.618 9
14.6095 3.6175001 2.5880001 9
14.6175 3.3455 2.599 9
14.6165 3.4944999 2.619 9
14.6105 3.5645001 2.5880001 9
14.6135 3.4275 2.5829999 9
14.6145 3.4614999 2.6029999 9
14.6155 3.5215001 2.6359999 9
14.6165 3.5035 2.6270001 9
14.6165 3.5885 2.6370001 9
14.6125 3.2485001 2.6470001 9
14.6145 3.4375 2.6389999 9
14.6175 3.3954999 2.615 9
14.6135 3.4445 2.6470001 9
14.6145 3.3034999 2.631 9
14.6165 3.4635 2.6259999 9
14.6155 3.5065 2.6370001 9
14.6165 3.4765 2.6300001 9
14.6155 3.4645 2.6370001 9
14.6155 3.3115001 2.6240001 9
14.6145 3.3935001 2.6370001 9
14.6155 3.4635 2.6370001 9
14.6135 3.2685001 2.6370001 9
14.6175 3.4295001 2.619 9
14.6175 3.2365 2.6070001 9
14.6155 3.5745001 2.6370001 9
14.6155 3.2715001 2.6240001 9
14.6125 3.2045 2.642 9
14.6165 3.3594999 2.622 9
14.6145 3.3225 2.631 9
14.6185 3.2155001 2.596 9
14.6155 3.5055001 2.632 9
14.6155 3.3915 2.6300001 9
14.6155 3.5315001 2.641 9
14.6155 3.3945 2.6270001 9
14.6155 3.4655001 2.6359999 9
14.6155 3.3855 2.6259999 9
14.6165 3.3095 2.6129999 9
14.6165 3.2595 2.618 9
14.6155 3.3385 2.6289999 9
14.6155 3.4855001 2.6340001 9
14.6165 3.5465 2.632 9
14.6155 3.3074999 2.6210001 9
14.6145 3.3494999 2.635 9
14.6155 3.4235001 2.628 9
14.6165 3.3215001 2.6199999 9
14.6145 3.2595 2.6329999 9
14.6155 3.2105 2.6199999 9
14.6155 3.5934999 2.641 9
14.6135 3.3764999 2.6429999 9
14.6125 3.3315001 2.6470001 9
14.6145 3.4505 2.6440001 9
14.6175 3.2355001 2.608 9
14.6155 3.3875 2.6300001 9
14.6145 3.3304999 2.631 9
14.6175 3.2725 2.6059999 9
14.6175 3.3255 2.6140001 9
14.6125 3.2765 2.6440001 9
14.6175 3.2765 2.609 9
14.6135 3.1935 2.638 9
14.6185 3.3464999 2.6059999 9
14.6155 3.5235 2.6400001 9
14.6145 3.4145 2.6429999 9
14.6175 3.4735 2.622 9
14.6125 3.2305 2.6429999 9
14.6165 3.2105 2.612 9
14.6135 3.3705001 2.6470001 9
14.6165 3.2785001 2.6170001 9
14.6155 3.2184999 2.6210001 9
14.6145 3.3864999 2.6389999 9
14.6155 3.4895 2.632 9
14.6175 3.2995 2.6059999 9
14.6165 3.4345 2.6259999 9
14.6165 3.3945 2.6199999 9
14.6145 3.3975 2.638 9
14.6165 3.3845 2.6240001 9
14.6155 3.3764999 2.631 9
14.6135 3.3275001 2.642 9
14.6155 3.4684999 2.632 9
14.6155 3.4784999 2.6359999 9
14.6165 3.2225001 2.609 9
14.6155 3.2035 2.6210001 9
14.6155 3.4684999 2.638 9
14.6135 3.1984999 2.6359999 9
14.6135 3.3735001 2.6459999 9
14.6155 3.2874999 2.6229999 9
14.6165 3.2995 2.618 9
14.6135 3.1865001 2.631 9
14.6185 3.2155001 2.592 9
14.6145 3.3954999 2.6370001 9
14.6135 3.2635 2.6389999 9
14.6175 3.2045 2.6040001 9
14.6145 3.3675001 2.6340001 9
14.6165 3.4085 2.6259999 9
14.6135 3.3195 2.645 9
14.6145 3.4784999 2.6429999 9
14.6155 3.2405 2.6199999 9
14.6135 3.2804999 2.6429999 9
14.6155 3.3155 2.628 9
14.6155 3.6364999 2.6440001 9
14.6155 3.2105 2.6210001 9
14.6125 3.2744999 2.645 9
14.6175 3.4454999 2.619 9
14.6155 3.4384999 2.6289999 9
14.6145 3.2514999 2.6329999 9
14.6155 3.1845 2.6159999 9
14.6155 3.4224999 2.628 9
14.6135 3.2105 2.6359999 9
14.6155 3.6145 2.645 9
14.6125 3.2414999 2.6459999 9
14.6145 3.3034999 2.6329999 9
14.6145 3.4514999 2.6429999 9
14.6145 3.5295 2.6470001 9
14.6155 3.5055001 2.638 9
14.6165 3.2565 2.6159999 9
14.6135 3.2804999 2.6400001 9
14.6155 3.4235001 2.635 9
14.6135 3.3885 2.6429999 9
14.6165 3.4725001 2.6289999 9
14.6165 3.5085001 2.631 9
14.6125 3.1905 2.642 9
14.6145 3.1845 2.6259999 9
14.6135 3.2145 2.632 9
14.6155 3.4075 2.628 9
14.6155 3.4735 2.631 9
14.6165 3.2495 2.6159999 9
14.6165 3.3004999 2.618 9
14.6175 3.3625 2.6099999 9
14.6185 3.2565 2.5940001 9
14.6165 3.3155 2.6159999 9
14.6135 3.2385001 2.638 9
14.6135 3.2744999 2.638 9
14.6155 3.2425001 2.618 9
14.6145 3.3055 2.632 9
14.6145 3.2985001 2.635 9
14.6155 3.4705 2.638 9
14.6165 3.3515 2.6170001 9
14.6145 3.2495 2.6300001 9
14.6185 3.1984999 2.5899999 9
14.6145 3.4614999 2.6400001 9
14.6185 3.1995001 2.592 9
14.6175 3.2835 2.6029999 9
14.6155 3.3724999 2.631 9
14.6155 3.2644999 2.6199999 9
14.6185 3.2505 2.5999999 9
14.6165 3.3485 2.6199999 9
14.6195 3.2125001 2.589 9
14.6145 3.3594999 2.632 9
14.6125 3.2874999 2.6470001 9
14.6135 3.2715001 2.642 9
14.6165 3.3745 2.618 9
14.6155 3.4395001 2.632 9
14.6135 3.3245001 2.638 9
14.6155 3.4245 2.6340001 9
14.6125 3.2685001 2.6440001 9
14.6155 3.4714999 2.632 9
14.6135 3.3975 2.6429999 9
14.6155 3.5125 2.638 9
14.6165 3.2095001 2.6110001 9
14.6155 3.3635001 2.6240001 9
14.6145 3.5675001 2.6459999 9
14.6155 3.5344999 2.6400001 9
14.6065 3.8255 2.596 9
14.6065 3.8245001 2.5899999 9
14.6085 3.6624999 2.5929999 9
14.6125 3.6895001 2.6259999 9
14.6065 3.8835001 2.5969999 9
14.6075 3.8395 2.6010001 9
14.6045 3.8325 2.5799999 9
14.6075 3.8295 2.6040001 9
14.6125 3.6585 2.618 9
14.6035 3.9305 2.5799999 9
14.6075 3.6995001 2.5880001 9
14.6125 3.7244999 2.632 9
14.6035 3.9024999 2.575 9
14.6085 3.7804999 2.6070001 9
14.6055 3.8195 2.582 9
14.6035 3.9135001 2.5829999 9
14.6065 3.7525001 2.5799999 9
14.6085 3.6975 2.5940001 9
14.6095 3.6865001 2.6010001 9
14.6085 3.8134999 2.6040001 9
14.6075 3.7065001 2.5829999 9
14.6075 3.6835001 2.586 9
14.6035 3.9224999 2.5769999 9
14.6105 3.6364999 2.5999999 9
14.6105 3.7695 2.6170001 9
14.6085 3.7214999 2.595 9
14.6075 3.7595 2.595 9
14.6025 3.9284999 2.575 9
14.6045 3.8655 2.5810001 9
14.6075 3.6935 2.585 9
14.6075 3.7955 2.5969999 9
14.6075 3.7095001 2.5840001 9
14.6145 3.6845 2.6389999 9
14.6065 3.7145 2.5799999 9
14.6075 3.7395 2.5929999 9
14.6035 3.9335001 2.585 9
14.6085 3.7614999 2.5999999 9
14.6085 3.6884999 2.595 9
14.6115 3.7365 2.6199999 9
14.6105 3.7344999 2.615 9
14.6145 3.6884999 2.6400001 9
14.6115 3.6585 2.6159999 9
14.6095 3.6565001 2.5969999 9
14.6115 3.7505 2.6210001 9
14.6065 3.8475001 2.598 9
14.6085 3.7205 2.5999999 9
14.6035 3.8775001 2.575 9
14.6115 3.7205 2.6210001 9
14.6075 3.7945001 2.6010001 9
14.6075 3.7355001 2.5929999 9
14.6045 3.8994999 2.582 9
14.6145 3.6754999 2.638 9
14.6095 3.7915001 2.6140001 9
14.6125 3.6594999 2.622 9
14.6075 3.7235 2.5880001 9
14.6125 3.7005 2.625 9
14.6105 3.7405 2.6170001 9
14.6095 3.6754999 2.599 9
14.6075 3.8164999 2.598 9
14.6115 3.7165 2.6229999 9
14.6115 3.6465001 2.6099999 9
14.6085 3.6364999 2.5880001 9
14.6075 3.6795001 2.5810001 9
14.6115 3.7405 2.6210001 9
14.6065 3.8125 2.5910001 9
14.6075 3.7425001 2.5929999 9
14.6035 3.8775001 2.5769999 9
14.6125 3.6965001 2.6240001 9
14.6065 3.8605001 2.598 9
14.6125 3.7095001 2.6240001 9
14.6075 3.8364999 2.602 9
14.6075 3.6164999 2.579 9
14.6075 3.7435 2.5880001 9
14.6055 3.7735 2.5810001 9
14.6075 3.6935 2.582 9
14.6075 3.7825 2.599 9
14.6115 3.6684999 2.6159999 9
14.6075 3.8185 2.5969999 9
14.6065 3.7735 2.5829999 9
14.6045 3.8635001 2.5829999 9
14.6055 3.8924999 2.5929999 9
14.6085 3.6745 2.592 9
14.6125 3.7265 2.6289999 9
14.6065 3.7904999 2.585 9
14.6105 3.7835 2.6199999 9
14.6055 3.8885 2.5910001 9
14.6105 3.6784999 2.6070001 9
14.6105 3.6654999 2.608 9
14.6135 3.6745 2.6329999 9
14.6075 3.7065001 2.5899999 9
14.6105 3.7145 2.608 9
14.6115 3.6845 2.615 9
14.6055 3.8464999 2.5899999 9
14.6105 3.6675 2.605 9
14.6085 3.7934999 2.6059999 9
14.6095 3.7114999 2.605 9
14.6145 3.6665001 2.6400001 9
14.6135 3.6824999 2.6340001 9
14.6115 3.6554999 2.612 9
14.6055 3.8245001 2.5840001 9
14.6085 3.6255 2.5840001 9
14.6045 3.8334999 2.5810001 9
14.6065 3.7595 2.5869999 9
14.6135 3.6724999 2.6289999 9
14.6095 3.7585001 2.609 9
14.6045 3.9124999 2.5899999 9
14.6085 3.6535001 2.5869999 9
14.6135 3.6945 2.6370001 9
14.6115 3.6524999 2.615 9
14.6105 3.7314999 2.6170001 9
14.6095 3.8025 2.6129999 9
14.6035 3.8715 2.5769999 9
14.6115 3.7314999 2.622 9
14.6095 3.8034999 2.615 9
14.6085 3.6624999 2.589 9
14.6075 3.8405001 2.599 9
14.6075 3.7495 2.5929999 9
14.6045 3.8134999 2.5769999 9
14.6085 3.8225 2.6110001 9
14.6085 3.6364999 2.589 9
14.6035 3.8975 2.575 9
14.6085 3.6705 2.589 9
14.6085 3.6485 2.586 9
14.6025 3.9354999 2.5739999 9
14.6065 3.7755001 2.5899999 9
14.6055 3.7744999 2.5810001 9
14.6105 3.6984999 2.6099999 9
14.6115 3.6705 2.612 9
14.6085 3.7505 2.6029999 9
14.6085 3.6235001 2.5880001 9
14.6055 3.7514999 2.579 9
14.6095 3.6454999 2.595 9
14.6115 3.9254999 2.6210001 9
14.6075 3.9465001 2.605 9
14.6125 3.8315001 2.628 9
14.6125 3.8805001 2.628 9
14.6135 3.8445001 2.6359999 9
14.6105 3.8134999 2.619 9
14.6145 3.7715001 2.641 9
14.6115 3.8764999 2.6229999 9
14.6075 3.9414999 2.6029999 9
14.6155 3.6765001 2.6459999 9
14.6085 3.8655 2.608 9
14.6155 3.8845 2.6429999 9
14.6085 3.8534999 2.6110001 9
14.6125 3.7795 2.632 9
14.6155 3.7904999 2.6440001 9
14.6135 3.7965 2.635 9
14.6075 3.8724999 2.6029999 9
14.6125 3.8425 2.6270001 9
14.6095 3.8594999 2.6140001 9
14.6085 3.8775001 2.6070001 9
14.6085 3.8885 2.609 9
14.6095 3.9245 2.6140001 9
14.6125 3.7865 2.632 9
14.6125 3.8405001 2.6270001 9
14.6025 3.9735 2.5769999 9
14.6055 3.9414999 2.595 9
14.6085 3.8705001 2.6070001 9
14.6105 3.8915 2.6199999 9
14.6095 3.9205 2.6140001 9
14.6055 3.9395001 2.5910001 9
14.6095 3.9324999 2.6099999 9
14.6085 3.8715 2.6070001 9
14.6105 3.9094999 2.6159999 9
14.6095 3.8794999 2.6129999 9
14.6045 3.9395001 2.586 9
14.6095 3.8234999 2.6159999 9
14.6055 3.9295001 2.595 9
14.6145 3.7474999 2.6400001 9
14.6075 3.9495001 2.602 9
14.6155 3.8225 2.6429999 9
14.6075 3.8675001 2.605 9
14.6085 3.8575001 2.6070001 9
14.6115 3.8004999 2.6240001 9
14.6135 3.8304999 2.635 9
14.6115 3.8255 2.6240001 9
14.6075 3.8635001 2.6059999 9
14.6085 3.9384999 2.605 9
14.6145 3.8034999 2.641 9
14.6055 3.9335001 2.5940001 9
14.6145 3.8575001 2.6370001 9
14.6035 3.9484999 2.585 9
14.6155 3.7105 2.6440001 9
14.6145 3.8864999 2.6400001 9
14.6135 3.7485001 2.6370001 9
14.6095 3.8735001 2.615 9
14.6145 3.8345001 2.638 9
14.6135 3.8735001 2.632 9
14.6115 3.7974999 2.6240001 9
14.6055 3.9184999 2.592 9
14.6155 3.7915001 2.642 9
14.6075 3.9205 2.6040001 9
14.6145 3.7455001 2.641 9
14.6115 3.9165001 2.625 9
14.6145 3.8575001 2.6389999 9
14.6065 3.9545 2.599 9
14.6105 3.7995 2.618 9
14.6115 3.8875 2.6240001 9
14.6145 3.8835001 2.6370001 9
14.6155 3.6905 2.6459999 9
14.6125 3.8824999 2.6289999 9
14.6105 3.8534999 2.6199999 9
14.6105 3.7955 2.619 9
14.6035 3.9755001 2.5829999 9
14.6135 3.8455 2.635 9
14.6145 3.6954999 2.642 9
14.6105 3.9284999 2.6159999 9
14.6115 3.9035001 2.622 9
14.6085 3.9075 2.609 9
14.6145 3.8225 2.638 9
14.6055 4.0555 2.5910001 9
14.6125 4.1455002 2.628 9
14.6125 4.1114998 2.6270001 9
14.6075 4.1304998 2.602 9
14.6085 3.9714999 2.6059999 9
14.6085 3.9484999 2.609 9
14.6115 4.2484999 2.6229999 9
14.6115 4.2575002 2.6199999 9
14.6085 3.9985001 2.6099999 9
14.6095 4.0565 2.6099999 9
14.6125 4.2855 2.6270001 9
14.6135 4.1294999 2.632 9
14.6095 4.0114999 2.612 9
14.6095 4.0574999 2.6099999 9
14.6115 4.1785002 2.6199999 9
14.6055 4.0895 2.592 9
14.6135 4.1285 2.632 9
14.6135 4.0955 2.631 9
14.6125 4.1314998 2.628 9
14.6125 4.0704999 2.6289999 9
14.6065 4.1085 2.596 9
14.6045 4.0335002 2.5899999 9
14.6095 3.9635 2.6099999 9
14.6065 4.1624999 2.599 9
14.6115 4.1515002 2.6210001 9
14.6125 4.1494999 2.6259999 9
14.6055 4.0135002 2.592 9
14.6135 4.0964999 2.631 9
14.6085 3.9655001 2.6070001 9
14.6095 4.1085 2.6140001 9
14.6125 4.0015001 2.628 9
14.6065 3.9614999 2.596 9
14.6075 4.1684999 2.5999999 9
14.6085 3.9514999 2.609 9
14.6105 4.2445002 2.615 9
14.6045 4.0345001 2.589 9
14.6095 4.0995002 2.615 9
14.6075 3.9575 2.6010001 9
14.6105 4.0425 2.615 9
14.6105 3.9484999 2.615 9
14.6065 4.0704999 2.595 9
14.6125 4.0475001 2.6259999 9
14.6115 4.3065 2.6229999 9
14.6065 3.9914999 2.5969999 9
14.6095 4.1645002 2.6110001 9
14.6115 4.2965002 2.6210001 9
14.6155 3.9565001 2.641 9
14.6075 4.0215001 2.6040001 9
14.6155 3.9135001 2.641 9
14.6065 3.9844999 2.598 9
14.6095 4.0755 2.6110001 9
14.6135 3.9735 2.631 9
14.6115 4.1564999 2.6210001 9
14.6065 4.0784998 2.599 9
14.6085 4.0205002 2.609 9
14.6145 4.0044999 2.6389999 9
14.6115 4.1395001 2.6229999 9
14.6095 4.2614999 2.6140001 9
14.6115 4.2925 2.6229999 9
14.6145 3.9054999 2.635 9
14.6115 4.0444999 2.625 9
14.6095 4.1075001 2.612 9
14.6075 4.0155001 2.6040001 9
14.6095 4.2034998 2.6129999 9
14.6045 4.0535002 2.5880001 9
14.6085 3.9495001 2.609 9
14.6085 4.0945001 2.605 9
14.6105 4.0695 2.618 9
14.6095 4.0885 2.6099999 9
14.6085 4.1415 2.6059999 9
14.6125 4.3255 2.625 9
14.6025 4.0345001 2.579 9
14.6115 3.9725001 2.6229999 9
14.6075 4.0495 2.6010001 9
14.6135 4.0784998 2.6329999 9
14.6145 3.9035001 2.6389999 9
14.6135 4.0015001 2.631 9
14.6125 4.1704998 2.6289999 9
14.6045 4.0795002 2.586 9
14.6145 3.9475 2.638 9
14.6075 3.9545 2.6040001 9
14.6055 3.9885001 2.5940001 9
14.6075 4.1595001 2.6029999 9
14.6085 4.0395002 2.6070001 9
14.6105 4.0254998 2.6159999 9
14.6125 4.1785002 2.6270001 9
14.6105 3.9905 2.618 9
14.6095 3.9554999 2.6110001 9
14.6095 3.9405 2.6110001 9
14.6055 3.9825001 2.5940001 9
14.6115 4.1044998 2.6210001 9
14.6145 3.9714999 2.6389999 9
14.6135 4.1764998 2.6329999 9
14.6085 4.1525002 2.605 9
14.6115 4.2205 2.6240001 9
14.6035 4.0044999 2.5799999 9
14.6065 4.0365 2.599 9
14.6125 4.1564999 2.6289999 9
14.6075 4.0025001 2.6040001 9
14.6085 4.0895 2.608 9
14.6115 4.2535 2.6229999 9
14.6045 4.0695 2.5869999 9
14.6115 4.1224999 2.622 9
14.6035 3.9974999 2.5829999 9
14.6085 4.0514998 2.608 9
14.6095 4.0974998 2.612 9
14.6145 3.9184999 2.6400001 9
14.6075 3.9625001 2.6029999 9
14.6115 4.2535 2.622 9
14.6105 4.2944999 2.618 9
14.6105 4.0815001 2.619 9
14.6045 4.0615001 2.586 9
14.6085 4.0054998 2.608 9
14.6085 4.1475 2.6059999 9
14.6115 4.1774998 2.6240001 9
14.6065 3.9974999 2.599 9
14.6065 4.1424999 2.595 9
14.6065 4.0405002 2.599 9
14.6075 4.0044999 2.5999999 9
14.6085 4.2315001 2.609 9
14.6105 4.0774999 2.6199999 9
14.6125 3.9254999 2.6300001 9
14.6045 4.0514998 2.586 9
14.6075 4.1925001 2.602 9
14.6075 4.1174998 2.602 9
14.6025 4.0085001 2.579 9
14.6045 4.0415001 2.5869999 9
14.6085 4.0495 2.608 9
14.6125 3.9875 2.6289999 9
14.6045 4.0085001 2.5869999 9
14.6095 4.2564998 2.6110001 9
14.6145 3.9665 2.635 9
14.6075 4.0365 2.5999999 9
14.6105 4.0035 2.6170001 9
14.6095 4.0625 2.6110001 9
14.6065 4.0984998 2.596 9
14.6105 3.9395001 2.6170001 9
14.6085 4.1605 2.6070001 9
14.6105 3.9354999 2.619 9
14.6095 4.0054998 2.6129999 9
14.6105 4.1135001 2.619 9
14.6105 4.1925001 2.619 9
14.6025 4.0345001 2.579 9
14.6135 4.1314998 2.632 9
14.6135 4.0444999 2.632 9
14.6115 4.1455002 2.6210001 9
14.6075 4.0865002 2.6040001 9
14.6065 3.9835 2.595 9
14.6085 4.1945 2.6070001 9
14.6135 4.0444999 2.632 9
14.6135 4.1694999 2.6329999 9
14.6125 4.2554998 2.6289999 9
14.6105 4.1224999 2.618 9
14.6155 3.9165001 2.642 9
14.6105 4.1285 2.618 9
14.6145 3.9375 2.6389999 9
14.6145 4.0984998 2.6359999 9
14.6065 4.0725002 2.599 9
14.6145 3.9215 2.6370001 9
14.6065 4.1355 2.596 9
14.6135 4.0704999 2.6340001 9
14.6115 3.9844999 2.622 9
14.6105 4.0774999 2.618 9
14.6145 3.9755001 2.6400001 9
14.6095 4.2034998 2.6140001 9
14.6125 4.2364998 2.625 9
14.6095 4.2175002 2.612 9
14.6105 4.2284999 2.615 9
14.6125 4.2354999 2.6289999 9
14.6075 4.4204998 2.5999999 9
14.6115 4.3464999 2.6210001 9
14.6035 4.0795002 2.5829999 9
14.6105 4.4235001 2.6170001 9
14.6075 4.2104998 2.602 9
14.6055 4.2735 2.5910001 9
14.6085 4.4745002 2.605 9
14.6065 4.4425001 2.595 9
14.6045 4.1455002 2.585 9
14.6075 4.2325001 2.6029999 9
14.6075 4.4924998 2.602 9
14.6095 4.2754998 2.609 9
14.6115 4.3975 2.6199999 9
14.6075 4.5295 2.6010001 9
14.6045 4.1795001 2.5880001 9
14.6055 4.1255002 2.5899999 9
14.6085 4.3775001 2.605 9
14.6085 4.3144999 2.608 9
14.6085 4.5335002 2.602 9
14.6085 4.3154998 2.605 9
14.6105 4.3315001 2.619 9
14.6045 4.2135 2.586 9
14.6015 4.0105 2.573 9
14.6095 4.3985 2.609 9
14.6085 4.2435002 2.605 9
14.6085 4.3065 2.6070001 9
14.6055 4.3235002 2.5910001 9
14.6045 4.1574998 2.5880001 9
14.6065 4.3755002 2.5940001 9
14.6095 4.2934999 2.612 9
14.6045 4.2325001 2.586 9
14.6065 4.3375001 2.596 9
14.6045 4.2455001 2.5869999 9
14.6055 4.2024999 2.5929999 9
14.6095 4.3115001 2.6129999 9
14.6095 4.4584999 2.6110001 9
14.6095 4.4285002 2.6110001 9
14.6055 4.3565001 2.592 9
14.6065 4.4085002 2.595 9
14.6045 4.2445002 2.586 9
14.6095 4.4854999 2.608 9
14.6025 4.1065001 2.579 9
14.6085 4.4625001 2.605 9
14.6055 4.3245001 2.5929999 9
14.6085 4.3534999 2.608 9
14.6125 4.3645 2.6240001 9
14.6085 4.4765 2.6029999 9
14.6045 4.2845001 2.5880001 9
14.6115 4.3515 2.6210001 9
14.6045 4.2465 2.5869999 9
14.6085 4.4334998 2.605 9
14.6075 4.4295001 2.599 9
14.6075 4.4714999 2.5999999 9
14.6095 4.4924998 2.608 9
14.6095 4.5155001 2.6099999 9
14.6065 4.2855 2.5969999 9
14.6115 4.3565001 2.6229999 9
14.6095 4.3474998 2.6110001 9
14.6085 4.4965 2.6059999 9
14.6115 4.4454999 2.6199999 9
14.6065 4.3065 2.5929999 9
14.6075 4.3994999 2.6010001 9
14.6105 4.3235002 2.6159999 9
14.6035 4.0535002 2.5799999 9
14.6085 4.4974999 2.6029999 9
14.6055 4.1745 2.589 9
14.6045 4.1774998 2.5869999 9
14.6105 4.3864999 2.6159999 9
14.6055 4.1834998 2.592 9
14.6035 4.1715002 2.5829999 9
14.6065 4.2855 2.5969999 9
14.6045 4.1634998 2.5840001 9
14.6025 4.0945001 2.579 9
14.6095 4.4015002 2.612 9
14.6035 4.1545 2.579 9
14.6075 4.5605001 2.5999999 9
14.6075 4.3695002 2.599 9
14.6065 4.4194999 2.5940001 9
14.6085 4.5165 2.605 9
14.6075 4.5064998 2.599 9
14.6115 4.4105 2.618 9
14.6105 4.4064999 2.615 9
14.6065 4.1975002 2.595 9
14.6065 4.2344999 2.598 9
14.6075 4.4635 2.5969999 9
14.6025 4.1195002 2.579 9
14.6115 4.3474998 2.6240001 9
14.6115 4.3794999 2.6210001 9
14.6115 4.3855 2.6199999 9
14.6045 4.1684999 2.5869999 9
14.6065 4.4594998 2.596 9
14.6085 4.2465 2.608 9
14.6055 4.3385 2.5880001 9
14.6065 4.3855 2.595 9
14.6065 4.4225001 2.596 9
14.6095 4.4485002 2.612 9
14.6065 4.4864998 2.596 9
14.6095 4.4074998 2.609 9
14.6055 4.3315001 2.5899999 9
14.6095 4.4204998 2.6110001 9
14.6085 4.3425002 2.605 9
14.6115 4.4095001 2.6210001 9
14.6085 4.4864998 2.6040001 9
14.6025 4.0945001 2.5780001 9
14.6075 4.4025002 2.5999999 9
14.6075 4.4175 2.6010001 9
14.6065 4.2034998 2.595 9
14.6085 4.4955001 2.605 9
14.6075 4.2985001 2.599 9
14.6055 4.2014999 2.5940001 9
14.6065 4.4485002 2.595 9
14.6055 4.2214999 2.5910001 9
14.6065 4.2705002 2.595 9
14.6095 4.4635 2.609 9
14.6065 4.3095002 2.595 9
14.6095 4.3325 2.609 9
14.6105 4.4225001 2.615 9
14.6215 2.5135 2.6159999 9
14.6225 2.5725 2.618 9
14.6155 2.5615001 2.6259999 9
14.6295 2.5185001 2.6070001 9
14.6215 2.6185 2.6210001 9
14.6275 2.5825 2.612 9
14.6165 2.5085001 2.622 9
14.6195 2.6155 2.6240001 9
14.6315 2.5495 2.605 9
14.6135 2.6435001 2.6329999 9
14.6245 2.4955001 2.6110001 9
14.6155 2.5875001 2.628 9
14.6295 2.4655001 2.6040001 9
14.6285 2.4035001 2.6010001 9
14.6275 2.3894999 2.6010001 9
14.6225 2.5634999 2.6170001 9
14.6235 2.4145 2.608 9
14.6095 2.6565001 2.6389999 9
14.6175 2.5265 2.6210001 9
14.6315 2.5675001 2.6059999 9
14.6245 2.6435001 2.619 9
14.6125 2.6375 2.6340001 9
14.6085 2.6055 2.6370001 9
14.6185 2.5775001 2.6229999 9
14.6285 2.6315 2.6129999 9
14.6215 2.6135001 2.6210001 9
14.6195 2.5785 2.622 9
14.6155 2.5165 2.6240001 9
14.6045 2.6554999 2.645 9
14.6295 2.4625001 2.6029999 9
14.6275 2.5315001 2.609 9
14.6245 2.5344999 2.6129999 9
14.6205 2.5195 2.6170001 9
14.6095 2.6485 2.638 9
14.6295 2.5645001 2.608 9
14.6155 2.6264999 2.6300001 9
14.6295 2.5815001 2.609 9
14.6275 2.4105 2.6029999 9
14.6305 2.5255001 2.605 9
14.6305 2.4275 2.5999999 9
14.6295 2.6055 2.6110001 9
14.6165 2.6175001 2.628 9
14.6195 2.5044999 2.618 9
14.6205 2.6285 2.6229999 9
14.6295 2.5265 2.6070001 9
14.6075 2.6424999 2.6400001 9
14.6305 2.4284999 2.5999999 9
14.6105 2.6294999 2.6359999 9
14.6215 2.5725 2.619 9
14.6275 2.6015 2.6129999 9
14.6215 2.6424999 2.6240001 9
14.6185 2.5285001 2.6199999 9
14.6285 2.3645 2.599 9
14.6275 2.4605 2.6059999 9
14.6265 2.4085 2.6029999 9
14.6295 2.4974999 2.605 9
14.6195 2.4625001 2.6159999 9
14.6045 2.6465001 2.6440001 9
14.6255 2.4354999 2.6059999 9
14.6195 2.4855001 2.6159999 9
14.6225 2.4614999 2.612 9
14.6265 2.4145 2.6040001 9
14.6265 2.4735 2.608 9
14.6185 2.5525 2.622 9
14.6195 2.6045001 2.6229999 9
14.6305 2.4124999 2.5999999 9
14.6305 2.5434999 2.6059999 9
14.6085 2.6524999 2.6400001 9
14.6205 2.5035 2.6159999 9
14.6175 2.5855 2.625 9
14.6155 2.5745001 2.6270001 9
14.6185 2.5875001 2.6240001 9
14.6135 2.5985 2.631 9
14.6135 2.5685 2.6300001 9
14.6235 2.5634999 2.6159999 9
14.6235 2.5285001 2.6140001 9
14.6215 2.4384999 2.612 9
14.6285 2.5885 2.6110001 9
14.6155 2.5044999 2.6229999 9
14.6185 2.3794999 2.6159999 9
14.6205 2.4315 2.6129999 9
14.6155 2.4844999 2.622 9
14.6205 2.3935001 2.612 9
14.6095 2.4094999 2.632 9
14.6185 2.4105 2.6170001 9
14.6235 2.3655 2.608 9
14.6105 2.4405 2.6300001 9
14.6085 2.4254999 2.6340001 9
14.6245 2.3755 2.605 9
14.6135 2.4015 2.6259999 9
14.6175 2.3835001 2.6170001 9
14.6165 2.3885 2.6199999 9
14.6165 2.4805 2.6210001 9
14.6245 2.3434999 2.605 9
14.6075 2.4135001 2.635 9
14.6175 2.4195001 2.6170001 9
14.6165 2.3715 2.6199999 9
14.6115 2.3835001 2.628 9
14.6175 2.3694999 2.618 9
14.6135 2.3975 2.625 9
14.6245 2.3824999 2.6059999 9
14.6085 2.4045 2.6329999 9
14.6225 2.4154999 2.6099999 9
14.6105 2.3724999 2.631 9
14.6135 2.4005001 2.625 9
14.6175 2.3855 2.618 9
14.6115 2.4565001 2.6289999 9
14.6175 2.4714999 2.619 9
14.6155 2.3994999 2.622 9
14.6125 2.4384999 2.628 9
14.6075 2.4315 2.6359999 9
14.6155 2.4075 2.622 9
14.6035 2.4005001 2.6429999 9
14.6145 2.4825001 2.6240001 9
14.6055 2.3824999 2.6389999 9
14.6125 2.4684999 2.628 9
14.6185 2.3715 2.615 9
14.6135 2.4535 2.625 9
14.6105 2.4154999 2.631 9
14.6165 2.4284999 2.6199999 9
14.6235 2.3555 2.608 9
14.6045 2.4045 2.6400001 9
14.6115 2.3965001 2.6289999 9
14.6075 2.4425001 2.6359999 9
14.6005 2.3805001 2.648 9
14.6035 2.3545001 2.642 9
14.6175 2.3234999 2.6170001 9
14.6195 2.3295 2.6129999 9
14.6175 2.3475001 2.618 9
14.6085 2.2955 2.632 9
14.6045 2.2815001 2.6400001 9
14.6115 2.2855 2.628 9
14.6135 2.3375001 2.625 9
14.5985 2.3055 2.651 9
14.6095 2.2895 2.6300001 9
14.6155 2.3425 2.6210001 9
14.6055 2.3385 2.6389999 9
14.6165 2.3505001 2.619 9
14.5965 2.2474999 2.651 9
14.6115 2.2965 2.628 9
14.6155 2.3225 2.6210001 9
14.6055 2.3285 2.638 9
14.6155 2.3375001 2.6199999 9
14.6025 2.2744999 2.641 9
14.6005 2.2965 2.648 9
14.6155 2.3445001 2.6199999 9
14.6125 2.3575001 2.6270001 9
14.6065 2.3334999 2.6359999 9
14.6085 2.3415 2.6329999 9
14.6055 2.3034999 2.6389999 9
14.6145 2.3415 2.6229999 9
14.6065 2.3164999 2.6359999 9
14.6115 2.2965 2.6270001 9
14.5975 2.2455001 2.6500001 9
14.6185 2.2995 2.615 9
14.6125 2.3215001 2.6259999 9
14.6055 2.2925 2.6370001 9
14.5985 2.2715001 2.6489999 9
14.6125 2.3585 2.6270001 9
14.6155 2.3015001 2.6199999 9
14.6015 2.3605001 2.645 9
14.5985 2.3385 2.651 9
14.6105 2.3494999 2.6300001 9
14.6045 2.3425 2.6400001 9
14.6045 2.3434999 2.6400001 9
14.6105 2.3585 2.6300001 9
14.6045 2.3234999 2.6400001 9
14.5985 2.3095 2.651 9
14.6105 2.3164999 2.6289999 9
14.5155 3.3385 2.7030001 9
14.5205 3.3775001 2.6960001 9
14.5135 3.3345001 2.701 9
14.5335 3.4584999 2.687 9
14.5185 3.3615 2.6989999 9
14.5255 3.4015 2.698 9
14.5215 3.3794999 2.7 9
14.5185 3.3545001 2.7049999 9
14.5175 3.3494999 2.7049999 9
14.5215 3.3745 2.7019999 9
14.5155 3.3385 2.704 9
14.4985 2.0915 2.6900001 9
14.5145 2.1695001 2.6919999 9
14.5195 2.1105001 2.684 9
14.5525 2.1524999 2.674 9
14.5235 2.1765001 2.6889999 9
14.5625 2.1245 2.668 9
14.5155 2.1545 2.6900001 9
14.5045 2.1875 2.698 9
14.5015 2.1754999 2.698 9
14.5065 2.1415 2.6919999 9
14.5395 2.1025 2.675 9
14.4865 2.0994999 2.6960001 9
14.5195 2.1075001 2.684 9
14.5445 2.1135001 2.674 9
14.5275 2.1565001 2.6849999 9
14.5845 2.1235001 2.6589999 9
14.5135 2.2365 2.6989999 9
14.5275 2.1865001 2.688 9
14.5375 2.1034999 2.6760001 9
14.5115 2.1845 2.694 9
14.5185 2.2355001 2.697 9
14.5055 2.1125 2.6900001 9
14.5765 2.1075001 2.6600001 9
14.5835 2.1135001 2.658 9
14.5825 2.1255 2.6600001 9
14.4995 2.1305001 2.694 9
14.4935 2.1315 2.6960001 9
14.5735 2.1275001 2.6630001 9
14.5055 2.1305001 2.6919999 9
14.5155 2.1624999 2.691 9
14.5055 2.1145 2.6900001 9
14.5185 2.2414999 2.697 9
14.5015 2.0925 2.6900001 9
14.5625 2.1155 2.6670001 9
14.5265 2.2525001 2.6949999 9
14.5215 2.2595 2.698 9
14.5025 2.1945 2.6989999 9
14.5025 2.1575 2.6949999 9
14.5325 2.2305 2.6900001 9
14.4935 2.1245 2.6960001 9
14.5285 2.2405 2.6930001 9
14.4915 2.1385 2.698 9
14.5135 2.1375 2.6889999 9
14.4985 2.1575 2.697 9
14.5325 2.1965001 2.687 9
14.5715 2.1135001 2.6630001 9
14.5235 2.2535 2.6960001 9
14.5225 2.1835001 2.6900001 9
14.4905 2.1164999 2.6960001 9
14.5215 2.1324999 2.6849999 9
14.4865 2.1064999 2.697 9
14.4785 2.0864999 2.698 9
14.5165 2.1085 2.6849999 9
14.5245 2.0964999 2.681 9
14.5135 2.1635001 2.691 9
14.5465 2.1715 2.6789999 9
14.5105 2.0895 2.6849999 9
14.5285 2.1224999 2.681 9
14.5075 2.1025 2.688 9
14.5605 2.1235001 2.668 9
14.5435 2.1494999 2.678 9
14.5185 2.1765001 2.691 9
14.5445 2.1775 2.6800001 9
14.5495 2.1145 2.6719999 9
14.5195 2.1775 2.691 9
14.5695 2.1424999 2.6670001 9
14.5245 2.1935 2.6900001 9
14.5115 2.2305 2.6989999 9
14.5435 2.1735001 2.6800001 9
14.4925 2.1105001 2.6949999 9
14.5035 2.1945 2.6989999 9
14.5575 2.1715 2.674 9
14.5065 2.1935 2.697 9
14.5275 2.1034999 2.6800001 9
14.4925 2.0975001 2.6930001 9
14.5725 2.1264999 2.664 9
14.5425 2.1984999 2.6830001 9
14.5195 2.1845 2.691 9
14.5155 2.1085 2.6849999 9
14.5215 2.1385 2.6860001 9
14.5375 2.1884999 2.684 9
14.5645 2.1034999 2.665 9
14.5075 2.1995001 2.697 9
14.5475 2.1224999 2.674 9
14.5135 2.1194999 2.687 9
14.5245 2.1424999 2.6849999 9
14.5535 2.1275001 2.6719999 9
14.5555 2.1155 2.6700001 9
14.5265 2.1984999 2.6900001 9
14.5285 2.1235001 2.6819999 9
14.5595 2.1324999 2.6700001 9
14.5495 2.1105001 2.6719999 9
14.5245 2.1824999 2.6889999 9
14.5215 2.2095001 2.6930001 9
14.5235 2.1394999 2.6849999 9
14.4785 2.0834999 2.698 9
14.5095 2.0964999 2.687 9
14.5785 2.1094999 2.6600001 9
14.5075 2.1724999 2.6949999 9
14.5515 2.1624999 2.6760001 9
14.5175 2.1884999 2.6930001 9
14.5125 2.1935 2.6949999 9
14.5215 2.2625 2.698 9
14.5375 2.2045 2.6860001 9
14.5185 2.2465 2.698 9
14.5125 2.1575 2.691 9
14.5145 2.1094999 2.6860001 9
14.5205 2.2195001 2.694 9
14.5135 2.2205 2.697 9
14.5265 2.1064999 2.681 9
14.5455 2.2065001 2.6830001 9
14.5575 2.1665001 2.674 9
14.5695 2.1424999 2.6670001 9
14.5595 2.1125 2.668 9
14.5795 2.1075001 2.6589999 9
14.5005 2.1624999 2.697 9
14.5295 2.4324999 2.691 9
14.5195 2.3015001 2.701 9
14.5285 2.4985001 2.6930001 9
14.5495 2.4545 2.6719999 9
14.5195 2.3824999 2.7 9
14.5245 2.4105 2.6960001 9
14.5265 2.4635 2.694 9
14.5275 2.4145 2.6930001 9
14.5245 2.3855 2.6960001 9
14.5535 2.4465001 2.668 9
14.5225 2.3355 2.697 9
14.5255 2.4925001 2.6949999 9
14.5215 2.3515 2.6989999 9
14.5295 2.4955001 2.691 9
14.5435 2.4414999 2.678 9
14.5225 2.4614999 2.698 9
14.5245 2.3045001 2.6949999 9
14.5375 2.4335001 2.6830001 9
14.5605 2.4245 2.6619999 9
14.5245 2.3475001 2.6949999 9
14.5505 2.4414999 2.671 9
14.5325 2.3764999 2.688 9
14.5465 2.4454999 2.675 9
14.5275 2.3545001 2.6919999 9
14.5285 2.4535 2.6919999 9
14.5285 2.4105 2.6919999 9
14.5425 2.4054999 2.678 9
14.5445 2.3905001 2.677 9
14.5425 2.3605001 2.6789999 9
14.5205 2.4885001 2.6989999 9
14.5265 2.4784999 2.694 9
14.5395 2.4475 2.681 9
14.5445 2.4744999 2.6760001 9
14.5265 2.4254999 2.694 9
14.5255 2.2974999 2.694 9
14.5245 2.3405001 2.6960001 9
14.5195 2.3095 2.7 9
14.5515 2.4335001 2.6700001 9
14.5465 2.4655001 2.674 9
14.5445 2.4015 2.677 9
14.5225 2.4454999 2.698 9
14.5575 2.4094999 2.664 9
14.5405 2.3785 2.6800001 9
14.5425 2.3905001 2.678 9
14.5225 2.4795001 2.698 9
14.5345 2.4235001 2.6860001 9
14.5285 2.3975 2.6919999 9
14.5245 2.3915 2.6960001 9
14.5365 2.4324999 2.684 9
14.5275 2.4195001 2.6930001 9
14.5245 2.4284999 2.6949999 9
14.5205 2.3585 2.6989999 9
14.5565 2.4345 2.665 9
14.5195 2.5005 2.701 9
14.5265 2.4505 2.694 9
14.5245 2.4365001 2.6960001 9
14.5315 2.3894999 2.6889999 9
14.5185 2.3805001 2.7019999 9
14.5395 2.3475001 2.681 9
14.5215 2.3065 2.698 9
14.5245 2.4645 2.6960001 9
14.5515 2.4365001 2.6700001 9
14.5275 2.3815 2.6930001 9
14.5355 2.3885 2.6849999 9
14.5255 2.5114999 2.6949999 9
14.5285 2.3785 2.6919999 9
14.5245 2.3994999 2.6960001 9
14.5355 2.3405001 2.6849999 9
14.5305 2.5035 2.6900001 9
14.5175 2.5285001 2.7030001 9
14.5205 2.3965001 2.6989999 9
14.5315 2.5065 2.6889999 9
14.5335 2.4535 2.687 9
14.5195 2.3885 2.7 9
14.5475 2.4375 2.674 9
14.5375 2.3664999 2.684 9
14.5205 2.3735001 2.7 9
14.5505 2.4085 2.671 9
14.5475 2.3885 2.674 9
14.5325 2.4765 2.688 9
14.5175 2.4005001 2.7019999 9
14.5275 2.3275001 2.6919999 9
14.5175 2.4584999 2.7019999 9
14.5305 2.3705001 2.6900001 9
14.5285 2.4865 2.6919999 9
14.5215 2.5374999 2.6989999 9
14.5305 2.3405001 2.6889999 9
14.5455 2.4245 2.6760001 9
14.5355 2.3385 2.6849999 9
14.5565 2.4175 2.665 9
14.5215 2.6515 2.701 9
14.5425 2.7195001 2.687 9
14.5235 2.7815001 2.6989999 9
14.5225 2.7655001 2.7 9
14.5225 2.6315 2.7 9
14.5305 2.6155 2.6949999 9
14.5395 2.6724999 2.6889999 9
14.5255 2.6945 2.698 9
14.5775 2.6724999 2.665 9
14.5275 2.7165 2.697 9
14.5725 2.7125001 2.668 9
14.5605 2.6364999 2.6760001 9
14.5335 2.7574999 2.6919999 9
14.5345 2.6294999 2.6919999 9
14.5685 2.7295001 2.6700001 9
14.5475 2.6485 2.684 9
14.5225 2.7155001 2.6989999 9
14.5205 2.6565001 2.701 9
14.5345 2.6415 2.6919999 9
14.5585 2.7344999 2.6760001 9
14.5175 2.6355 2.7030001 9
14.5625 2.6494999 2.674 9
14.5695 2.6315 2.6700001 9
14.5215 2.7425001 2.7 9
14.5635 2.6524999 2.674 9
14.5165 2.5815001 2.704 9
14.5575 2.7335 2.677 9
14.5355 2.6724999 2.691 9
14.5475 2.7355001 2.684 9
14.5255 2.7265 2.698 9
14.5475 2.7435 2.684 9
14.5835 2.7014999 2.661 9
14.5275 2.7435 2.697 9
14.5225 2.5664999 2.7 9
14.5335 2.7995 2.6919999 9
14.5285 2.7565 2.6949999 9
14.5355 2.6175001 2.691 9
14.5705 2.6905 2.6689999 9
14.5585 2.6945 2.677 9
14.5305 2.7885001 2.694 9
14.5835 2.7005 2.661 9
14.5445 2.7435 2.6849999 9
14.5215 2.7795 2.7 9
14.5365 2.6235001 2.691 9
14.5355 2.6545 2.691 9
14.5375 2.6995001 2.6900001 9
14.5675 2.6575 2.6719999 9
14.5315 2.6205001 2.6949999 9
14.5785 2.7054999 2.664 9
14.5475 2.6984999 2.684 9
14.5565 2.7275 2.678 9
14.5435 2.6385 2.687 9
14.5305 2.7865 2.694 9
14.5355 2.7125001 2.691 9
14.5295 2.5905001 2.6960001 9
14.5325 2.6305001 2.694 9
14.5365 2.7275 2.691 9
14.5185 2.8025 2.701 9
14.5185 2.6505001 2.7019999 9
14.5735 2.6405001 2.668 9
14.5255 2.7265 2.698 9
14.5185 2.7555001 2.7019999 9
14.5215 2.7785001 2.7 9
14.5485 2.6405001 2.6830001 9
14.5205 2.7045 2.701 9
14.5235 2.7195001 2.6989999 9
14.5405 2.6375 2.6889999 9
14.5825 2.6865001 2.6619999 9
14.5255 2.7985001 2.697 9
14.5225 2.7635 2.6989999 9
14.5265 2.5734999 2.698 9
14.5345 2.7385001 2.6919999 9
14.5345 2.6805 2.6919999 9
14.5415 2.6115 2.688 9
14.5795 2.6705 2.664 9
14.5175 2.6285 2.7030001 9
14.5655 2.7314999 2.6719999 9
14.5505 2.6765001 2.6819999 9
14.5735 2.6485 2.668 9
14.5355 2.7704999 2.691 9
14.5175 2.6754999 2.7030001 9
14.5245 2.7885001 2.698 9
14.5185 2.6055 2.7019999 9
14.5815 2.6735001 2.6619999 9
14.5635 2.7375 2.674 9
14.5215 2.6155 2.7 9
14.5495 2.6034999 2.6830001 9
14.5655 2.6305001 2.6730001 9
14.5935 2.6765001 2.655 9
14.5385 2.7674999 2.6889999 9
14.5205 2.6545 2.701 9
14.5535 2.6164999 2.6800001 9
14.5335 2.7235 2.6930001 9
14.5325 2.6865001 2.6930001 9
14.5405 2.6845 2.688 9
14.5615 2.7425001 2.675 9
14.5215 2.5975001 2.701 9
14.5475 2.7275 2.684 9
14.5635 2.7235 2.674 9
14.5765 2.6524999 2.6659999 9
14.5565 2.6605 2.678 9
14.5405 2.6745 2.6889999 9
14.5225 2.7815001 2.6989999 9
14.5765 2.7065001 2.6659999 9
14.5355 2.6754999 2.6919999 9
14.5385 2.7625 2.6889999 9
14.5865 2.6815 2.6589999 9
14.5725 2.6364999 2.6689999 9
14.5215 2.7965 2.7 9
14.5305 2.6565001 2.6949999 9
14.5315 2.8034999 2.6930001 9
14.5625 2.6235001 2.675 9
14.5235 2.6155 2.7 9
14.5445 2.6745 2.6860001 9
14.5555 2.6724999 2.6789999 9
14.5615 2.7355001 2.675 9
14.5185 2.6045001 2.7019999 9
14.5825 2.6995001 2.6619999 9
14.5345 2.6594999 2.6919999 9
14.5575 2.7155001 2.677 9
14.5205 2.7284999 2.701 9
14.5185 2.7825 2.7019999 9
14.5225 2.6155 2.7 9
14.5415 2.5925 2.688 9
14.5235 2.7305 2.6989999 9
14.5465 2.6305001 2.684 9
14.5925 2.6745 2.655 9
14.5635 2.6515 2.674 9
14.5185 2.8164999 2.7019999 9
14.5185 2.6094999 2.7030001 9
14.5475 2.7655001 2.6830001 9
14.5585 2.7155001 2.677 9
14.5295 2.7175 2.6949999 9
14.5785 2.6715 2.664 9
14.5465 2.7385001 2.684 9
14.5185 2.6524999 2.7019999 9
14.5175 2.6585 2.7030001 9
14.5575 2.6615 2.678 9
14.5955 2.6995001 2.652 9
14.5525 2.8195 2.6760001 9
14.5465 2.8195 2.6800001 9
14.5755 2.7804999 2.661 9
14.5545 2.7704999 2.678 9
14.5485 2.8445001 2.677 9
14.5895 2.7105 2.6559999 9
14.5425 2.7874999 2.6860001 9
14.5795 2.7755001 2.658 9
14.5575 2.7974999 2.6730001 9
14.5275 2.8315001 2.694 9
14.5585 2.7535 2.677 9
14.5315 2.8364999 2.691 9
14.5735 2.8215001 2.6589999 9
14.5755 2.7574999 2.6630001 9
14.5375 2.8405001 2.6860001 9
14.5435 2.7904999 2.6849999 9
14.5315 2.8395 2.691 9
14.5495 2.8015001 2.6800001 9
14.5275 2.8304999 2.6949999 9
14.5705 2.7425001 2.668 9
14.5755 2.8055 2.6589999 9
14.5835 2.7414999 2.658 9
14.5315 2.8334999 2.691 9
