# .PCD v0.7 - Point Cloud Data file format
VERSION 0.7
FIELDS x y z label
SIZE 4 4 4 4
TYPE F F F U
COUNT 1 1 1 1
WIDTH 1825
HEIGHT 1
VIEWPOINT 0 0 0 1 0 0 0
POINTS 1825
DATA ascii
14.6025 1.7645 0.40599999 9
14.5945 1.7525001 0.391 9
14.5775 1.7305 0.35800001 9
14.5775 1.7215 0.361 9
14.5875 1.7405 0.37900001 9
14.5845 1.7275 0.37900001 9
14.5825 1.7365 0.36700001 9
14.5955 1.7555 0.39300001 9
14.5905 1.7415 0.38800001 9
14.5945 1.7455 0.39399999 9
14.5855 1.7275 0.38100001 9
14.5885 1.7375 0.384 9
14.5855 1.7335 0.377 9
14.5865 1.7395 0.377 9
14.5745 1.7555 0.14399999 9
14.5785 1.7755001 0.118 9
14.5795 1.7755001 0.189 9
14.5765 1.7585 0.236 9
14.5765 1.7585 0.233 9
14.5795 1.7765 0.21600001 9
14.5725 1.7424999 0.19599999 9
14.5735 1.7515 0.108 9
14.5745 1.7525001 0.206 9
14.5825 1.7945 0.162 9
14.5755 1.7535 0.208 9
14.5835 1.7995 0.139 9
14.5815 1.7885 0.142 9
14.5745 1.7525001 0.147 9
14.5835 1.8005 0.167 9
14.5835 1.7975 0.163 9
14.5795 1.7755001 0.25600001 9
14.5805 1.7805001 0.199 9
14.5885 1.8285 0.153 9
14.5785 1.7665 0.237 9
14.5755 1.7605 0.115 9
14.5745 1.7565 0.102 9
14.5775 1.7685 0.12899999 9
14.5745 1.7445 0.28999999 9
14.5735 1.7385 0.28200001 9
14.5735 1.7375 0.301 9
14.5785 1.7704999 0.17900001 9
14.5765 1.7605 0.23999999 9
14.5765 1.7565 0.26699999 9
14.5865 1.8155 0.156 9
14.5795 1.7825 0.12800001 9
14.5755 1.7645 0.102 9
14.5735 1.7435 0.21699999 9
14.5795 1.7795 0.133 9
14.5845 1.8045 0.163 9
14.5725 1.7445 0.177 9
14.5735 1.7395 0.28099999 9
14.5825 1.7955 0.133 9
14.5735 1.7535 0.103 9
14.5785 1.7654999 0.25999999 9
14.5825 1.7984999 0.13 9
14.5805 1.7845 0.12899999 9
14.5855 1.8065 0.198 9
14.5775 1.7595 0.259 9
14.5795 1.7785 0.175 9
14.5745 1.7595 0.1 9
14.5845 1.8035001 0.18099999 9
14.5805 1.7865 0.15700001 9
14.5765 1.7645 0.126 9
14.5795 1.7805001 0.161 9
14.5805 1.7835 0.192 9
14.5805 1.7815 0.22400001 9
14.5725 1.7305 0.31799999 9
14.5755 1.7535 0.212 9
14.5725 1.7345001 0.28200001 9
14.5795 1.7775 0.214 9
14.5755 1.7525001 0.252 9
14.5775 1.7615 0.248 9
14.5785 1.7665 0.26300001 9
14.5745 1.7555 0.17 9
14.5805 1.7855 0.164 9
14.5865 1.8175 0.139 9
14.5775 1.7675 0.192 9
14.5755 1.7605 0.167 9
14.5775 1.7715 0.161 9
14.5725 1.7415 0.22 9
14.5805 1.7865 0.127 9
14.5735 1.7485 0.15099999 9
14.5755 1.7485 0.292 9
14.5785 1.7695 0.26100001 9
14.5755 1.7555 0.21799999 9
14.5875 1.8225 0.146 9
14.5755 1.7474999 0.289 9
14.5775 1.7725 0.13 9
14.5785 1.7695 0.259 9
14.5755 1.7505 0.25999999 9
14.5755 1.7565 0.18700001 9
14.5835 1.7995 0.16599999 9
14.5845 1.8055 0.178 9
14.5785 1.7745 0.121 9
14.5815 1.7865 0.184 9
14.5835 1.7945 0.22400001 9
14.5775 1.7595 0.27900001 9
14.5765 1.7555 0.27000001 9
14.5855 1.8105 0.19599999 9
14.5785 1.7735 0.19499999 9
14.5735 1.7405 0.29100001 9
14.5765 1.7565 0.27399999 9
14.5735 1.7455 0.184 9
14.5765 1.7654999 0.148 9
14.5745 1.7474999 0.26300001 9
14.5775 1.7695 0.119 9
14.5765 1.7635 0.197 9
14.5815 1.7895 0.154 9
14.5745 1.7465 0.28999999 9
14.5765 1.7605 0.219 9
14.5815 1.7915 0.13600001 9
14.5745 1.7474999 0.27599999 9
14.5735 1.7445 0.23899999 9
14.5795 1.7775 0.15099999 9
14.5745 1.7515 0.161 9
14.5765 1.7585 0.26100001 9
14.5725 1.7345001 0.31099999 9
14.5735 1.7424999 0.28 9
14.5765 1.7585 0.273 9
14.5775 1.7654999 0.227 9
14.5755 1.7545 0.185 9
14.5805 1.7835 0.18700001 9
14.5785 1.7704999 0.205 9
14.5805 1.7885 0.133 9
14.5845 1.8025 0.206 9
14.5745 1.7525001 0.19400001 9
14.5855 1.8135 0.13699999 9
14.5835 1.8025 0.152 9
14.5855 1.8115 0.14300001 9
14.5775 1.7654999 0.189 9
14.5935 1.7635 0.37400001 9
14.5925 1.7845 0.329 9
14.5975 1.8045 0.31099999 9
14.5925 1.7845 0.329 9
14.5735 1.7335 0.34 9
14.5845 1.7704999 0.31600001 9
14.5995 1.7785 0.37099999 9
14.5895 1.7675 0.34799999 9
14.5955 1.7585 0.389 9
14.5935 1.7955 0.31099999 9
14.5935 1.7825 0.33399999 9
14.5895 1.7865 0.31 9
14.5915 1.7735 0.34200001 9
14.5925 1.8015 0.29699999 9
14.5885 1.7885 0.30199999 9
14.5955 1.7735 0.361 9
14.5915 1.7695 0.34900001 9
14.5935 1.7704999 0.35699999 9
14.5975 1.8005 0.31799999 9
14.5985 1.7715 0.38 9
14.5995 1.7885 0.35100001 9
14.5975 1.7965 0.32699999 9
14.5975 1.7645 0.38699999 9
14.5915 1.7984999 0.29899999 9
14.5965 1.7695 0.377 9
14.6025 1.7835 0.37400001 9
14.6075 1.7745 0.412 9
14.5835 1.7474999 0.35499999 9
14.6005 1.7965 0.34 9
14.6045 1.7825 0.384 9
14.5765 1.7445 0.331 9
14.5985 1.7975 0.33000001 9
14.5945 1.8075 0.29300001 9
14.5925 1.7835 0.331 9
14.5945 1.8105 0.28799999 9
14.5935 1.7635 0.373 9
14.5795 1.7495 0.336 9
14.5915 1.7805001 0.331 9
14.5885 1.7885 0.301 9
14.5965 1.8015 0.31400001 9
14.5945 1.7654999 0.37400001 9
14.5985 1.7755001 0.373 9
14.5835 1.7654999 0.32300001 9
14.5725 1.7295001 0.34200001 9
14.5985 1.7795 0.36500001 9
14.5985 1.8015 0.324 9
14.5915 1.7555 0.37799999 9
14.5975 1.7875 0.34299999 9
14.5975 1.7785 0.36199999 9
14.6025 1.7805001 0.38 9
14.5955 1.8055 0.30199999 9
14.5885 1.7535 0.368 9
14.5805 1.7455 0.34999999 9
14.5895 1.8195 0.050000001 9
14.5875 1.8935 0.052999999 9
14.5795 1.8164999 0.071999997 9
14.5785 1.7975 0.075000003 9
14.5905 1.8535 0.046999998 9
14.5925 1.9055001 0.039999999 9
14.5965 1.8705 0.032000002 9
14.5945 1.8535 0.039000001 9
14.5855 1.8535 0.057999998 9
14.5895 1.8355 0.048999999 9
14.5835 1.8865 0.059999999 9
14.5945 1.8535 0.039000001 9
14.5855 1.8305 0.057 9
14.5955 1.8465 0.037 9
14.5825 1.7975 0.066 9
14.5865 1.8795 0.054000001 9
14.5815 1.8685 0.066 9
14.5845 1.8825001 0.057999998 9
14.5905 1.8395 0.046999998 9
14.5885 1.8615 0.052000001 9
14.5885 1.8395 0.052000001 9
14.5905 1.8555 0.046999998 9
14.5805 1.7885 0.068999998 9
14.5845 1.8925 0.057999998 9
14.5905 1.8555 0.046 9
14.5865 1.8835 0.054000001 9
14.6005 1.8635 0.024 9
14.5865 1.8595001 0.055 9
14.5825 1.9025 0.061999999 9
14.5865 1.8155 0.055 9
14.5835 1.8214999 0.063000001 9
14.5935 1.8935 0.037999999 9
14.5835 1.8985 0.059 9
14.5975 1.8525 0.030999999 9
14.5915 1.8455 0.044 9
14.5845 1.8705 0.059 9
14.5805 1.8405 0.068000004 9
14.5775 1.7934999 0.077 9
14.5775 1.7984999 0.077 9
14.5865 1.8615 0.054000001 9
14.5785 1.8005 0.074000001 9
14.5965 1.8865 0.032000002 9
14.5905 1.8315001 0.046999998 9
14.5785 1.8075 0.074000001 9
14.5945 1.8715 0.037 9
14.5835 1.9085 0.059999999 9
14.5835 1.8635 0.061999999 9
14.5865 1.8935 0.052999999 9
14.5835 1.7915 0.064000003 9
14.5795 1.7595 0.315 9
14.5895 1.8125 0.22499999 9
14.5785 1.7675 0.278 9
14.5785 1.7615 0.296 9
14.5815 1.7745 0.27900001 9
14.5875 1.8085001 0.22400001 9
14.5915 1.8085001 0.264 9
14.5785 1.7565 0.31200001 9
14.5925 1.8185 0.23999999 9
14.5885 1.7955 0.278 9
14.5865 1.7934999 0.26800001 9
14.5865 1.8115 0.19599999 9
14.5775 1.7555 0.30000001 9
14.5895 1.8075 0.25 9
14.5925 1.8135 0.26499999 9
14.5825 1.7725 0.30199999 9
14.5925 1.8195 0.241 9
14.5835 1.7855 0.25999999 9
14.5855 1.7915 0.26100001 9
14.5805 1.7635 0.31 9
14.5815 1.7645 0.31400001 9
14.5905 1.8115 0.248 9
14.5825 1.7765 0.285 9
14.5895 1.8015 0.26800001 9
14.5835 1.7934999 0.228 9
14.5825 1.7875 0.241 9
14.5915 1.8095 0.26800001 9
14.5895 1.7984999 0.27700001 9
14.5895 1.8035001 0.25799999 9
14.5775 1.7515 0.315 9
14.5885 1.8075 0.241 9
14.5845 1.7855 0.26899999 9
14.5875 1.8095 0.22400001 9
14.5855 1.7965 0.243 9
14.5775 1.7495 0.32600001 9
14.5825 1.7765 0.285 9
14.5875 1.8155 0.19499999 9
14.5925 1.8164999 0.255 9
14.5885 1.8015 0.25600001 9
14.5795 1.7575001 0.31600001 9
14.5865 1.7984999 0.25099999 9
14.5855 1.7875 0.27700001 9
14.5875 1.7955 0.26699999 9
14.5845 1.7815 0.287 9
14.5765 1.7505 0.31099999 9
14.5775 1.7495 0.32499999 9
14.5885 1.8235 0.177 9
14.5815 1.7665 0.30500001 9
14.5825 1.7825 0.266 9
14.5875 1.8035001 0.244 9
14.5965 1.8865 0.28600001 9
14.6015 1.8465 0.34200001 9
14.6055 1.7865 0.38999999 9
14.6015 1.8085001 0.34200001 9
14.6035 1.8015 0.36300001 9
14.6005 1.8485 0.329 9
14.5945 1.8335 0.28 9
14.5965 1.8365 0.292 9
14.6025 1.7945 0.35600001 9
14.5995 1.8444999 0.322 9
14.5965 1.8255 0.296 9
14.5945 1.9375 0.26100001 9
14.5965 1.9155 0.28600001 9
14.5945 1.8755 0.27200001 9
14.6025 1.8164999 0.359 9
14.6005 1.8035001 0.338 9
14.6045 1.8045 0.37599999 9
14.6065 1.7865 0.40099999 9
14.6005 1.8415 0.329 9
14.5955 1.8164999 0.28400001 9
14.5985 1.8865 0.30899999 9
14.5965 1.9095 0.289 9
14.6025 1.8335 0.35499999 9
14.5975 1.8565 0.29800001 9
14.5955 1.9095 0.27599999 9
14.5965 1.8535 0.289 9
14.5965 1.8265001 0.292 9
14.5975 1.8125 0.31200001 9
14.5975 1.8335 0.30399999 9
14.5965 1.8585 0.28999999 9
14.5975 1.9005001 0.28999999 9
14.5975 1.8954999 0.294 9
14.6005 1.8455 0.33000001 9
14.6035 1.8065 0.36500001 9
14.6005 1.8645 0.33399999 9
14.6045 1.7945 0.382 9
14.6055 1.7915 0.39199999 9
14.6025 1.8305 0.34799999 9
14.6035 1.8355 0.359 9
14.6035 1.8315001 0.36399999 9
14.5945 1.8385 0.27900001 9
14.5965 1.8885 0.28799999 9
14.5985 1.8715 0.31 9
14.5975 1.8205 0.303 9
14.6015 1.8535 0.33700001 9
14.5945 1.8605 0.27500001 9
14.5945 1.8285 0.278 9
14.5985 1.8885 0.30399999 9
14.6015 1.8425 0.33899999 9
14.5955 1.8475 0.28099999 9
14.6035 1.8035001 0.36500001 9
14.6005 1.8475 0.33199999 9
14.5965 1.8985 0.289 9
14.5945 1.9234999 0.26300001 9
14.5995 1.8145 0.324 9
14.5985 1.8275 0.31099999 9
14.6025 1.8395 0.35299999 9
14.6015 1.8175 0.34799999 9
14.5965 1.8775001 0.289 9
14.6015 1.8035001 0.34299999 9
14.5985 1.8164999 0.315 9
14.6045 1.7865 0.37799999 9
14.5965 1.9045 0.285 9
14.5985 1.8585 0.30700001 9
14.5975 1.8665 0.301 9
14.5965 1.8685 0.287 9
14.5975 1.8285 0.30899999 9
14.5945 1.8494999 0.278 9
14.5955 1.9175 0.27200001 9
14.6005 1.8105 0.336 9
14.5975 1.8775001 0.296 9
14.5955 1.8245 0.28299999 9
14.5955 1.8825001 0.28200001 9
14.5985 1.8275 0.317 9
14.5945 1.8435 0.27700001 9
14.5985 1.8945 0.30399999 9
14.6015 1.8335 0.345 9
14.6045 1.7995 0.37900001 9
14.6035 1.8255 0.359 9
14.5995 1.8005 0.33199999 9
14.5955 1.8745 0.27900001 9
14.5965 1.8715 0.29100001 9
14.5955 1.8745 0.27500001 9
14.5975 1.8855 0.29899999 9
14.5955 1.8365 0.28200001 9
14.5975 1.8085001 0.30399999 9
14.5975 1.8315001 0.308 9
14.6015 1.8385 0.34599999 9
14.5965 1.8674999 0.29300001 9
14.5875 1.8595001 0.123 9
14.5815 1.8715 0.075999998 9
14.5855 1.8575 0.108 9
14.5815 1.7975 0.113 9
14.5835 1.8375 0.107 9
14.5785 1.8365 0.074000001 9
14.5755 1.7775 0.086000003 9
14.5805 1.8115 0.098999999 9
14.5865 1.8795 0.104 9
14.5835 1.8335 0.111 9
14.5765 1.7775 0.094999999 9
14.5805 1.8695 0.07 9
14.5895 1.8494999 0.138 9
14.5825 1.8315001 0.103 9
14.5785 1.7984999 0.092 9
14.5845 1.8865 0.086999997 9
14.5885 1.8535 0.12899999 9
14.5815 1.8214999 0.105 9
14.5815 1.7915 0.116 9
14.5845 1.8415 0.108 9
14.5875 1.8645 0.117 9
14.5835 1.8785 0.079999998 9
14.5765 1.7695 0.097000003 9
14.5835 1.8255 0.111 9
14.5815 1.8635 0.075000003 9
14.5785 1.8355 0.075000003 9
14.5795 1.7945 0.104 9
14.5835 1.9195 0.061000001 9
14.5805 1.8225 0.092 9
14.5785 1.8195 0.086000003 9
14.5805 1.8385 0.086999997 9
14.5825 1.8045 0.121 9
14.5805 1.8465 0.078000002 9
14.5845 1.8515 0.108 9
14.5825 1.9085 0.061999999 9
14.5855 1.8315001 0.125 9
14.5875 1.8535 0.124 9
14.5825 1.8815 0.075999998 9
14.5875 1.8615 0.122 9
14.5815 1.8125 0.106 9
14.5765 1.7704999 0.096000001 9
14.5795 1.8535 0.072999999 9
14.5805 1.8435 0.083999999 9
14.5855 1.8885 0.090999998 9
14.5805 1.8395 0.082999997 9
14.5845 1.8625 0.096000001 9
14.5855 1.8305 0.122 9
14.5865 1.8724999 0.105 9
14.5825 1.8035001 0.12 9
14.5875 1.8405 0.133 9
14.5855 1.8145 0.133 9
14.5825 1.8485 0.090000004 9
14.5835 1.8175 0.12 9
14.5765 1.7775 0.094999999 9
14.5845 1.8095 0.12899999 9
14.5825 1.8195 0.113 9
14.5835 1.8515 0.098999999 9
14.5845 1.8214999 0.125 9
14.5845 1.8164999 0.12800001 9
14.5825 1.8475 0.092 9
14.5885 1.8555 0.13 9
14.5875 1.8595001 0.121 9
14.5825 1.8494999 0.090999998 9
14.5885 1.8395 0.14 9
14.5855 1.8475 0.118 9
14.5835 1.8305 0.11 9
14.5795 1.8415 0.074000001 9
14.5865 1.8545001 0.12 9
14.5865 1.8395 0.126 9
14.5795 1.7915 0.102 9
14.5885 1.9234999 0.133 9
14.5895 1.9255 0.169 9
14.5925 1.9234999 0.221 9
14.5895 1.8444999 0.148 9
14.5865 1.9205 0.104 9
14.5895 1.8545001 0.13500001 9
14.5895 1.9175 0.153 9
14.5915 1.8585 0.17399999 9
14.5885 1.9035 0.141 9
14.5885 1.8935 0.12899999 9
14.5905 1.9085 0.168 9
14.5905 1.8635 0.16 9
14.5905 1.8685 0.17399999 9
14.5885 1.8945 0.14 9
14.5935 1.9464999 0.23800001 9
14.5885 1.8875 0.124 9
14.5855 1.9025 0.089000002 9
14.5865 1.9184999 0.094999999 9
14.5915 1.9405 0.204 9
14.5915 1.8655 0.17399999 9
14.5895 1.9015 0.148 9
14.5855 1.9255 0.086000003 9
14.5925 1.8935 0.20100001 9
14.5895 1.8565 0.139 9
14.5875 1.9315 0.122 9
14.5895 1.8615 0.138 9
14.5905 1.9225 0.185 9
14.5915 1.9165 0.20200001 9
14.5905 1.9365 0.18000001 9
14.5895 1.9175 0.15800001 9
14.5935 1.9375 0.233 9
14.5905 1.8855 0.164 9
14.5845 1.9234999 0.071999997 9
14.5925 1.9375 0.226 9
14.5915 1.8795 0.19 9
14.5905 1.9075 0.17 9
14.5915 1.8945 0.18799999 9
14.5885 1.8825001 0.138 9
14.5895 1.8685 0.14399999 9
14.5905 1.8735 0.169 9
14.5875 1.8945 0.114 9
14.5875 1.9245 0.119 9
14.5915 1.9234999 0.2 9
14.5895 1.8685 0.14 9
14.5885 1.8755 0.13600001 9
14.5885 1.9295 0.138 9
14.5875 1.9295 0.12 9
14.5855 1.9105 0.088 9
14.5915 1.8935 0.186 9
14.5905 1.8724999 0.171 9
14.5915 1.9205 0.2 9
14.5895 1.9234999 0.15800001 9
14.5915 1.8785 0.178 9
14.5895 1.9105 0.164 9
14.5865 1.9255 0.107 9
14.5905 1.9145 0.17299999 9
14.5865 1.8945 0.106 9
14.5905 1.8915 0.17900001 9
14.5915 1.9184999 0.205 9
14.5925 1.9015 0.207 9
14.5905 1.8655 0.169 9
14.5865 1.9245 0.1 9
14.5895 1.9225 0.16599999 9
14.5925 1.9184999 0.20999999 9
14.5905 1.9225 0.18700001 9
14.5905 1.8545001 0.155 9
14.5905 1.9375 0.186 9
14.5895 1.9315 0.164 9
14.5915 1.9385 0.205 9
14.5865 1.8965 0.098999999 9
14.5925 1.9405 0.222 9
14.5885 1.8904999 0.134 9
14.5925 1.9035 0.21600001 9
14.5885 1.8735 0.13 9
14.5905 1.9205 0.184 9
14.5905 1.9295 0.178 9
14.5915 1.8995 0.18799999 9
14.5885 1.9015 0.12899999 9
14.5905 1.8535 0.15700001 9
14.5885 1.9295 0.149 9
14.5875 1.8895 0.124 9
14.5935 1.9395 0.24600001 9
14.5915 1.9115 0.197 9
14.5895 1.8555 0.142 9
14.5925 1.9145 0.20999999 9
14.5875 1.9015 0.118 9
14.5875 1.8805 0.112 9
14.5905 1.8465 0.15000001 9
14.5905 1.8745 0.169 9
14.5935 1.9375 0.244 9
14.5935 1.9125 0.22400001 9
14.5915 1.9105 0.19400001 9
14.5885 1.9085 0.134 9
14.5885 1.9065 0.12899999 9
14.5885 1.8915 0.13 9
14.5875 1.9215 0.123 9
14.5885 1.8674999 0.13500001 9
14.5885 1.8705 0.127 9
14.5885 1.8655 0.12899999 9
14.5885 1.9275 0.148 9
14.5875 1.9215 0.121 9
14.5895 1.8825001 0.147 9
14.5935 1.8265001 0.257 9
14.5925 1.8405 0.207 9
14.5925 1.8835 0.219 9
14.5945 1.8705 0.25999999 9
14.5925 1.8595001 0.211 9
14.5935 1.9165 0.241 9
14.5935 1.9125 0.237 9
14.5925 1.8375 0.21799999 9
14.5925 1.8305 0.23100001 9
14.5945 1.8635 0.27000001 9
14.5925 1.8835 0.20999999 9
14.5945 1.9165 0.252 9
14.5925 1.8345 0.229 9
14.5935 1.9265 0.241 9
14.5935 1.8535 0.234 9
14.5935 1.9175 0.23800001 9
14.5935 1.8925 0.229 9
14.5935 1.8875 0.233 9
14.5925 1.8365 0.204 9
14.5935 1.8365 0.25400001 9
14.5935 1.8985 0.23999999 9
14.5915 1.8355 0.192 9
14.5935 1.9035 0.229 9
14.5945 1.8805 0.255 9
14.5935 1.8545001 0.244 9
14.5925 1.8835 0.215 9
14.5935 1.8765 0.25099999 9
14.5945 1.8885 0.26499999 9
14.5945 1.8375 0.27000001 9
14.5925 1.8954999 0.222 9
14.5915 1.8705 0.186 9
14.5945 1.8935 0.255 9
14.5945 1.9245 0.25799999 9
14.5945 1.8285 0.27399999 9
14.5935 1.8655 0.25400001 9
14.5925 1.8825001 0.214 9
14.5945 1.9215 0.25299999 9
14.5925 1.8755 0.22 9
14.5935 1.8494999 0.23199999 9
14.5925 1.8625 0.2 9
14.5935 1.8355 0.244 9
14.5925 1.8855 0.21600001 9
14.5935 1.9095 0.241 9
14.5935 1.8195 0.26300001 9
14.5915 1.8545001 0.17399999 9
14.5925 1.8795 0.21799999 9
14.5915 1.8444999 0.17900001 9
14.5945 1.8205 0.266 9
14.5925 1.8485 0.20900001 9
14.5915 1.8494999 0.18000001 9
14.5925 1.8724999 0.215 9
14.5935 1.8655 0.249 9
14.5935 1.8475 0.237 9
14.5915 1.8685 0.186 9
14.5935 1.8214999 0.237 9
14.5905 1.8345 0.168 9
14.5935 1.8904999 0.25099999 9
14.5945 1.9035 0.25400001 9
14.5915 1.8505 0.17299999 9
14.5935 1.8385 0.257 9
14.5945 1.9305 0.25400001 9
14.5925 1.8755 0.205 9
14.5945 1.8265001 0.26800001 9
14.5935 1.9045 0.233 9
14.5925 1.8845 0.20200001 9
14.5945 1.8605 0.264 9
14.5925 1.8885 0.22 9
14.5935 1.8724999 0.228 9
14.5945 1.8605 0.264 9
14.5935 1.8385 0.25999999 9
14.5915 1.8465 0.185 9
14.5915 1.8645 0.192 9
14.5935 1.9165 0.235 9
14.5925 1.8425 0.212 9
14.5915 1.8465 0.19 9
14.5945 1.8625 0.26699999 9
14.5935 1.8355 0.249 9
14.5925 1.8545001 0.211 9
14.5935 1.8565 0.245 9
14.5945 1.8954999 0.25999999 9
14.5935 1.9115 0.245 9
14.5955 1.8625 0.38699999 9
14.5815 1.9595 0.35499999 9
14.6055 1.7984999 0.40599999 9
14.5925 1.8965 0.36000001 9
14.5775 1.9495 0.405 9
14.5945 1.9365 0.28200001 9
14.5935 1.8575 0.41499999 9
14.5805 1.9255 0.41299999 9
14.5765 1.9615 0.389 9
14.5835 1.9625 0.32800001 9
14.5995 1.8515 0.36899999 9
14.5895 1.9245 0.34 9
14.5935 1.9285001 0.29800001 9
14.6005 1.8485 0.37 9
14.6015 1.8125 0.412 9
14.5945 1.9005001 0.33500001 9
14.5985 1.8494999 0.37799999 9
14.5815 1.9435 0.38 9
14.6015 1.8185 0.403 9
14.5805 1.9285001 0.40700001 9
14.5805 1.9565001 0.36199999 9
14.5935 1.9345 0.29300001 9
14.5825 1.9405 0.373 9
14.5715 1.9815 0.40200001 9
14.5765 1.9605 0.38999999 9
14.5955 1.9175 0.301 9
14.5715 1.9775 0.40799999 9
14.5765 1.9615 0.391 9
14.5895 1.9115 0.36199999 9
14.5795 1.9545 0.377 9
14.5915 1.9165 0.33500001 9
14.5995 1.8265001 0.40900001 9
14.5805 1.9655 0.34799999 9
14.5995 1.8505 0.37400001 9
14.5935 1.9255 0.30500001 9
14.5885 1.8935 0.40099999 9
14.5935 1.8575 0.40900001 9
14.5935 1.9395 0.28 9
14.6025 1.8355 0.373 9
14.5895 1.9565001 0.289 9
14.5895 1.9335001 0.32800001 9
14.5865 1.9585 0.315 9
14.5985 1.8685 0.34999999 9
14.5925 1.9035 0.34799999 9
14.6045 1.8105 0.39300001 9
14.5795 1.9525 0.37900001 9
14.5925 1.8615 0.41299999 9
14.5795 1.9675 0.35800001 9
14.5995 1.8405 0.391 9
14.5955 1.9085 0.315 9
14.5875 1.9505 0.31999999 9
14.5925 1.9205 0.31999999 9
14.5855 1.9265 0.37099999 9
14.5955 1.8795 0.36199999 9
14.5955 1.8585 0.38999999 9
14.5865 1.9135 0.38100001 9
14.5905 1.8915 0.384 9
14.5765 1.9744999 0.36899999 9
14.6005 1.8695 0.33199999 9
14.5945 1.9075 0.31999999 9
14.5735 1.9705 0.398 9
14.5795 1.9565001 0.377 9
14.5855 1.9475 0.338 9
14.6025 1.8505 0.35100001 9
14.5905 1.8845 0.39199999 9
14.6065 1.7845 0.414 9
14.5845 1.9195 0.389 9
14.5815 1.9385 0.38600001 9
14.5805 1.9645 0.34999999 9
14.5765 1.9655 0.38100001 9
14.5855 1.9545 0.32800001 9
14.6075 1.7835 0.414 9
14.6005 1.8385 0.38299999 9
14.5815 1.9555 0.35499999 9
14.5845 1.9145 0.39899999 9
14.5795 1.9665 0.35499999 9
14.5875 1.9475 0.31799999 9
14.5805 1.9595 0.359 9
14.5775 1.9464999 0.40700001 9
14.6045 1.8155 0.38600001 9
14.5895 1.9105 0.36000001 9
14.6015 1.8575 0.34599999 9
14.5785 1.9464999 0.39700001 9
14.5805 1.9595 0.359 9
14.5805 1.9285001 0.41100001 9
14.5875 1.9535 0.31 9
14.5965 1.8444999 0.40900001 9
14.5985 1.8645 0.35800001 9
14.5795 1.9545 0.37900001 9
14.5945 1.8645 0.389 9
14.5915 1.9375 0.30500001 9
14.6035 1.8275 0.37200001 9
14.5845 1.9184999 0.39500001 9
14.6025 1.8415 0.36199999 9
14.5875 1.9545 0.308 9
14.5905 1.9245 0.32800001 9
14.5845 1.9455 0.34599999 9
14.5905 1.9195 0.34299999 9
14.5985 1.8895 0.32100001 9
14.5875 1.9315 0.34299999 9
14.5955 1.8595001 0.39300001 9
14.6005 1.8295 0.40000001 9
14.5945 1.9475 0.26100001 9
14.5955 1.9315 0.278 9
14.5765 1.9485 0.41100001 9
14.5985 1.8925 0.31099999 9
14.5975 1.8325 0.41499999 9
14.5935 1.8625 0.40200001 9
14.5915 1.8745 0.403 9
14.5835 1.9115 0.41100001 9
14.5975 1.8405 0.40200001 9
14.5975 1.9075 0.29899999 9
14.5965 1.9005001 0.31900001 9
14.5765 1.9625 0.39399999 9
14.5765 1.9685 0.382 9
14.5755 1.9685 0.391 9
14.6035 1.8164999 0.396 9
14.5845 1.9445 0.352 9
14.5945 1.8615 0.40000001 9
14.6005 1.8435 0.37200001 9
14.5995 1.8615 0.35299999 9
14.5865 1.9145 0.38100001 9
14.5795 1.9445 0.39300001 9
14.5965 1.8555 0.38999999 9
14.5945 1.8575 0.40700001 9
14.6005 1.8715 0.33500001 9
14.5955 1.8615 0.38699999 9
14.5885 1.9095 0.375 9
14.5895 1.9545 0.29499999 9
14.5955 1.9184999 0.301 9
14.5875 1.8985 0.39700001 9
14.5865 1.9045 0.40000001 9
14.5965 1.8565 0.38699999 9
14.5915 1.9015 0.36000001 9
14.5835 1.9605 0.33700001 9
14.5955 1.8885 0.34799999 9
14.5945 1.9335001 0.28 9
14.6055 1.8025 0.39300001 9
14.5875 1.9255 0.352 9
14.5895 1.8895 0.396 9
14.5915 1.8674999 0.414 9
14.5895 1.9125 0.35800001 9
14.5875 1.9205 0.36199999 9
14.5895 1.9015 0.375 9
14.5945 1.9145 0.31099999 9
14.6015 1.8164999 0.40799999 9
14.5865 1.9015 0.40599999 9
14.5965 1.8655 0.37200001 9
14.5975 1.8444999 0.396 9
14.5925 1.9395 0.294 9
14.6005 1.8475 0.373 9
14.5835 1.9255 0.39300001 9
14.5895 1.8785 0.41299999 9
14.5975 1.9055001 0.303 9
14.5985 1.8415 0.398 9
14.5755 1.9605 0.39899999 9
14.5915 1.9335001 0.30599999 9
14.5935 1.9335001 0.292 9
14.5895 1.9135 0.35800001 9
14.6005 1.8455 0.373 9
14.5805 1.9525 0.37099999 9
14.5875 1.9405 0.33500001 9
14.5965 1.8915 0.336 9
14.6045 1.8065 0.40400001 9
14.6045 1.8145 0.38499999 9
14.5535 1.9555 0.027000001 9
14.5775 1.9285001 0.043000001 9
14.5575 1.9495 0.026000001 9
14.5675 1.9345 0.027000001 9
14.5875 1.9125 0.037 9
14.5635 1.9455 0.035999998 9
14.5795 1.9184999 0.026000001 9
14.5745 1.9355 0.046999998 9
14.5415 1.9685 0.023 9
14.5735 1.9255 0.022 9
14.5845 1.9215 0.048 9
14.5545 1.9575 0.035 9
14.5795 1.9275 0.048 9
14.5775 1.9265 0.037 9
14.5595 1.9445 0.023 9
14.5615 1.9464999 0.032000002 9
14.5595 1.9515001 0.039000001 9
14.5675 1.9335001 0.024 9
14.5525 1.9555 0.025 9
14.5665 1.9355 0.023 9
14.5875 1.9065 0.023 9
14.5415 1.9705 0.026000001 9
14.5835 1.9135 0.028999999 9
14.5905 1.9065 0.034000002 9
14.5715 1.9365 0.043000001 9
14.4705 1.7135 0.068999998 9
14.4815 1.7145 0.064000003 9
14.4805 1.7175 0.066 9
14.4705 1.7155 0.07 9
14.4705 1.7225 0.074000001 9
14.4505 1.7095 0.075999998 9
14.4765 1.7125 0.066 9
14.4425 1.7085 0.079000004 9
14.4465 1.8295 0.21699999 9
14.4555 1.8325 0.21699999 9
14.4475 1.8235 0.20900001 9
14.4545 1.8214999 0.20200001 9
14.4465 1.8305 0.219 9
14.4345 1.8465 0.248 9
14.4265 1.8395 0.243 9
14.4555 1.8185 0.197 9
14.4215 1.8415 0.249 9
14.4305 1.8435 0.245 9
14.4335 1.8425 0.244 9
14.4285 1.8335 0.233 9
14.4385 1.8285 0.22 9
14.4315 1.8375 0.23800001 9
14.4575 1.8145 0.191 9
14.4465 1.8605 0.26199999 9
14.4655 1.8655 0.25999999 9
14.4285 1.8494999 0.25600001 9
14.4615 1.8605 0.255 9
14.4655 1.8645 0.259 9
14.4155 1.8455 0.25600001 9
14.4485 1.8615 0.26199999 9
14.4565 1.8615 0.259 9
14.4505 1.8835 0.29300001 9
14.4675 1.8795 0.278 9
14.4385 1.8655 0.27399999 9
14.4615 1.8945 0.30500001 9
14.4325 1.8685 0.28099999 9
14.4455 1.8625 0.266 9
14.4645 1.9045 0.317 9
14.4655 1.9035 0.315 9
14.4525 1.8875 0.29899999 9
14.4795 1.8895 0.28799999 9
14.4575 1.8674999 0.266 9
14.4245 1.8545001 0.26499999 9
14.4655 1.9035 0.315 9
14.4785 1.9035 0.30899999 9
14.4765 1.9005001 0.30500001 9
14.4515 1.8665 0.26899999 9
14.4495 1.8665 0.26899999 9
14.4735 1.9045 0.31299999 9
14.4785 1.8895 0.28799999 9
14.4785 1.9035 0.30899999 9
14.4725 1.8785 0.27500001 9
14.4515 1.8674999 0.271 9
14.4215 1.8545001 0.26699999 9
14.4495 1.8735 0.28 9
14.4455 1.8705 0.278 9
14.4755 1.9125 0.32300001 9
14.4375 1.8685 0.27900001 9
14.4575 1.8895 0.29899999 9
14.4345 1.8645 0.27399999 9
14.4605 1.8715 0.27200001 9
14.4535 1.8855 0.296 9
14.4125 1.8645 0.285 9
14.4475 1.9285001 0.359 9
14.4255 1.8625 0.27599999 9
14.4395 1.9175 0.34799999 9
14.4125 1.8735 0.29800001 9
14.4375 1.9355 0.37400001 9
14.4175 1.8815 0.30700001 9
14.4245 1.8815 0.303 9
14.4435 1.8845 0.29899999 9
14.4145 1.8635 0.28299999 9
14.4315 1.8745 0.28999999 9
14.4535 1.8945 0.30899999 9
14.4235 1.9355 0.38 9
14.4295 1.8685 0.28299999 9
14.4275 1.9395 0.38499999 9
14.4595 1.9115 0.33000001 9
14.4265 1.8775001 0.29800001 9
14.4105 1.8525 0.26899999 9
14.4605 1.9075 0.324 9
14.4515 1.8985 0.315 9
14.4355 1.8745 0.289 9
14.4215 1.8705 0.289 9
14.4295 1.9095 0.34099999 9
14.4425 1.9345 0.37099999 9
14.4205 1.9335001 0.37900001 9
14.4165 1.8595001 0.27599999 9
14.4125 1.8935 0.32600001 9
14.4305 1.8785 0.29699999 9
14.4355 1.9315 0.36899999 9
14.4235 1.9065 0.33899999 9
14.4225 1.8655 0.28200001 9
14.4345 1.8935 0.317 9
14.4225 1.9365 0.384 9
14.4355 1.8845 0.303 9
14.4505 1.9175 0.34200001 9
14.4155 1.9395 0.391 9
14.4425 1.9005001 0.32300001 9
14.4335 1.9234999 0.359 9
14.4455 1.9155 0.34200001 9
14.4675 1.9145 0.331 9
14.4655 1.9085 0.32300001 9
14.4355 1.9295 0.366 9
14.4425 1.9315 0.36700001 9
14.4525 1.9305 0.36000001 9
14.4325 1.9085 0.338 9
14.4135 1.8855 0.31400001 9
14.4465 1.9315 0.36500001 9
14.4345 1.8995 0.324 9
14.4265 1.9255 0.36500001 9
14.4455 1.8904999 0.30700001 9
14.4375 1.8755 0.28999999 9
14.4215 1.9285001 0.37099999 9
14.4475 1.9005001 0.31999999 9
14.4415 1.9295 0.36500001 9
14.4525 1.9335001 0.36399999 9
14.4665 1.9135 0.33000001 9
14.4245 1.8954999 0.324 9
14.4365 1.9305 0.36700001 9
14.4175 1.9025 0.33700001 9
14.4265 1.9245 0.36300001 9
14.4735 1.9285001 0.347 9
14.4985 1.9345 0.352 9
14.4745 1.9325 0.35600001 9
14.4585 1.9395 0.37400001 9
14.4525 1.9345 0.36700001 9
14.4695 1.9285001 0.34999999 9
14.4685 1.9395 0.37200001 9
14.4825 1.9275 0.34299999 9
14.4855 1.9395 0.366 9
14.4915 1.9365 0.359 9
14.4455 1.9365 0.373 9
14.4485 1.9395 0.377 9
14.4295 1.9435 0.38999999 9
14.4795 1.9285001 0.34599999 9
14.4795 1.9355 0.36000001 9
14.5185 1.9455 0.39399999 9
14.4545 1.9425 0.38600001 9
14.5155 1.9414999 0.373 9
14.5035 1.9445 0.38999999 9
14.5295 1.9435 0.37799999 9
14.4465 1.9425 0.38299999 9
14.5055 1.9464999 0.396 9
14.5275 1.9455 0.39199999 9
14.4945 1.9425 0.37799999 9
14.5105 1.9395 0.36399999 9
14.5065 1.9405 0.36899999 9
14.4205 1.9445 0.396 9
14.4835 1.9405 0.373 9
14.5055 1.9405 0.37099999 9
14.4945 1.9455 0.39500001 9
14.5075 1.9435 0.38100001 9
14.5105 1.9385 0.359 9
14.4565 1.9425 0.382 9
14.5545 1.9485 0.403 9
14.4265 1.9435 0.39399999 9
14.5185 1.9405 0.36899999 9
14.5275 1.9464999 0.39300001 9
14.5415 1.9455 0.38999999 9
14.4905 1.9445 0.38800001 9
14.5065 1.9435 0.38600001 9
14.4915 1.9395 0.36700001 9
14.5075 1.9445 0.389 9
14.5165 1.9445 0.38499999 9
14.5175 1.9445 0.38600001 9
14.5475 1.9464999 0.39399999 9
14.5045 1.9464999 0.39700001 9
14.4615 1.9445 0.39300001 9
14.5095 1.9445 0.38800001 9
14.4675 1.9435 0.38999999 9
14.4735 1.9815 0.414 9
14.4875 1.9665 0.41 9
14.5065 1.9635 0.40900001 9
14.4765 1.9825 0.414 9
14.5065 1.9675 0.41 9
14.5375 1.9585 0.40700001 9
14.4765 1.9735 0.412 9
14.5245 1.9615 0.40799999 9
14.5475 1.7295001 0.056000002 9
14.4885 1.7205 0.064999998 9
14.5145 1.7215 0.059 9
14.5405 1.7215 0.052000001 9
14.5535 1.7215 0.048999999 9
14.5785 1.7225 0.044 9
14.5395 1.7155 0.048 9
14.5175 1.7145 0.052999999 9
14.4995 1.7115 0.056000002 9
14.5645 1.7295001 0.052000001 9
14.5265 1.7145 0.050999999 9
14.5735 1.7305 0.050999999 9
14.5035 1.7115 0.055 9
14.5715 1.7235 0.046 9
14.5835 1.7265 0.045000002 9
14.5165 1.7194999 0.057 9
14.5145 1.7105 0.050999999 9
14.4885 1.7215 0.064999998 9
14.5475 1.7295001 0.057 9
14.4875 1.7285 0.071000002 9
14.5505 1.9615 0.40799999 9
14.5585 1.9765 0.41100001 9
14.5095 1.9855 0.414 9
14.5555 1.9655 0.40799999 9
14.4975 1.9855 0.41499999 9
14.5365 1.9645 0.40900001 9
14.5135 1.9855 0.414 9
14.5425 1.9585 0.40700001 9
14.5225 1.9694999 0.41 9
14.5525 1.9665 0.40900001 9
14.5175 1.9705 0.41 9
14.5395 1.9705 0.41 9
14.5105 1.9815 0.41299999 9
14.5605 1.9565001 0.40599999 9
14.5455 1.9775 0.412 9
14.5265 1.9855 0.414 9
14.5495 1.9825 0.41299999 9
14.5055 1.9565001 0.40599999 9
14.4605 1.9565001 0.40400001 9
14.4405 1.9515001 0.40099999 9
14.5095 1.9595 0.40799999 9
14.4445 1.9455 0.39899999 9
14.4445 1.9485 0.40000001 9
14.4765 1.9555 0.405 9
14.4855 1.9565001 0.405 9
14.4565 1.9625 0.40700001 9
14.4645 1.9495 0.40200001 9
14.4545 1.9575 0.405 9
14.4665 1.9595 0.40599999 9
14.4655 1.9535 0.40400001 9
14.4925 1.9605 0.40799999 9
14.4635 1.9665 0.40900001 9
14.4295 1.9475 0.39899999 9
14.4525 1.9575 0.405 9
14.5285 1.9485 0.403 9
14.4945 1.9595 0.40700001 9
14.5165 1.9585 0.40700001 9
14.4905 1.7095 0.41499999 9
14.4015 1.7055 0.417 9
14.4755 1.7085 0.41499999 9
14.4615 1.7075 0.41499999 9
14.4615 1.7194999 0.077 9
14.4365 1.7075 0.083999999 9
14.4635 1.7185 0.079999998 9
14.4765 1.7265 0.075000003 9
14.4755 1.7185 0.105 9
14.4595 1.7075 0.105 9
14.4675 1.7165 0.090999998 9
14.4705 1.7145 0.113 9
14.4665 1.7085 0.12800001 9
14.4655 1.7115 0.108 9
14.4605 1.7085 0.107 9
14.4695 1.7125 0.117 9
14.5145 1.7205 0.15800001 9
14.5055 1.7255 0.20200001 9
14.5235 1.7355 0.177 9
14.5105 1.7175 0.16500001 9
14.5255 1.7325 0.16500001 9
14.5215 1.7325 0.177 9
14.5185 1.7255 0.163 9
14.5145 1.7265 0.18099999 9
14.5065 1.7265 0.20299999 9
14.5245 1.7244999 0.14399999 9
14.5205 1.7345001 0.184 9
14.5035 1.7244999 0.205 9
14.5075 1.7255 0.197 9
14.5115 1.7165 0.15800001 9
14.5275 1.7305 0.15099999 9
14.5045 1.7225 0.19599999 9
14.5125 1.7335 0.205 9
14.5245 1.7285 0.155 9
14.4965 1.7185 0.20900001 9
14.5205 1.7265 0.161 9
14.5255 1.7315 0.16 9
14.5195 1.7315 0.176 9
14.4995 1.7135 0.184 9
14.5155 1.7215 0.161 9
14.4935 1.7155 0.207 9
14.5375 1.7345001 0.13500001 9
14.5215 1.7275 0.161 9
14.5365 1.7385 0.15000001 9
14.5585 1.7485 0.114 9
14.5135 1.7255 0.18000001 9
14.5135 1.7205 0.16500001 9
14.5105 1.7225 0.178 9
14.5535 1.7424999 0.11 9
14.5175 1.7335 0.189 9
14.5505 1.7405 0.114 9
14.5235 1.7285 0.15800001 9
14.4935 1.7155 0.208 9
14.5235 1.7375 0.186 9
14.5135 1.7205 0.164 9
14.5475 1.7445 0.13600001 9
14.5255 1.7385 0.18099999 9
14.5165 1.7235 0.164 9
14.5405 1.7424999 0.148 9
14.4415 1.7125 0.22499999 9
14.4215 1.7244999 0.20900001 9
14.4355 1.7155 0.22 9
14.4295 1.7155 0.213 9
14.5005 1.7215 0.123 9
14.5245 1.7244999 0.141 9
14.5145 1.7345001 0.090000004 9
14.5585 1.7474999 0.092 9
14.5235 1.7295001 0.12 9
14.5065 1.7295001 0.1 9
14.4795 1.7194999 0.104 9
14.4985 1.7265 0.101 9
14.4905 1.7285 0.085000001 9
14.5005 1.7205 0.126 9
14.4885 1.7095 0.15700001 9
14.5465 1.7445 0.089000002 9
14.5275 1.7375 0.093999997 9
14.4935 1.7095 0.163 9
14.4755 1.7155 0.117 9
14.5285 1.7335 0.11 9
14.5495 1.7435 0.094999999 9
14.4985 1.7235 0.113 9
14.4945 1.7095 0.161 9
14.5415 1.7415 0.094999999 9
14.5415 1.7435 0.086999997 9
14.4725 1.7115 0.12899999 9
14.4885 1.7255 0.092 9
14.4865 1.7194999 0.116 9
14.4835 1.7285 0.075000003 9
14.5465 1.7395 0.108 9
14.4965 1.7125 0.152 9
14.5355 1.7415 0.086999997 9
14.4975 1.7185 0.131 9
14.5055 1.7265 0.111 9
14.5095 1.7155 0.15800001 9
14.4935 1.7275 0.090000004 9
14.4925 1.7235 0.104 9
14.4775 1.7145 0.123 9
14.5185 1.7265 0.126 9
14.5275 1.7295001 0.125 9
14.4845 1.7285 0.079000004 9
14.5225 1.7365 0.090999998 9
14.4985 1.7285 0.093999997 9
14.4925 1.7194999 0.12 9
14.4965 1.7145 0.147 9
14.4915 1.7295001 0.082000002 9
14.5015 1.7305 0.092 9
14.4975 1.7185 0.133 9
14.5255 1.7244999 0.141 9
14.4905 1.7165 0.13 9
14.4775 1.7135 0.12800001 9
14.4915 1.7315 0.074000001 9
14.5095 1.7255 0.118 9
14.5215 1.7244999 0.13500001 9
14.4865 1.7215 0.105 9
14.5025 1.7125 0.16 9
14.4775 1.7105 0.14 9
14.4895 1.7175 0.125 9
14.4855 1.7095 0.152 9
14.5005 1.7335 0.077 9
14.5025 1.7275 0.103 9
14.5495 1.7435 0.094999999 9
14.5535 1.7424999 0.106 9
14.4865 1.7235 0.1 9
14.5115 1.7165 0.156 9
14.5095 1.7205 0.138 9
14.5045 1.7175 0.14399999 9
14.4895 1.7295001 0.079999998 9
14.4905 1.7235 0.26800001 9
14.4605 1.7155 0.242 9
14.4525 1.7305 0.23800001 9
14.4665 1.7175 0.24699999 9
14.4805 1.7145 0.25799999 9
14.4985 1.7215 0.27500001 9
14.4425 1.7265 0.229 9
14.4795 1.7175 0.25799999 9
14.4515 1.7115 0.233 9
14.4455 1.7155 0.229 9
14.4895 1.7235 0.26800001 9
14.4885 1.7255 0.26699999 9
14.4555 1.7145 0.237 9
14.4715 1.7085 0.249 9
14.5015 1.7165 0.27599999 9
14.4875 1.7105 0.26300001 9
14.5005 1.7225 0.27700001 9
14.4885 1.7115 0.264 9
14.4335 1.7205 0.22 9
14.4255 1.7285 0.215 9
14.4605 1.7235 0.243 9
14.4645 1.7205 0.24600001 9
14.4475 1.7095 0.229 9
14.5125 1.7125 0.294 9
14.5105 1.7175 0.28799999 9
14.5945 1.7385 0.40400001 9
14.5885 1.7365 0.40200001 9
14.5815 1.7295001 0.398 9
14.5945 1.7335 0.40200001 9
14.5915 1.7415 0.40400001 9
14.5935 1.7495 0.40599999 9
14.5935 1.7485 0.40599999 9
14.5795 1.7435 0.41299999 9
14.5545 1.7125 0.40599999 9
14.5775 1.7365 0.40799999 9
14.5815 1.7355 0.403 9
14.5645 1.7255 0.41 9
14.5745 1.7365 0.412 9
14.5935 1.7545 0.41100001 9
14.5565 1.7165 0.40900001 9
14.5945 1.7555 0.41100001 9
14.5895 1.7515 0.41299999 9
14.5815 1.7325 0.40000001 9
14.5855 1.7365 0.40099999 9
14.5875 1.7505 0.41299999 9
14.5655 1.7185 0.40200001 9
14.6065 1.7725 0.417 9
14.5595 1.7215 0.336 9
14.5385 1.7185 0.31600001 9
14.5475 1.7244999 0.322 9
14.5545 1.7255 0.32800001 9
14.5485 1.7244999 0.32300001 9
14.5665 1.7205 0.34299999 9
14.5635 1.7225 0.338 9
14.5385 1.7155 0.31799999 9
14.5305 1.7205 0.30700001 9
14.5195 1.7165 0.30000001 9
14.5175 1.7175 0.29699999 9
14.5215 1.7375 0.19499999 9
14.5575 1.7445 0.15800001 9
14.5395 1.7395 0.19 9
14.5425 1.7395 0.192 9
14.5545 1.7435 0.169 9
14.5615 1.7485 0.123 9
14.5485 1.7435 0.164 9
14.5445 1.7445 0.148 9
14.5545 1.7415 0.189 9
14.5555 1.7445 0.15899999 9
14.5645 1.7395 0.214 9
14.5575 1.7424999 0.183 9
14.5365 1.7375 0.211 9
14.5345 1.7375 0.206 9
14.5715 1.7424999 0.18700001 9
14.5375 1.7395 0.192 9
14.5525 1.7445 0.152 9
14.5575 1.7435 0.168 9
14.5545 1.7445 0.15800001 9
14.5255 1.7375 0.20100001 9
14.5605 1.7405 0.204 9
14.5545 1.7474999 0.12800001 9
14.5465 1.7405 0.18700001 9
14.5655 1.7445 0.16599999 9
14.5585 1.7465 0.139 9
14.5425 1.7424999 0.16599999 9
14.5555 1.7415 0.185 9
14.5535 1.7474999 0.126 9
14.5265 1.7385 0.191 9
14.5585 1.7405 0.20200001 9
14.5695 1.7424999 0.18799999 9
14.5655 1.7495 0.122 9
14.5665 1.7485 0.13 9
14.5705 1.7405 0.20900001 9
14.5615 1.7465 0.14399999 9
14.5545 1.7435 0.167 9
14.5415 1.7405 0.17900001 9
14.5455 1.7385 0.206 9
14.5315 1.7405 0.175 9
14.5555 1.7465 0.14 9
14.5635 1.7474999 0.138 9
14.5135 1.7345001 0.21600001 9
14.5695 1.7385 0.063000001 9
14.5435 1.7385 0.071000002 9
14.5025 1.7315 0.071999997 9
14.5735 1.7325 0.052999999 9
14.5815 1.7424999 0.066 9
14.5815 1.7405 0.063000001 9
14.5755 1.7465 0.074000001 9
14.5915 1.7385 0.057 9
14.5885 1.7345001 0.052000001 9
14.5655 1.7505 0.082999997 9
14.5555 1.7474999 0.081 9
14.5265 1.7385 0.075000003 9
14.5605 1.7385 0.064999998 9
14.5925 1.7375 0.054000001 9
14.5295 1.7315 0.064000003 9
14.5755 1.7435 0.068999998 9
14.5485 1.7445 0.079000004 9
14.5685 1.7424999 0.07 9
14.5365 1.7424999 0.079999998 9
14.5195 1.7325 0.068000004 9
14.5785 1.7474999 0.075999998 9
14.5435 1.7335 0.061999999 9
14.5805 1.7445 0.068999998 9
14.4435 1.9895 0.050000001 9
14.4835 1.9885 0.090999998 9
14.4215 1.9915 0.20299999 9
14.4245 1.9905 0.14300001 9
14.4165 1.9915 0.27399999 9
14.4525 1.9895 0.045000002 9
14.5035 1.9875 0.063000001 9
14.4005 1.9915 0.193 9
14.4035 1.9915 0.19499999 9
14.4985 1.9875 0.043000001 9
14.4395 1.9905 0.244 9
14.4205 1.9915 0.204 9
14.4085 1.9924999 0.29499999 9
14.4195 1.9915 0.28999999 9
14.4465 1.9895 0.15099999 9
14.4005 1.9915 0.122 9
14.4535 1.9895 0.11 9
14.4225 1.9905 0.13600001 9
14.4295 1.9905 0.092 9
14.4055 1.9915 0.242 9
14.4395 1.9905 0.22400001 9
14.4235 1.9905 0.066 9
14.4565 1.9895 0.186 9
14.4255 1.9905 0.043000001 9
14.4155 1.9915 0.266 9
14.4045 1.9924999 0.338 9
14.4135 1.9905 0.107 9
14.4385 1.9905 0.214 9
14.5095 1.9875 0.061000001 9
14.4075 1.9915 0.176 9
14.4675 1.9895 0.164 9
14.4185 1.9915 0.24699999 9
14.4845 1.9885 0.117 9
14.4605 1.9895 0.113 9
14.4455 1.9905 0.20299999 9
14.4395 1.9895 0.1 9
14.4365 1.9895 0.078000002 9
14.4365 1.9905 0.15899999 9
14.4145 1.9915 0.235 9
14.4035 1.9924999 0.33899999 9
14.4695 1.9895 0.118 9
14.4525 1.9895 0.068999998 9
14.4265 1.9895 0.032000002 9
14.4015 1.9905 0.055 9
14.4655 1.9895 0.18099999 9
14.4415 1.9905 0.227 9
14.4095 1.9905 0.07 9
14.4145 1.9905 0.037 9
14.4715 1.9885 0.064000003 9
14.4675 1.9885 0.037999999 9
14.4565 1.9895 0.064000003 9
14.4035 1.9915 0.24600001 9
14.4775 1.9885 0.082999997 9
14.4755 1.9885 0.139 9
14.4345 1.9895 0.086000003 9
14.4845 1.9885 0.108 9
14.4335 1.9905 0.15000001 9
14.4105 1.9924999 0.294 9
14.4585 1.9895 0.094999999 9
14.4195 1.9915 0.192 9
14.5125 1.9875 0.048 9
14.4375 1.9905 0.16500001 9
14.4225 1.9905 0.028999999 9
14.4585 1.9895 0.081 9
14.4195 1.9905 0.152 9
14.4065 1.9915 0.22499999 9
14.4075 1.9905 0.059999999 9
14.4285 1.9905 0.13 9
14.4245 1.9915 0.244 9
14.4475 1.9895 0.142 9
14.4055 1.9915 0.229 9
14.4015 1.9905 0.046 9
14.4435 1.9905 0.211 9
14.4075 1.9915 0.111 9
14.4555 1.9895 0.113 9
14.4145 1.9905 0.119 9
14.4155 1.9915 0.199 9
14.4595 1.9885 0.048 9
14.4865 1.9885 0.061999999 9
14.4175 1.9915 0.16599999 9
14.4695 1.9885 0.118 9
14.4465 1.9895 0.034000002 9
14.4115 1.9905 0.081 9
14.4125 1.9915 0.229 9
14.4475 1.9905 0.215 9
14.3985 1.9915 0.109 9
14.4045 1.9905 0.043000001 9
14.3995 1.9924999 0.34999999 9
14.3985 1.9915 0.1 9
14.4025 1.9915 0.19499999 9
14.4175 1.9915 0.168 9
14.4105 1.9924999 0.32300001 9
14.4605 1.9895 0.175 9
14.4035 1.9915 0.25299999 9
14.4395 1.9905 0.14 9
14.4425 1.9895 0.056000002 9
14.5125 1.9875 0.057999998 9
14.4235 1.9915 0.292 9
14.4575 1.9895 0.093000002 9
14.4225 1.9905 0.12 9
14.4005 1.9924999 0.28999999 9
14.4135 1.9915 0.148 9
14.4995 1.9875 0.066 9
14.4355 1.9905 0.24699999 9
14.4845 1.9885 0.097999997 9
14.4555 1.9895 0.12899999 9
14.3995 1.9924999 0.25799999 9
14.5225 1.9865 0.029999999 9
14.4415 1.9905 0.23100001 9
14.5205 1.9865 0.028000001 9
14.4625 1.9895 0.186 9
14.5075 1.9875 0.039999999 9
14.4805 1.9885 0.050999999 9
14.4535 1.9895 0.198 9
14.4605 1.9895 0.197 9
14.4735 1.9885 0.052999999 9
14.5095 1.9875 0.044 9
14.4055 1.9915 0.142 9
14.4295 1.9905 0.168 9
14.4005 1.9924999 0.35100001 9
14.4245 1.9905 0.168 9
14.4315 1.9905 0.083999999 9
14.4915 1.9885 0.090000004 9
14.4655 1.9895 0.178 9
14.4565 1.9895 0.054000001 9
14.4215 1.9905 0.147 9
14.4435 1.9905 0.221 9
14.4015 1.9915 0.092 9
14.4165 1.9905 0.098999999 9
14.4145 1.9915 0.25799999 9
14.4015 1.9915 0.21600001 9
14.4235 1.9915 0.285 9
14.4315 1.9895 0.052000001 9
14.4165 1.9905 0.154 9
14.4705 1.9895 0.13500001 9
14.4555 1.9895 0.111 9
14.4155 1.9905 0.101 9
14.4605 1.9895 0.094999999 9
14.4275 1.9895 0.032000002 9
14.4135 1.9915 0.20900001 9
14.4595 1.9895 0.066 9
14.4735 1.9885 0.064000003 9
14.4295 1.9905 0.15800001 9
14.5025 1.9875 0.044 9
14.4365 1.9905 0.13699999 9
14.4415 1.9895 0.107 9
14.4485 1.9895 0.112 9
14.4805 1.9885 0.046999998 9
14.4895 1.9875 0.037 9
14.3995 1.9915 0.083999999 9
14.3985 1.9924999 0.32600001 9
14.4175 1.9915 0.233 9
14.4165 1.9915 0.21799999 9
14.4825 1.9885 0.126 9
14.4085 1.9915 0.206 9
14.4395 1.9905 0.162 9
14.4405 1.9905 0.126 9
14.4965 1.9875 0.039999999 9
14.3985 1.9915 0.213 9
14.4875 1.9885 0.071999997 9
14.4535 1.9895 0.14399999 9
14.4615 1.9895 0.183 9
14.4615 1.9895 0.079999998 9
14.4415 1.9905 0.222 9
14.4875 1.9885 0.054000001 9
14.4265 1.9905 0.090000004 9
14.4305 1.9915 0.244 9
14.4135 1.9905 0.061000001 9
14.3985 1.9924999 0.301 9
14.4175 1.9905 0.121 9
14.4665 1.9885 0.037 9
14.4705 1.9885 0.104 9
14.4345 1.9905 0.25 9
14.4165 1.9905 0.149 9
14.4075 1.9915 0.15000001 9
14.3985 1.9915 0.075999998 9
14.4525 1.9895 0.14 9
14.4535 1.9895 0.109 9
14.4015 1.9924999 0.30199999 9
14.4095 1.9905 0.075000003 9
14.4455 1.9895 0.121 9
14.4055 1.9905 0.044 9
14.5095 1.9875 0.064000003 9
14.4315 1.9895 0.063000001 9
14.4975 1.9875 0.071000002 9
14.4005 1.9924999 0.259 9
14.4325 1.9905 0.234 9
14.4705 1.9885 0.039999999 9
14.4215 1.9905 0.133 9
14.4605 1.9895 0.071999997 9
14.4875 1.9885 0.061000001 9
14.4735 1.9895 0.145 9
14.4575 1.9895 0.086000003 9
14.4835 1.9885 0.035 9
14.4855 1.9885 0.131 9
14.4265 1.9905 0.061999999 9
14.4645 1.9885 0.059999999 9
14.4835 1.9885 0.123 9
14.4245 1.9905 0.125 9
14.4255 1.9915 0.264 9
14.4065 1.9915 0.198 9
14.4375 1.9905 0.107 9
14.4315 1.9905 0.226 9
14.4355 1.9905 0.21699999 9
14.4115 1.9915 0.26100001 9
14.4415 1.9905 0.18000001 9
14.4255 1.9905 0.119 9
14.4195 1.9905 0.041999999 9
14.4445 1.9895 0.106 9
14.4255 1.9915 0.235 9
14.4385 1.9905 0.17200001 9
14.4095 1.9905 0.046 9
14.5385 1.7345001 0.338 9
14.5395 1.7185 0.373 9
14.5255 1.7285 0.315 9
14.5415 1.7465 0.322 9
14.5455 1.7155 0.396 9
14.5445 1.7305 0.36399999 9
14.5235 1.7305 0.30500001 9
14.5305 1.7194999 0.345 9
14.5385 1.7165 0.373 9
14.5325 1.7285 0.33399999 9
14.5415 1.7355 0.34299999 9
14.5445 1.7165 0.391 9
14.5425 1.7145 0.38999999 9
14.5315 1.7385 0.31299999 9
14.5205 1.7235 0.31099999 9
14.5325 1.7205 0.34900001 9
14.5335 1.7215 0.352 9
14.5345 1.7395 0.31600001 9
14.5325 1.7295001 0.33199999 9
14.5345 1.7255 0.345 9
14.5385 1.7315 0.34200001 9
14.5415 1.7295001 0.35600001 9
14.5085 1.9875 0.074000001 9
14.4395 1.9905 0.36700001 9
14.5045 1.9875 0.204 9
14.5495 1.9855 0.278 9
14.4825 1.9885 0.18799999 9
14.4735 1.9895 0.31799999 9
14.5385 1.9855 0.361 9
14.4655 1.9895 0.28200001 9
14.4285 1.9915 0.31400001 9
14.5035 1.9875 0.18700001 9
14.4865 1.9885 0.171 9
14.5325 1.9865 0.132 9
14.4695 1.9895 0.229 9
14.4435 1.9905 0.30199999 9
14.5385 1.9855 0.26199999 9
14.4355 1.9905 0.34799999 9
14.4905 1.9885 0.154 9
14.5245 1.9865 0.093000002 9
14.5295 1.9865 0.183 9
14.4145 1.9915 0.338 9
14.4995 1.9875 0.28799999 9
14.5075 1.9875 0.36899999 9
14.4575 1.9895 0.285 9
14.4985 1.9875 0.25400001 9
14.5335 1.9865 0.082000002 9
14.5055 1.9875 0.27900001 9
14.4845 1.9885 0.36300001 9
14.5575 1.9845001 0.40000001 9
14.5065 1.9875 0.354 9
14.5405 1.9855 0.208 9
14.5025 1.9875 0.184 9
14.4195 1.9915 0.32600001 9
14.4305 1.9915 0.278 9
14.4605 1.9895 0.31799999 9
14.5015 1.9875 0.21799999 9
14.5185 1.9865 0.34599999 9
14.5345 1.9865 0.38100001 9
14.5185 1.9865 0.156 9
14.4535 1.9905 0.257 9
14.5345 1.9865 0.083999999 9
14.4845 1.9885 0.27700001 9
14.5275 1.9865 0.07 9
14.5425 1.9855 0.41100001 9
14.5375 1.9855 0.27500001 9
14.5245 1.9865 0.12800001 9
14.4765 1.9885 0.308 9
14.4555 1.9895 0.34999999 9
14.5185 1.9865 0.16599999 9
14.4555 1.9895 0.29899999 9
14.4605 1.9895 0.375 9
14.5025 1.9875 0.113 9
14.4985 1.9875 0.16 9
14.4895 1.9885 0.315 9
14.5415 1.9855 0.226 9
14.4635 1.9895 0.29300001 9
14.5305 1.9865 0.338 9
14.5315 1.9865 0.34599999 9
14.4405 1.9905 0.30000001 9
14.4205 1.9915 0.40700001 9
14.4355 1.9905 0.375 9
14.4885 1.9885 0.23999999 9
14.5195 1.9865 0.088 9
14.4705 1.9895 0.37599999 9
14.4275 1.9915 0.285 9
14.5045 1.9875 0.375 9
14.4585 1.9895 0.39399999 9
14.5505 1.9855 0.31200001 9
14.5345 1.9855 0.40200001 9
14.4475 1.9905 0.257 9
14.4485 1.9905 0.389 9
14.5125 1.9875 0.37799999 9
14.4855 1.9885 0.29100001 9
14.4355 1.9905 0.27200001 9
14.4735 1.9895 0.20299999 9
14.5195 1.9865 0.118 9
14.5575 1.9845001 0.31299999 9
14.4595 1.9895 0.228 9
14.4875 1.9885 0.29100001 9
14.4955 1.9875 0.36399999 9
14.4455 1.9905 0.31799999 9
14.5305 1.9865 0.108 9
14.4065 1.9924999 0.39399999 9
14.4695 1.9895 0.31600001 9
14.5375 1.9855 0.178 9
14.4705 1.9895 0.331 9
14.4635 1.9895 0.38100001 9
14.4805 1.9885 0.214 9
14.4995 1.9875 0.38499999 9
14.5225 1.9865 0.109 9
14.5165 1.9865 0.36500001 9
14.4755 1.9885 0.296 9
14.5405 1.9855 0.38999999 9
14.5305 1.9865 0.242 9
14.5135 1.9875 0.064000003 9
14.5285 1.9865 0.088 9
14.5365 1.9865 0.149 9
14.5495 1.9855 0.317 9
14.4995 1.9875 0.219 9
14.4375 1.9905 0.37599999 9
14.4425 1.9905 0.38999999 9
14.5015 1.9875 0.138 9
14.5025 1.9875 0.154 9
14.5495 1.9855 0.384 9
14.5215 1.9865 0.208 9
14.5125 1.9875 0.405 9
14.4715 1.9895 0.38699999 9
14.5045 1.9875 0.27399999 9
14.4665 1.9895 0.41299999 9
14.5365 1.9865 0.119 9
14.5245 1.9865 0.34799999 9
14.4415 1.9905 0.38100001 9
14.5115 1.9875 0.139 9
14.5255 1.9865 0.097999997 9
14.5075 1.9875 0.156 9
14.4245 1.9915 0.39399999 9
14.4985 1.9875 0.107 9
14.5345 1.9865 0.237 9
14.4745 1.9885 0.36199999 9
14.4825 1.9885 0.34099999 9
14.4675 1.9895 0.212 9
14.4505 1.9905 0.40000001 9
14.5245 1.9865 0.057 9
14.4025 1.9924999 0.41600001 9
14.4405 1.9905 0.40700001 9
14.5045 1.9875 0.377 9
14.4765 1.9885 0.23999999 9
14.5285 1.9865 0.32600001 9
14.4805 1.9885 0.38 9
14.5265 1.9865 0.176 9
14.4975 1.9875 0.17900001 9
14.4585 1.9895 0.26699999 9
14.5495 1.9855 0.38299999 9
14.4845 1.9885 0.34999999 9
14.4535 1.9905 0.266 9
14.4105 1.9924999 0.41100001 9
14.4675 1.9895 0.29499999 9
14.5025 1.9875 0.12 9
14.5065 1.9875 0.36000001 9
14.5395 1.9855 0.26300001 9
14.4955 1.9875 0.34299999 9
14.4835 1.9885 0.37099999 9
14.4295 1.9915 0.39199999 9
14.4225 1.9915 0.30899999 9
14.5085 1.9875 0.34099999 9
14.5145 1.9875 0.25999999 9
14.4205 1.9915 0.37400001 9
14.4335 1.9915 0.375 9
14.4955 1.9875 0.248 9
14.5225 1.9865 0.24699999 9
14.4305 1.9915 0.375 9
14.4545 1.9905 0.235 9
14.5575 1.9845001 0.34999999 9
14.4445 1.9905 0.36399999 9
14.5345 1.9865 0.35299999 9
14.4295 1.9915 0.36500001 9
14.4905 1.9885 0.186 9
14.4315 1.9915 0.368 9
14.4925 1.9885 0.22499999 9
14.5325 1.9865 0.38999999 9
14.4335 1.9905 0.391 9
14.4785 1.9885 0.241 9
14.4605 1.9895 0.27900001 9
14.4965 1.9875 0.29100001 9
14.5365 1.9855 0.324 9
14.5135 1.9875 0.373 9
14.4845 1.9885 0.32100001 9
14.4595 1.9895 0.40400001 9
14.5075 1.9875 0.28 9
14.5015 1.9875 0.22499999 9
14.5395 1.9855 0.237 9
14.4295 1.9915 0.384 9
14.4655 1.9895 0.333 9
14.5195 1.9865 0.39300001 9
14.4975 1.9875 0.31799999 9
14.5145 1.9865 0.403 9
14.5255 1.9865 0.068999998 9
14.4385 1.9905 0.26199999 9
14.5475 1.9855 0.40200001 9
14.4815 1.9885 0.214 9
14.5105 1.9875 0.29800001 9
14.5345 1.9865 0.15700001 9
14.5185 1.9865 0.26800001 9
14.4395 1.9905 0.41600001 9
14.5215 1.9865 0.046 9
14.5255 1.9865 0.1 9
14.5425 1.9855 0.17299999 9
14.5345 1.9865 0.086999997 9
14.5385 1.9855 0.40599999 9
14.5235 1.9865 0.19599999 9
14.5185 1.9865 0.223 9
14.4565 1.9895 0.25400001 9
14.5505 1.9855 0.322 9
14.5115 1.9875 0.377 9
14.4995 1.9875 0.31999999 9
14.4765 1.9885 0.39899999 9
14.5215 1.9865 0.31600001 9
14.5365 1.9855 0.25400001 9
14.5335 1.9865 0.30399999 9
14.5125 1.9875 0.233 9
14.5205 1.9865 0.093000002 9
14.4885 1.9885 0.145 9
14.4705 1.9895 0.36000001 9
14.4755 1.9885 0.35100001 9
14.4315 1.9915 0.31799999 9
14.4295 1.9915 0.32699999 9
14.5155 1.9865 0.336 9
14.5135 1.9875 0.333 9
14.4985 1.9875 0.25099999 9
14.5395 1.9855 0.17900001 9
14.5195 1.9865 0.30000001 9
14.4445 1.9905 0.33500001 9
14.5065 1.9875 0.361 9
14.5335 1.9865 0.138 9
14.4895 1.9885 0.37900001 9
14.5005 1.9875 0.108 9
14.4785 1.9885 0.169 9
14.5125 1.9875 0.19 9
14.5225 1.9865 0.057999998 9
14.4055 1.9924999 0.345 9
14.5065 1.9875 0.359 9
14.5395 1.9855 0.17200001 9
14.4505 1.9905 0.39899999 9
14.5115 1.9875 0.26300001 9
14.4885 1.9885 0.391 9
14.5425 1.9855 0.228 9
14.4415 1.9905 0.40400001 9
14.4885 1.9885 0.245 9
14.4725 1.9895 0.40099999 9
14.5215 1.9865 0.338 9
14.5105 1.9875 0.183 9
14.5425 1.9855 0.333 9
14.5235 1.9865 0.22499999 9
14.5145 1.9875 0.30700001 9
14.5345 1.9865 0.32300001 9
14.5225 1.9865 0.373 9
14.4895 1.9885 0.18700001 9
14.4515 1.9905 0.25600001 9
14.5335 1.9865 0.131 9
14.4935 1.9885 0.116 9
14.5505 1.9855 0.23199999 9
14.5215 1.9865 0.28099999 9
14.4835 1.9885 0.244 9
14.4475 1.9905 0.31600001 9
14.4785 1.9885 0.2 9
14.5265 1.9865 0.30599999 9
14.5015 1.9875 0.18000001 9
14.4635 1.9895 0.19499999 9
14.4745 1.9885 0.396 9
14.5255 1.9865 0.050000001 9
14.4695 1.9895 0.38499999 9
14.4085 1.9924999 0.377 9
14.4935 1.9885 0.315 9
14.4195 1.9915 0.396 9
14.4905 1.9885 0.131 9
14.5025 1.9875 0.39899999 9
14.4735 1.9895 0.212 9
14.4965 1.9875 0.34900001 9
14.4975 1.9875 0.142 9
14.5445 1.9855 0.30500001 9
14.4175 1.9915 0.352 9
14.4635 1.9895 0.391 9
14.5105 1.9875 0.19400001 9
14.4555 1.9895 0.26899999 9
14.5125 1.9875 0.244 9
14.4885 1.9885 0.396 9
14.5305 1.9865 0.259 9
14.4985 1.9875 0.36399999 9
14.5275 1.9865 0.398 9
14.4935 1.9885 0.185 9
14.5205 1.9865 0.059 9
14.5445 1.9855 0.183 9
14.4485 1.9905 0.29800001 9
14.4675 1.9895 0.26100001 9
14.4625 1.9895 0.41 9
14.4955 1.9885 0.212 9
14.5305 1.9865 0.26300001 9
14.4445 1.9905 0.29699999 9
14.5345 1.9855 0.412 9
14.4705 1.9895 0.31999999 9
14.5025 1.9875 0.149 9
14.4045 1.9924999 0.389 9
14.5225 1.9865 0.32300001 9
14.5605 1.9845001 0.33500001 9
14.5275 1.9865 0.167 9
14.4095 1.9924999 0.366 9
14.4935 1.9885 0.32499999 9
14.4595 1.9895 0.40400001 9
14.5165 1.9875 0.141 9
14.5275 1.9865 0.108 9
14.4125 1.9924999 0.35699999 9
14.4485 1.9905 0.245 9
