# .PCD v0.7 - Point Cloud Data file format
VERSION 0.7
FIELDS x y z label
SIZE 4 4 4 4
TYPE F F F U
COUNT 1 1 1 1
WIDTH 1716
HEIGHT 1
VIEWPOINT 0 0 0 1 0 0 0
POINTS 1716
DATA ascii
17.936501 0.91649997 0.23999999 9
17.953501 0.85350001 0.31299999 9
17.953501 0.85750002 0.31299999 9
17.9415 0.87550002 0.227 9
17.946501 0.86949998 0.266 9
17.9445 0.90850002 0.30500001 9
17.9545 0.8585 0.33000001 9
17.953501 0.87150002 0.34 9
17.9415 0.87449998 0.229 9
17.9575 0.85750002 0.361 9
17.9515 0.88050002 0.336 9
17.9415 0.88050002 0.237 9
17.939501 0.92049998 0.27399999 9
17.9515 0.85149997 0.294 9
17.9585 0.86150002 0.37 9
17.9375 0.90750003 0.234 9
17.9345 0.9465 0.26100001 9
17.959499 0.85949999 0.38 9
17.952499 0.8635 0.31799999 9
17.9555 0.86250001 0.34099999 9
17.946501 0.8725 0.273 9
17.9405 0.91750002 0.27700001 9
17.9505 0.8545 0.289 9
17.9345 0.92750001 0.233 9
17.939501 0.89349997 0.23800001 9
17.9475 0.87050003 0.28200001 9
17.9515 0.87550002 0.32699999 9
17.946501 0.88249999 0.28999999 9
17.9415 0.87150002 0.226 9
17.939501 0.88349998 0.21799999 9
17.938499 0.89850003 0.236 9
17.939501 0.9005 0.24699999 9
17.9345 0.93849999 0.249 9
17.9445 0.8725 0.25600001 9
17.946501 1.0355 0.33700001 9
17.939501 1.0075001 0.29699999 9
17.9485 1.0475 0.352 9
17.9475 1.0415 0.34 9
17.953501 1.0664999 0.38100001 9
17.936501 0.99349999 0.28200001 9
17.9405 1.0125 0.29800001 9
17.960501 0.9465 0.398 9
17.949499 0.97850001 0.347 9
17.9585 0.9885 0.39199999 9
17.9575 1.0195 0.39300001 9
17.9545 1.0545 0.38600001 9
17.956499 0.88950002 0.37200001 9
17.9575 0.98449999 0.389 9
17.945499 0.98449999 0.32699999 9
17.942499 0.95349997 0.30899999 9
17.9575 0.98949999 0.39199999 9
17.9405 0.9975 0.303 9
17.9615 0.89649999 0.39399999 9
17.9585 0.86949998 0.37799999 9
17.9555 0.90450001 0.366 9
17.9335 0.97250003 0.26499999 9
17.9375 0.97850001 0.287 9
17.953501 0.92150003 0.36199999 9
17.943501 1.0095 0.322 9
17.9405 1.0015 0.303 9
17.9575 0.9465 0.384 9
17.9515 0.91149998 0.347 9
17.9345 0.94849998 0.26499999 9
17.9545 0.96149999 0.36899999 9
17.9515 0.92650002 0.34799999 9
17.9415 0.98750001 0.308 9
17.9505 1.0235 0.359 9
17.9475 1.0095 0.34200001 9
17.963499 0.86150002 0.40200001 9
17.943501 0.96450001 0.31299999 9
17.945499 0.9325 0.317 9
17.946501 0.93550003 0.32600001 9
17.952499 0.98650002 0.366 9
17.945499 0.91850001 0.315 9
17.9515 0.91149998 0.34900001 9
17.959499 0.95450002 0.396 9
17.9615 0.90249997 0.39700001 9
17.942499 0.92650002 0.30199999 9
17.938499 0.98250002 0.29100001 9
17.9475 1.0395 0.347 9
17.953501 1.0465 0.37799999 9
17.9505 0.9005 0.34099999 9
17.932501 0.96649998 0.255 9
17.939501 0.96649998 0.294 9
17.952499 1.0255001 0.36700001 9
17.9415 0.92250001 0.29899999 9
17.959499 0.89950001 0.389 9
17.9505 0.95749998 0.34799999 9
17.9445 1.0085 0.324 9
17.9505 1.0165 0.35600001 9
17.938499 0.98750001 0.292 9
17.956499 1.0065 0.38699999 9
17.953501 1.0305001 0.37599999 9
17.9515 1.0385 0.366 9
17.9345 0.95850003 0.26800001 9
17.959499 0.9145 0.391 9
17.959499 0.89450002 0.38499999 9
17.9555 1.0695 0.39199999 9
17.9445 0.97049999 0.322 9
17.939501 0.95349997 0.294 9
17.942499 1.0115 0.315 9
17.9305 0.96350002 0.24699999 9
17.953501 0.93349999 0.36000001 9
17.9615 0.92250001 0.398 9
17.9485 1.0265 0.34799999 9
17.960501 0.92650002 0.398 9
17.9505 1.0355 0.36300001 9
17.960501 0.91149998 0.39500001 9
17.946501 0.9885 0.33500001 9
17.9485 1.0005 0.347 9
17.9585 0.9145 0.384 9
17.953501 0.96249998 0.36399999 9
17.936501 0.95950001 0.27500001 9
17.9515 0.89950001 0.347 9
17.9585 0.8955 0.384 9
17.959499 0.89950001 0.38499999 9
17.9405 0.98449999 0.30000001 9
17.956499 0.94050002 0.37900001 9
17.9625 0.87050003 0.39899999 9
17.946501 1.0204999 0.338 9
17.9545 0.95450002 0.36899999 9
17.946501 0.9375 0.32499999 9
17.9585 1.0145 0.39700001 9
17.938499 0.95450002 0.289 9
17.959499 0.88050002 0.38600001 9
17.946501 0.92449999 0.322 9
17.946501 1.0345 0.34099999 9
17.9375 0.94950002 0.28099999 9
17.9505 1.0305001 0.359 9
17.9415 0.93449998 0.301 9
17.952499 0.97850001 0.36399999 9
17.952499 0.89050001 0.352 9
17.946501 0.96950001 0.331 9
17.9555 1.0215 0.38600001 9
17.953501 0.9885 0.36899999 9
17.949499 0.93049997 0.34099999 9
17.9555 1.0545 0.38999999 9
17.9375 0.99449998 0.285 9
17.9415 0.9745 0.303 9
17.9335 0.95850003 0.25999999 9
17.9575 0.90549999 0.37599999 9
17.9575 0.90149999 0.377 9
17.952499 0.98650002 0.366 9
17.959499 0.94349998 0.39399999 9
17.946501 1.0275 0.33899999 9
17.9445 0.98949999 0.32499999 9
17.9555 0.92049998 0.37 9
17.956499 1.0015 0.38699999 9
17.9505 0.96350002 0.34799999 9
17.952499 1.0565 0.375 9
17.9585 0.92650002 0.38499999 9
17.9375 0.9375 0.27900001 9
17.9515 0.95649999 0.352 9
17.9545 0.99349999 0.373 9
17.9625 0.8635 0.396 9
17.952499 0.91350001 0.35499999 9
17.9445 0.91350001 0.31099999 9
17.9555 1.0505 0.389 9
17.9475 0.9145 0.329 9
17.9475 1.0215 0.345 9
17.959499 0.9325 0.38999999 9
17.960501 0.87949997 0.389 9
17.9445 0.95349997 0.317 9
17.9505 0.99250001 0.35600001 9
17.9405 0.99449998 0.30500001 9
17.956499 0.91149998 0.373 9
17.9405 0.99849999 0.301 9
17.949499 1.0145 0.35100001 9
17.952499 0.95749998 0.359 9
17.9555 0.92650002 0.37200001 9
17.9555 1.0625 0.38999999 9
17.959499 0.92449999 0.38999999 9
17.946501 0.98250002 0.33199999 9
17.9625 0.8915 0.40099999 9
17.953501 0.89450002 0.354 9
17.9485 0.98150003 0.34200001 9
17.959499 0.88249999 0.38299999 9
17.9545 0.93349999 0.36399999 9
17.9545 0.9145 0.366 9
17.9475 1.0285 0.34299999 9
17.936501 0.9885 0.27900001 9
17.949499 0.9145 0.33899999 9
17.938499 0.97750002 0.292 9
17.9575 0.9145 0.38 9
17.9585 0.87650001 0.37599999 9
17.949499 1.0085 0.35299999 9
17.942499 0.97149998 0.30899999 9
17.9585 0.9375 0.38600001 9
17.945499 1.0285 0.33399999 9
17.952499 0.9515 0.359 9
17.9555 1.0445 0.38800001 9
17.938499 0.9835 0.292 9
17.9485 0.98150003 0.34200001 9
17.9615 0.86549997 0.391 9
17.946501 0.96950001 0.333 9
17.9515 1.0245 0.36399999 9
17.9335 0.95550001 0.259 9
17.949499 1.0295 0.354 9
17.9585 0.89749998 0.384 9
17.9475 0.91850001 0.32499999 9
17.9505 1.0145 0.35600001 9
17.953501 0.99650002 0.37200001 9
17.9625 0.8585 0.398 9
17.953501 0.98750001 0.36700001 9
17.952499 0.96450001 0.35800001 9
17.946501 0.96450001 0.331 9
17.939501 0.93449998 0.289 9
17.945499 0.96950001 0.32499999 9
17.963499 0.86750001 0.40099999 9
17.959499 0.93849999 0.38999999 9
17.9515 0.9285 0.352 9
17.9575 1.0075001 0.39399999 9
17.936501 0.97850001 0.27900001 9
17.9515 0.95749998 0.35499999 9
17.9545 0.88550001 0.359 9
17.9485 0.98049998 0.34200001 9
17.956499 0.93650001 0.37799999 9
17.9375 0.96149999 0.28299999 9
17.9545 0.89050001 0.36000001 9
17.946501 0.93949997 0.32699999 9
17.9515 0.89450002 0.34299999 9
17.9555 1.0035 0.382 9
17.9415 0.97649997 0.30599999 9
17.953501 0.95950001 0.36300001 9
17.9585 0.99150002 0.39700001 9
17.9515 0.96749997 0.354 9
17.9445 0.9465 0.31799999 9
17.9575 1.0275 0.41100001 9
17.9615 0.93550003 0.41600001 9
17.956499 1.0705 0.39500001 9
17.959499 0.9975 0.40700001 9
17.9575 1.0484999 0.41800001 9
17.9625 0.92250001 0.435 9
17.9615 0.94550002 0.41499999 9
17.9615 0.94849998 0.43700001 9
17.9625 0.91049999 0.43900001 9
17.960501 0.96149999 0.40400001 9
17.959499 0.9975 0.421 9
17.9625 0.91549999 0.42899999 9
17.9625 0.92250001 0.42399999 9
17.9575 1.0505 0.41100001 9
17.959499 0.98250002 0.43200001 9
17.9615 0.92750001 0.421 9
17.960501 0.9655 0.43399999 9
17.9585 1.0175 0.42199999 9
17.963499 0.89050001 0.42399999 9
17.9585 1.0075001 0.419 9
17.959499 0.98750001 0.40599999 9
17.963499 0.88849998 0.41299999 9
17.9645 0.86449999 0.42899999 9
17.956499 1.0555 0.41499999 9
17.956499 1.0705 0.396 9
17.9645 0.86849999 0.43900001 9
17.9615 0.92949998 0.43399999 9
17.9625 0.91850001 0.44100001 9
17.9625 0.90850002 0.403 9
17.963499 0.89249998 0.44600001 9
17.959499 0.98049998 0.41299999 9
17.963499 0.88550001 0.414 9
17.9625 0.90850002 0.421 9
17.959499 0.97649997 0.41100001 9
17.9615 0.93049997 0.405 9
17.9655 0.84850001 0.44400001 9
17.9625 0.90149999 0.417 9
17.9615 0.9465 0.419 9
17.9585 1.0175 0.42300001 9
17.959499 0.97850001 0.41800001 9
17.963499 0.87150002 0.42399999 9
17.960501 0.96350002 0.42399999 9
17.959499 0.98049998 0.42699999 9
17.960501 0.97549999 0.41999999 9
17.9615 0.93449998 0.42699999 9
17.9575 1.0525 0.417 9
17.960501 0.96749997 0.412 9
17.9645 0.86150002 0.433 9
17.9625 0.90850002 0.433 9
17.9585 1.0025001 0.41499999 9
17.960501 0.94950002 0.42199999 9
17.960501 0.94950002 0.403 9
17.959499 0.97850001 0.403 9
17.9645 0.85949999 0.41800001 9
17.9625 0.89050001 0.40700001 9
17.9615 0.93449998 0.41 9
17.960501 0.95550001 0.41800001 9
17.960501 0.94950002 0.41499999 9
17.9645 0.84549999 0.412 9
17.9625 0.91549999 0.419 9
17.956499 1.0695 0.398 9
17.9575 1.0315 0.412 9
17.9625 0.90549999 0.403 9
17.963499 0.87150002 0.41999999 9
17.963499 0.8635 0.41 9
17.956499 1.0595 0.41 9
17.960501 0.95950001 0.40599999 9
17.9585 1.0035 0.412 9
17.960501 0.96850002 0.42899999 9
17.9575 1.0375 0.39899999 9
17.959499 0.97649997 0.403 9
17.960501 0.97149998 0.43399999 9
17.9575 1.0385 0.41299999 9
17.9615 0.9145 0.403 9
17.9645 0.86150002 0.43399999 9
17.956499 1.0675 0.41600001 9
17.956499 1.0625 0.41999999 9
17.956499 1.1325001 0.38600001 9
17.956499 1.0885 0.40099999 9
17.956499 1.0845 0.40400001 9
17.9555 1.1305 0.373 9
17.956499 1.0965 0.40599999 9
17.956499 1.1325001 0.384 9
17.956499 1.1275001 0.396 9
17.9555 1.0985 0.38800001 9
17.956499 1.1145 0.38999999 9
17.956499 1.0994999 0.40099999 9
17.956499 1.1115 0.396 9
17.9555 1.0895 0.39199999 9
17.9555 1.1185 0.377 9
17.956499 1.1055 0.39199999 9
17.956499 1.0765001 0.405 9
17.956499 1.1115 0.40099999 9
17.9555 1.1335 0.36899999 9
17.956499 1.0975 0.39199999 9
17.956499 1.1015 0.39899999 9
17.9555 1.1265 0.31400001 9
17.956499 1.1135 0.213 9
17.9555 1.1275001 0.32699999 9
17.956499 1.1155 0.24699999 9
17.956499 1.1205 0.34400001 9
17.956499 1.1135 0.331 9
17.956499 1.1224999 0.31799999 9
17.956499 1.1135 0.19400001 9
17.956499 1.1235 0.315 9
17.956499 1.1265 0.303 9
17.956499 1.1125 0.19 9
17.956499 1.1165 0.31200001 9
17.956499 1.1174999 0.35299999 9
17.956499 1.1155 0.31999999 9
17.956499 1.1235 0.28200001 9
17.956499 1.1155 0.33399999 9
17.9555 1.1275001 0.34400001 9
17.9555 1.1265 0.34599999 9
17.956499 1.1215 0.368 9
17.956499 0.83749998 0.396 9
17.956499 0.8175 0.396 9
17.9505 0.83950001 0.38800001 9
17.9685 0.83050001 0.41 9
17.9475 0.83249998 0.38499999 9
17.9585 0.83249998 0.398 9
17.943501 0.82550001 0.38 9
17.963499 0.83249998 0.405 9
17.9475 0.83450001 0.38499999 9
17.9645 0.82349998 0.405 9
17.9615 0.83350003 0.40099999 9
17.9555 0.83350003 0.39500001 9
17.938499 0.82550001 0.37400001 9
17.967501 0.82450002 0.40900001 9
17.943501 0.8545 0.229 9
17.943501 0.84149998 0.36000001 9
17.9485 0.8495 0.29800001 9
17.9505 0.85049999 0.29499999 9
17.9505 0.84249997 0.368 9
17.949499 0.84750003 0.32600001 9
17.939501 0.84350002 0.31999999 9
17.952499 0.84249997 0.38100001 9
17.928499 0.83749998 0.336 9
17.9555 0.84850001 0.34 9
17.952499 0.84850001 0.32699999 9
17.9275 0.83850002 0.32699999 9
17.932501 0.83850002 0.34900001 9
17.936501 0.84450001 0.29899999 9
17.9275 0.83950001 0.31299999 9
17.9415 0.83850002 0.375 9
17.9415 0.84350002 0.331 9
17.9405 0.84249997 0.338 9
17.9375 0.84350002 0.31400001 9
17.9475 0.84350002 0.35100001 9
17.946501 0.84750003 0.30899999 9
17.959499 0.84350002 0.39500001 9
17.9335 0.84649998 0.271 9
17.9375 0.84149998 0.333 9
17.9545 0.84649998 0.352 9
17.939501 0.84750003 0.287 9
17.936501 0.85049999 0.244 9
17.929501 0.84249997 0.29499999 9
17.949499 0.84149998 0.382 9
17.9275 0.83850002 0.31999999 9
17.942499 0.84649998 0.30500001 9
17.931499 0.84249997 0.30700001 9
17.929501 0.8405 0.31600001 9
17.943501 0.84750003 0.29899999 9
17.9335 0.84549999 0.27900001 9
17.9545 0.84750003 0.338 9
17.959499 0.84450001 0.38999999 9
17.943501 0.84850001 0.29300001 9
17.945499 0.84450001 0.336 9
17.9305 0.83850002 0.33399999 9
17.540501 1.0755 0.111 9
17.5515 1.0755 0.114 9
17.574499 1.0955 0.077 9
17.5595 1.1115 0.032000002 9
17.557501 1.1115 0.033 9
17.567499 1.1015 0.059999999 9
17.567499 1.0985 0.066 9
17.5515 1.0885 0.083999999 9
17.5755 1.0975 0.072999999 9
17.5665 1.1075 0.046999998 9
17.568501 1.0944999 0.078000002 9
17.5665 1.0994999 0.064000003 9
17.5515 1.1015 0.054000001 9
17.563499 1.1005 0.059999999 9
17.561501 1.1055 0.050000001 9
17.546499 1.0845 0.090999998 9
17.5445 1.0815001 0.097999997 9
17.557501 1.0885 0.086999997 9
17.553499 1.0875 0.086000003 9
17.546499 1.0815001 0.097999997 9
17.556499 1.0795 0.107 9
17.568501 1.0895 0.089000002 9
17.5485 1.0805 0.102 9
17.570499 1.1015 0.061000001 9
17.563499 1.1105 0.037999999 9
17.5795 1.1085 0.264 9
17.6985 1.0944999 0.31200001 9
17.623501 1.1005 0.21699999 9
17.637501 1.1005 0.25799999 9
17.619499 1.1045001 0.292 9
17.703501 1.0965 0.366 9
17.574499 1.1055 0.17900001 9
17.6005 1.1015 0.17200001 9
17.6385 1.1005 0.259 9
17.574499 1.1065 0.205 9
17.668501 1.0955 0.24699999 9
17.584499 1.1055 0.20999999 9
17.6695 1.0955 0.25400001 9
17.5735 1.1085 0.235 9
17.6355 1.0994999 0.23999999 9
17.606501 1.1005 0.16599999 9
17.602501 1.1015 0.18000001 9
17.612499 1.1055 0.28600001 9
17.619499 1.1025 0.249 9
17.6035 1.0994999 0.13600001 9
17.647499 1.0975 0.235 9
17.599501 1.1005 0.155 9
17.5805 1.1045001 0.18700001 9
17.6325 1.0994999 0.21799999 9
17.6415 1.1015 0.28799999 9
17.7155 1.0925 0.324 9
17.717501 1.0944999 0.36500001 9
17.577499 1.1075 0.237 9
17.636499 1.1005 0.249 9
17.5945 1.0985 0.102 9
17.6835 1.0975 0.32300001 9
17.612499 1.0975 0.12800001 9
17.584499 1.1035 0.169 9
17.682501 1.0944999 0.271 9
17.6875 1.0955 0.30000001 9
17.6385 1.1025 0.29699999 9
17.650499 1.0975 0.233 9
17.599501 1.0994999 0.12899999 9
17.5805 1.1055 0.191 9
17.627501 1.1005 0.233 9
17.622499 1.1005 0.227 9
17.6045 1.1045001 0.252 9
17.731501 1.0925 0.37200001 9
17.6175 1.1045001 0.28600001 9
17.6985 1.0965 0.345 9
17.5895 1.0994999 0.093999997 9
17.6735 1.0965 0.28400001 9
17.717501 1.0944999 0.36000001 9
17.5865 1.1025 0.155 9
17.605499 1.1065 0.289 9
17.6635 1.0965 0.25099999 9
17.633499 1.1015 0.26499999 9
17.654499 1.1005 0.30899999 9
17.585501 1.1065 0.22499999 9
17.699499 1.0965 0.35100001 9
17.581499 1.1055 0.204 9
17.6945 1.0955 0.324 9
17.7005 1.0935 0.30399999 9
17.685499 1.0955 0.30000001 9
17.6565 1.0994999 0.287 9
17.6745 1.0994999 0.354 9
17.6005 1.1055 0.26300001 9
17.592501 1.1065 0.24699999 9
17.651501 1.1015 0.31799999 9
17.727501 1.0935 0.37099999 9
17.637501 1.1035 0.317 9
17.695499 1.0935 0.28299999 9
17.6635 1.0994999 0.31200001 9
17.6035 1.0994999 0.138 9
17.6035 1.1035 0.23100001 9
17.616501 1.1005 0.19 9
17.661501 1.0994999 0.30000001 9
17.6035 1.1055 0.26800001 9
17.6985 1.0944999 0.30000001 9
17.5975 1.1075 0.285 9
17.606501 1.1055 0.28299999 9
17.6905 1.0955 0.29899999 9
17.6355 1.1015 0.26899999 9
17.5835 1.1085 0.26699999 9
17.633499 1.0965 0.17 9
17.6425 1.1015 0.301 9
17.626499 1.1015 0.24699999 9
17.657499 1.0985 0.278 9
17.616501 1.1025 0.236 9
17.661501 1.1015 0.34299999 9
17.7015 1.0944999 0.31400001 9
17.5795 1.1085 0.25999999 9
17.5975 1.1005 0.149 9
17.5695 1.1095001 0.249 9
17.627501 1.0985 0.19499999 9
17.675501 1.0965 0.29499999 9
17.6565 1.0965 0.22 9
17.584499 1.0994999 0.083999999 9
17.626499 1.0994999 0.213 9
17.629499 1.1015 0.26800001 9
17.6215 1.1045001 0.30199999 9
17.661501 1.0975 0.27599999 9
17.6565 1.0985 0.273 9
17.6765 1.0985 0.32699999 9
17.584499 1.1065 0.226 9
17.616501 1.1025 0.244 9
17.5805 1.1035 0.15099999 9
17.585501 1.1035 0.163 9
17.6565 1.0965 0.23800001 9
17.6185 1.0975 0.142 9
17.578501 1.1035 0.15700001 9
17.5765 1.1075 0.234 9
17.636499 1.1025 0.30399999 9
17.595501 1.0994999 0.112 9
17.6325 1.0975 0.183 9
17.6625 1.1005 0.33700001 9
17.619499 1.0985 0.168 9
17.612499 1.0994999 0.162 9
17.7145 1.0935 0.329 9
17.6245 1.1005 0.227 9
17.6115 1.1045001 0.271 9
17.6285 1.1035 0.289 9
17.6355 1.1015 0.28200001 9
17.6565 1.0985 0.278 9
17.6035 1.0994999 0.152 9
17.686501 1.0955 0.28999999 9
17.577499 1.1085 0.25799999 9
17.654499 1.1005 0.30599999 9
17.606501 1.1055 0.28099999 9
17.6185 1.0975 0.15000001 9
17.619499 1.0994999 0.192 9
17.6115 1.0975 0.131 9
17.588499 1.1025 0.168 9
17.622499 1.0975 0.15000001 9
17.626499 1.0975 0.16 9
17.5665 1.1105 0.25600001 9
17.6215 1.0994999 0.19599999 9
17.723499 1.0925 0.34099999 9
17.678499 1.0994999 0.35699999 9
17.629499 1.1045001 0.31099999 9
17.6665 1.0965 0.25600001 9
17.577499 1.1045001 0.161 9
17.6565 1.0994999 0.29899999 9
17.658501 1.1005 0.31099999 9
17.688499 1.0985 0.359 9
17.627501 1.0985 0.19499999 9
17.612499 1.1055 0.29800001 9
17.626499 1.1005 0.22400001 9
17.5965 1.1075 0.285 9
17.6285 1.1035 0.301 9
17.598499 1.1055 0.25799999 9
17.650499 1.0965 0.215 9
17.675501 1.0965 0.29100001 9
17.6355 1.0965 0.176 9
17.6355 1.1015 0.264 9
17.5825 1.1005 0.109 9
17.685499 1.0955 0.30199999 9
17.637501 1.1035 0.32100001 9
17.7085 1.0944999 0.34099999 9
17.588499 1.1055 0.226 9
17.7045 1.0944999 0.324 9
17.584499 1.1005 0.103 9
17.695499 1.0955 0.32800001 9
17.592501 1.1055 0.237 9
17.623501 1.1045001 0.30700001 9
17.6835 1.0965 0.308 9
17.693501 1.0955 0.315 9
17.693501 1.0985 0.37200001 9
17.581499 1.1035 0.171 9
17.7055 1.0935 0.30700001 9
17.585501 1.1075 0.244 9
17.668501 1.0965 0.264 9
17.6175 1.0975 0.15099999 9
17.570499 1.1095001 0.25 9
17.6245 1.0994999 0.198 9
17.5835 1.1035 0.15800001 9
17.6215 1.1015 0.23899999 9
17.6245 1.1005 0.233 9
17.668501 1.0944999 0.233 9
17.584499 1.1005 0.112 9
17.665501 1.0965 0.257 9
17.6115 1.0994999 0.15899999 9
17.6115 1.1035 0.249 9
17.727501 1.0935 0.375 9
17.647499 1.1005 0.285 9
17.668501 1.0965 0.257 9
17.6145 1.0975 0.14 9
17.6045 1.1055 0.259 9
17.634501 1.1025 0.28999999 9
17.588499 1.1075 0.26499999 9
17.616501 1.1015 0.212 9
17.6355 1.1005 0.25600001 9
17.6175 1.1005 0.19499999 9
17.629499 1.1005 0.228 9
17.5975 1.0994999 0.127 9
17.5875 1.0994999 0.094999999 9
17.6175 1.1055 0.294 9
17.574499 1.1065 0.19400001 9
17.6945 1.0955 0.322 9
17.613501 1.1055 0.292 9
17.6115 1.0994999 0.043000001 9
17.689501 1.0835 0.041000001 9
17.5865 1.1085 0.029999999 9
17.6005 1.1005 0.048 9
17.5895 1.1055 0.039999999 9
17.578501 1.1075 0.041999999 9
17.5825 1.1005 0.068000004 9
17.6105 1.0985 0.048999999 9
17.710501 1.0775 0.043000001 9
17.6325 1.0935 0.050000001 9
17.5975 1.1045001 0.035999998 9
17.5835 1.0994999 0.068999998 9
17.5795 1.1095001 0.029999999 9
17.720501 1.0765001 0.039000001 9
17.577499 1.1045001 0.055 9
17.657499 1.0895 0.041999999 9
17.647499 1.0905 0.048999999 9
17.588499 1.1075 0.034000002 9
17.644501 1.0915 0.046999998 9
17.591499 1.1015 0.052000001 9
17.5795 1.1085 0.037999999 9
17.6455 1.0944999 0.032000002 9
17.6455 1.0944999 0.034000002 9
17.581499 1.1035 0.056000002 9
17.636499 1.0975 0.030999999 9
17.609501 1.1005 0.043000001 9
17.6075 1.1035 0.028999999 9
17.6145 1.0944999 0.061999999 9
17.5945 1.1005 0.056000002 9
17.640499 1.0905 0.054000001 9
17.6005 1.1015 0.046 9
17.681499 1.0865 0.033 9
17.6325 1.0965 0.035999998 9
17.5735 1.1085 0.043000001 9
17.599501 1.1035 0.039999999 9
17.5735 1.1095001 0.035 9
17.5975 1.1015 0.048 9
17.7295 1.0735 0.041999999 9
17.584499 1.1035 0.050999999 9
17.6535 1.0895 0.046999998 9
17.6705 1.0895 0.032000002 9
17.5975 1.1065 0.028999999 9
17.602501 1.0975 0.061000001 9
17.630501 1.0935 0.050999999 9
17.650499 1.0905 0.048 9
17.7185 1.0765001 0.039999999 9
17.6215 1.0925 0.061999999 9
17.6875 1.0815001 0.050999999 9
17.6325 1.0915 0.059999999 9
17.7465 1.0685 0.40900001 9
17.7505 1.0735 0.40200001 9
17.747499 1.0664999 0.41100001 9
17.748501 1.0875 0.38600001 9
17.7195 1.0845 0.39300001 9
17.7285 1.0745 0.40400001 9
17.7285 1.0915 0.384 9
17.727501 1.0795 0.39899999 9
17.7435 1.0795 0.396 9
17.7085 1.0955 0.382 9
17.7185 1.0875 0.389 9
17.7435 1.0645 0.414 9
17.744499 1.0905 0.382 9
17.7335 1.0905 0.38499999 9
17.7435 1.0785 0.39700001 9
17.7045 1.0944999 0.384 9
17.7285 1.0795 0.398 9
17.737499 1.0735 0.40400001 9
17.7125 1.0815001 0.13 9
17.6255 1.0925 0.083999999 9
17.716499 1.0865 0.223 9
17.7325 1.0815001 0.17299999 9
17.688499 1.0905 0.214 9
17.6635 1.0855 0.061999999 9
17.727501 1.0875 0.27000001 9
17.6915 1.0875 0.175 9
17.7425 1.0835 0.23800001 9
17.717501 1.0925 0.315 9
17.748501 1.0755 0.114 9
17.7085 1.0785 0.064999998 9
17.6325 1.0925 0.097999997 9
17.7075 1.0905 0.26800001 9
17.6145 1.0965 0.123 9
17.640499 1.0905 0.078000002 9
17.620501 1.0955 0.117 9
17.6765 1.0865 0.105 9
17.657499 1.0944999 0.19400001 9
17.630501 1.0925 0.082000002 9
17.6705 1.0944999 0.234 9
17.747499 1.0785 0.16500001 9
17.7185 1.0815001 0.13600001 9
17.7435 1.0865 0.28999999 9
17.630501 1.0944999 0.121 9
17.724501 1.0875 0.252 9
17.6805 1.0835 0.077 9
17.7015 1.0885 0.21600001 9
17.740499 1.0735 0.064000003 9
17.643499 1.0885 0.061000001 9
17.7395 1.0795 0.169 9
17.737499 1.0745 0.071999997 9
17.6765 1.0895 0.16 9
17.6765 1.0915 0.2 9
17.6285 1.0935 0.093999997 9
17.675501 1.0845 0.071999997 9
17.650499 1.0885 0.07 9
17.6875 1.0925 0.23899999 9
17.6325 1.0925 0.102 9
17.6635 1.0895 0.13500001 9
17.6735 1.0944999 0.23800001 9
17.681499 1.0905 0.192 9
17.6565 1.0905 0.131 9
17.6315 1.0944999 0.12 9
17.723499 1.0805 0.132 9
17.7355 1.0795 0.156 9
17.6465 1.0925 0.13 9
17.7465 1.0835 0.25400001 9
17.745501 1.0765001 0.121 9
17.7055 1.0835 0.134 9
17.7255 1.0855 0.23199999 9
17.699499 1.0805 0.064999998 9
17.7435 1.0815001 0.207 9
17.6595 1.0885 0.106 9
17.7125 1.0835 0.163 9
17.699499 1.0795 0.055 9
17.717501 1.0865 0.226 9
17.717501 1.0795 0.105 9
17.668501 1.0925 0.18700001 9
17.6525 1.0915 0.131 9
17.706499 1.0915 0.273 9
17.637501 1.0965 0.171 9
17.644501 1.0905 0.086999997 9
17.723499 1.0785 0.104 9
17.745501 1.0905 0.36700001 9
17.7295 1.0885 0.29499999 9
17.6945 1.0835 0.118 9
17.748501 1.0705 0.039000001 9
17.738501 1.0745 0.072999999 9
17.713499 1.0785 0.075999998 9
17.6555 1.0935 0.168 9
17.7335 1.0815001 0.18099999 9
17.6245 1.0955 0.126 9
17.654499 1.0925 0.145 9
17.661501 1.0915 0.15000001 9
17.7365 1.0895 0.322 9
17.7155 1.0875 0.23999999 9
17.720501 1.0795 0.118 9
17.6845 1.0825 0.059 9
17.699499 1.0845 0.138 9
17.7435 1.0735 0.068999998 9
17.6245 1.0944999 0.109 9
17.723499 1.0925 0.329 9
17.745501 1.0895 0.35299999 9
17.623501 1.0925 0.068999998 9
17.692499 1.0855 0.133 9
17.709499 1.0865 0.20100001 9
17.7115 1.0865 0.211 9
17.745501 1.0785 0.15700001 9
17.7005 1.0825 0.116 9
17.740499 1.0885 0.31099999 9
17.6945 1.0925 0.25799999 9
17.7465 1.0785 0.167 9
17.703501 1.0925 0.29300001 9
17.6485 1.0944999 0.176 9
17.724501 1.0805 0.14399999 9
17.6175 1.0955 0.113 9
17.6875 1.0905 0.20999999 9
17.6915 1.0835 0.103 9
17.7335 1.0885 0.29300001 9
17.748501 1.0765001 0.14 9
17.740499 1.0875 0.296 9
17.703501 1.0875 0.19400001 9
17.679501 1.0905 0.191 9
17.713499 1.0915 0.28999999 9
17.6385 1.0925 0.111 9
17.7005 1.0925 0.26899999 9
17.6595 1.0915 0.15099999 9
17.734501 1.0815001 0.18799999 9
17.7435 1.0765001 0.127 9
17.6975 1.0835 0.12 9
17.737499 1.0735 0.059 9
17.6695 1.0865 0.089000002 9
17.727501 1.0765001 0.078000002 9
17.740499 1.0765001 0.116 9
17.626499 1.0944999 0.115 9
17.6625 1.0875 0.083999999 9
17.7255 1.0765001 0.078000002 9
17.720501 1.0865 0.236 9
17.740499 1.0835 0.223 9
17.7015 1.0895 0.22400001 9
17.702499 1.0845 0.14300001 9
17.637501 1.0944999 0.145 9
17.6315 1.0925 0.094999999 9
17.636499 1.0955 0.156 9
17.6605 1.0915 0.156 9
17.745501 1.0805 0.2 9
17.637501 1.0944999 0.146 9
17.709499 1.0835 0.142 9
17.6355 1.0905 0.063000001 9
17.709499 1.0865 0.2 9
17.709499 1.0775 0.048 9
17.696501 1.0845 0.133 9
17.6745 1.0875 0.123 9
17.7435 1.0815001 0.215 9
17.740499 1.0905 0.34299999 9
17.7115 1.0805 0.097999997 9
17.713499 1.0825 0.141 9
17.7335 1.0865 0.25799999 9
17.723499 1.0875 0.255 9
17.716499 1.0865 0.212 9
17.7125 1.0875 0.227 9
17.6775 1.0855 0.104 9
17.661501 1.0905 0.14300001 9
17.675501 1.0885 0.13600001 9
17.672501 1.0935 0.215 9
17.6845 1.0815001 0.052999999 9
17.675501 1.0885 0.148 9
17.7365 1.0815001 0.18099999 9
17.7125 1.0855 0.19 9
17.7395 1.0895 0.33700001 9
17.703501 1.0815001 0.094999999 9
17.703501 1.0805 0.075999998 9
17.6665 1.0865 0.088 9
17.6415 1.0925 0.118 9
17.6705 1.0935 0.20900001 9
17.720501 1.0895 0.28400001 9
17.702499 1.0855 0.15800001 9
17.716499 1.0835 0.164 9
17.702499 1.0805 0.082000002 9
17.6975 1.0865 0.168 9
17.668501 1.0885 0.127 9
17.702499 1.0915 0.271 9
17.7435 1.0905 0.35299999 9
17.692499 1.0825 0.086000003 9
17.6285 1.0925 0.090999998 9
17.710501 1.0825 0.14399999 9
17.6535 1.0935 0.169 9
17.7185 1.0875 0.242 9
17.7215 1.0765001 0.064000003 9
17.7395 1.0785 0.138 9
17.702499 1.0885 0.215 9
17.688499 1.0835 0.1 9
17.737499 1.0755 0.088 9
17.692499 1.0915 0.23800001 9
17.7075 1.0875 0.21600001 9
17.629499 1.0965 0.156 9
17.689501 1.0865 0.14399999 9
17.7055 1.0795 0.063000001 9
17.6485 1.0915 0.12800001 9
17.727501 1.0765001 0.077 9
17.6905 1.0825 0.075000003 9
17.664499 1.0875 0.105 9
17.6495 1.0915 0.12800001 9
17.7335 1.0895 0.32300001 9
17.741501 1.0825 0.219 9
17.692499 1.0835 0.109 9
17.6595 1.0935 0.184 9
17.675501 1.0875 0.122 9
17.622499 1.0935 0.086999997 9
17.6835 1.0895 0.176 9
17.7195 1.0805 0.119 9
17.6695 1.0855 0.072999999 9
17.6555 1.0885 0.086000003 9
17.6805 1.0875 0.132 9
17.720501 1.0815001 0.13600001 9
17.7075 1.0875 0.207 9
17.6185 1.0935 0.079000004 9
17.647499 1.0905 0.094999999 9
17.7015 1.0885 0.206 9
17.740499 1.0735 0.064999998 9
17.630501 1.0965 0.152 9
17.6485 1.0935 0.161 9
17.727501 1.0845 0.207 9
17.734501 1.0875 0.28600001 9
17.633499 1.0905 0.068999998 9
17.716499 1.0885 0.25400001 9
17.7085 1.0885 0.23 9
17.716499 1.0885 0.259 9
17.682501 1.0865 0.12899999 9
17.644501 1.0955 0.18000001 9
17.620501 1.0955 0.112 9
17.740499 1.0765001 0.116 9
17.6915 1.0805 0.057 9
17.619499 1.0935 0.083999999 9
17.640499 1.0925 0.111 9
17.6705 1.0865 0.090999998 9
17.7085 1.0835 0.14399999 9
17.6985 1.0905 0.244 9
17.6605 1.0944999 0.208 9
17.6695 1.0845 0.064000003 9
17.741501 1.0725 0.052999999 9
17.737499 1.0895 0.32300001 9
17.7265 1.0885 0.287 9
17.734501 1.0805 0.15899999 9
17.7185 1.0855 0.2 9
17.6525 1.0905 0.114 9
17.696501 1.0845 0.122 9
17.6905 1.0915 0.23 9
17.6985 1.0835 0.119 9
17.6985 1.0845 0.14300001 9
17.706499 1.0845 0.16500001 9
17.650499 1.0944999 0.182 9
17.688499 1.0935 0.26499999 9
17.703501 1.0885 0.212 9
17.7425 1.0875 0.30399999 9
17.661501 1.0865 0.067000002 9
17.738501 1.0785 0.13500001 9
17.6115 1.0944999 0.079000004 9
17.693501 1.0865 0.16500001 9
17.6315 1.0955 0.14399999 9
17.6565 1.0915 0.145 9
17.6915 1.0805 0.059999999 9
17.745501 1.0895 0.347 9
17.710501 1.0865 0.198 9
17.6735 1.0875 0.119 9
17.7015 1.0825 0.106 9
17.7295 1.0785 0.112 9
17.7435 1.0714999 0.041999999 9
17.7395 1.0905 0.34 9
17.744499 1.0735 0.071999997 9
17.7015 1.0815001 0.101 9
17.7395 1.0745 0.082999997 9
17.727501 1.0835 0.206 9
17.7255 1.0885 0.27900001 9
17.737499 1.0895 0.32100001 9
17.7125 1.0865 0.207 9
17.6495 1.0944999 0.18000001 9
17.7055 1.0795 0.075999998 9
17.745501 1.0855 0.28200001 9
17.7155 1.0915 0.30199999 9
17.7325 1.0845 0.233 9
17.7435 1.0805 0.18700001 9
17.681499 1.0915 0.215 9
17.654499 1.0935 0.17399999 9
17.693501 1.0905 0.221 9
17.7325 1.0795 0.14 9
17.7355 1.0905 0.34099999 9
17.748501 1.0745 0.092 9
17.658501 1.0944999 0.19499999 9
17.651501 1.0944999 0.184 9
17.693501 1.0855 0.147 9
17.720501 1.0865 0.23 9
17.634501 1.0955 0.147 9
17.6915 1.0825 0.085000001 9
17.7085 1.0895 0.255 9
17.6115 1.0955 0.090999998 9
17.658501 1.0885 0.090999998 9
17.620501 1.0935 0.086000003 9
17.643499 1.0935 0.139 9
17.7145 1.0905 0.287 9
17.640499 1.0955 0.162 9
17.6905 1.0845 0.112 9
17.6535 1.0944999 0.19400001 9
17.737499 1.0865 0.26699999 9
17.6775 1.0875 0.131 9
17.751499 1.0885 0.317 9
17.7715 1.0985 0.389 9
17.7815 1.0994999 0.34999999 9
17.748501 1.0855 0.28999999 9
17.782499 1.1015 0.37099999 9
17.7735 1.0915 0.26499999 9
17.7745 1.0925 0.26800001 9
17.7715 1.0935 0.303 9
17.759501 1.0895 0.30199999 9
17.775499 1.0944999 0.28999999 9
17.7495 1.0725 0.071000002 9
17.768499 1.0944999 0.336 9
17.755501 1.0775 0.115 9
17.765499 1.0875 0.226 9
17.754499 1.0925 0.36500001 9
17.7535 1.0855 0.255 9
17.775499 1.1005 0.38600001 9
17.7565 1.0865 0.266 9
17.762501 1.0935 0.345 9
17.7715 1.0985 0.38800001 9
17.755501 1.0925 0.36700001 9
17.7495 1.0775 0.14 9
17.7565 1.0775 0.121 9
17.7605 1.0895 0.289 9
17.761499 1.0825 0.176 9
17.751499 1.0895 0.34099999 9
17.7605 1.0855 0.227 9
17.7735 1.0985 0.37799999 9
17.7665 1.0944999 0.34099999 9
17.7535 1.0825 0.205 9
17.762501 1.0835 0.18000001 9
17.782499 1.1005 0.361 9
17.748501 1.0895 0.35600001 9
17.7745 1.0944999 0.296 9
17.769501 1.0865 0.2 9
17.759501 1.0855 0.22499999 9
17.7715 1.0935 0.29499999 9
17.7605 1.0805 0.139 9
17.7785 1.1005 0.382 9
17.7635 1.0905 0.29699999 9
17.7775 1.0965 0.31600001 9
17.755501 1.0875 0.28600001 9
17.754499 1.0795 0.15800001 9
17.7605 1.0915 0.33000001 9
17.754499 1.0765001 0.107 9
17.7575 1.0835 0.208 9
17.782499 1.0994999 0.34599999 9
17.751499 1.0735 0.072999999 9
17.755501 1.0795 0.155 9
17.762501 1.0915 0.31999999 9
17.7635 1.0905 0.294 9
17.752501 1.0905 0.354 9
17.7645 1.0835 0.164 9
17.7815 1.1025 0.38999999 9
17.754499 1.0835 0.228 9
17.7495 1.0825 0.236 9
17.7575 1.0775 0.106 9
17.7605 1.0825 0.171 9
17.751499 1.0765001 0.131 9
17.762501 1.0905 0.287 9
17.7535 1.0805 0.183 9
17.7495 1.0905 0.37 9
17.752501 1.0795 0.17200001 9
17.7775 1.0955 0.301 9
17.7925 1.1055 0.38699999 9
17.7705 1.0955 0.338 9
17.783501 1.1005 0.347 9
17.7495 1.0725 0.059 9
17.759501 1.0925 0.34799999 9
17.7505 1.0915 0.37200001 9
17.752501 1.0775 0.13699999 9
17.7675 1.0915 0.285 9
17.759501 1.0855 0.233 9
17.754499 1.0765001 0.104 9
17.7665 1.0915 0.289 9
17.761499 1.0885 0.27500001 9
17.7705 1.0935 0.31 9
17.7645 1.0895 0.26199999 9
17.754499 1.0835 0.215 9
17.758499 1.0865 0.25799999 9
17.761499 1.0855 0.213 9
17.7775 1.0944999 0.28400001 9
17.768499 1.0944999 0.33500001 9
17.755501 1.0925 0.359 9
17.759501 1.0825 0.185 9
17.7955 1.1035 0.301 9
17.761499 1.0775 0.067000002 9
17.768499 1.0855 0.18000001 9
17.811501 1.1015 0.056000002 9
17.783501 1.0895 0.1 9
17.796499 1.0965 0.094999999 9
17.7955 1.0994999 0.213 9
17.810499 1.1025 0.078000002 9
17.761499 1.0775 0.043000001 9
17.786501 1.0975 0.25099999 9
17.789499 1.0935 0.114 9
17.7995 1.1005 0.15899999 9
17.7915 1.0965 0.17200001 9
17.7875 1.0905 0.068000004 9
17.789499 1.1005 0.30599999 9
17.803499 1.0975 0.037 9
17.793501 1.0985 0.207 9
17.779499 1.0935 0.25400001 9
17.7675 1.0845 0.162 9
17.7645 1.0785 0.056000002 9
17.7705 1.0825 0.079999998 9
17.797501 1.1015 0.243 9
17.7955 1.1035 0.30000001 9
17.7945 1.0935 0.050000001 9
17.803499 1.0975 0.046999998 9
17.7705 1.0835 0.102 9
17.797501 1.0994999 0.177 9
17.810499 1.1015 0.059999999 9
17.7945 1.1045001 0.34900001 9
17.800501 1.0975 0.097000003 9
17.7855 1.0915 0.11 9
17.782499 1.0925 0.18700001 9
17.779499 1.0895 0.153 9
17.789499 1.0985 0.23899999 9
17.8015 1.0994999 0.125 9
17.7665 1.0835 0.15099999 9
17.7985 1.0955 0.054000001 9
17.7855 1.0965 0.245 9
17.765499 1.0805 0.077 9
17.796499 1.0955 0.071999997 9
17.7815 1.0925 0.20200001 9
17.7775 1.0915 0.219 9
17.7885 1.1015 0.338 9
17.793501 1.0965 0.15700001 9
17.783501 1.0925 0.17900001 9
17.7925 1.0994999 0.241 9
17.7885 1.0975 0.233 9
17.7775 1.0905 0.19499999 9
17.7875 1.0994999 0.30700001 9
17.7645 1.0805 0.103 9
17.8025 1.1005 0.141 9
17.7635 1.0805 0.12 9
17.807501 1.1015 0.098999999 9
17.782499 1.0935 0.223 9
17.782499 1.0895 0.101 9
17.797501 1.1045001 0.29899999 9
17.772499 1.0875 0.168 9
17.7945 1.0985 0.17200001 9
17.7675 1.0805 0.056000002 9
17.786501 1.0944999 0.176 9
17.8055 1.0985 0.041000001 9
17.7875 1.0944999 0.185 9
17.7715 1.0835 0.093999997 9
17.7945 1.0985 0.185 9
17.7915 1.0955 0.15899999 9
17.807501 1.1015 0.081 9
17.7955 1.1035 0.29300001 9
17.8015 1.0975 0.067000002 9
17.7735 1.0855 0.127 9
17.8025 1.1025 0.197 9
17.8095 1.1015 0.059 9
17.775499 1.0845 0.071000002 9
17.7925 1.0955 0.123 9
17.761499 1.0785 0.082999997 9
17.7675 1.0835 0.133 9
17.7745 1.0905 0.233 9
17.769501 1.0855 0.169 9
17.804501 1.1025 0.153 9
17.7915 1.0944999 0.105 9
17.800501 1.1035 0.23800001 9
17.7855 1.0955 0.22499999 9
17.782499 1.0895 0.1 9
17.7775 1.0905 0.186 9
17.7775 1.0895 0.176 9
17.7985 1.0965 0.081 9
17.759501 1.0775 0.085000001 9
17.7845 1.0975 0.296 9
17.7925 1.0985 0.197 9
17.7645 1.0805 0.103 9
17.7735 1.0865 0.153 9
17.810499 1.1015 0.052000001 9
17.807501 1.1025 0.121 9
17.786501 1.0915 0.097999997 9
17.7925 1.0935 0.090999998 9
17.786501 1.0994999 0.31299999 9
17.776501 1.0885 0.15700001 9
17.7805 1.0875 0.090000004 9
17.7815 1.0925 0.20100001 9
17.7735 1.0835 0.057999998 9
17.7955 1.1065 0.38800001 9
17.8025 1.1035 0.219 9
17.7715 1.0825 0.067000002 9
17.786501 1.0915 0.101 9
17.782499 1.0925 0.18799999 9
17.7665 1.0795 0.048999999 9
17.789499 1.0985 0.264 9
17.8025 1.0994999 0.097000003 9
17.790501 1.0975 0.215 9
17.7605 1.0775 0.059 9
17.7705 1.0855 0.15700001 9
17.803499 1.0985 0.089000002 9
17.783501 1.0885 0.071000002 9
17.804501 1.0994999 0.086999997 9
17.7995 1.0985 0.114 9
17.7665 1.0815001 0.103 9
17.8025 1.1045001 0.249 9
17.7955 1.0994999 0.186 9
17.769501 1.0855 0.17299999 9
17.7915 1.1025 0.33399999 9
17.776501 1.0855 0.078000002 9
17.789499 1.0915 0.063000001 9
17.776501 1.0875 0.116 9
17.796499 1.0965 0.104 9
17.7915 1.0915 0.034000002 9
17.7665 1.0795 0.052999999 9
17.7955 1.0944999 0.066 9
17.807501 1.1005 0.075000003 9
17.7745 1.0865 0.134 9
17.7985 1.1025 0.25 9
17.796499 1.0965 0.097000003 9
17.7805 1.0875 0.079999998 9
17.7745 1.0905 0.23100001 9
17.818501 1.1055 0.24600001 9
17.7995 1.1065 0.37 9
17.873501 1.1105 0.384 9
17.8375 1.1065 0.27599999 9
17.827499 1.1045001 0.168 9
17.8255 1.1035 0.059 9
17.855499 1.1075 0.235 9
17.8125 1.1045001 0.162 9
17.817499 1.1025 0.052999999 9
17.8545 1.1055 0.147 9
17.828501 1.1035 0.097000003 9
17.8445 1.1055 0.186 9
17.828501 1.1055 0.23199999 9
17.8235 1.1045001 0.154 9
17.8155 1.1075 0.39399999 9
17.9105 1.1115 0.36899999 9
17.8125 1.1025 0.054000001 9
17.8085 1.1065 0.338 9
17.8615 1.1075 0.23999999 9
17.8165 1.1045001 0.161 9
17.869499 1.1075 0.222 9
17.7995 1.1065 0.361 9
17.827499 1.1065 0.29899999 9
17.8815 1.1085 0.25999999 9
17.931499 1.1115 0.33399999 9
17.859501 1.1085 0.31099999 9
17.8955 1.1095001 0.25799999 9
17.8155 1.1075 0.39199999 9
17.8955 1.1085 0.243 9
17.834499 1.1085 0.36399999 9
17.872499 1.1095001 0.37 9
17.817499 1.1065 0.29800001 9
17.8475 1.1065 0.205 9
17.907499 1.1095001 0.25799999 9
17.8955 1.1095001 0.30599999 9
17.876499 1.1095001 0.36500001 9
17.863501 1.1075 0.245 9
17.827499 1.1075 0.366 9
17.922501 1.1115 0.317 9
17.943501 1.1125 0.36399999 9
17.8755 1.1095001 0.31299999 9
17.8265 1.1065 0.26199999 9
17.883499 1.1085 0.221 9
17.8615 1.1065 0.17 9
17.803499 1.1055 0.30199999 9
17.9025 1.1105 0.33899999 9
17.879499 1.1075 0.206 9
17.824499 1.1045001 0.18799999 9
17.8445 1.1085 0.384 9
17.814501 1.1065 0.34299999 9
17.856501 1.1075 0.23999999 9
17.9275 1.1115 0.354 9
17.803499 1.1055 0.271 9
17.8965 1.1105 0.34900001 9
17.828501 1.1065 0.26800001 9
17.8325 1.1035 0.081 9
17.886499 1.1095001 0.27900001 9
17.918501 1.1105 0.28400001 9
17.945499 1.1125 0.36500001 9
17.872499 1.1075 0.2 9
17.818501 1.1075 0.35100001 9
17.852501 1.1055 0.161 9
17.911501 1.1105 0.29800001 9
17.9135 1.1115 0.37 9
17.931499 1.1115 0.34 9
17.8195 1.1065 0.28 9
17.8645 1.1085 0.33000001 9
17.8155 1.1045001 0.169 9
17.8165 1.1075 0.38100001 9
17.897499 1.1095001 0.27599999 9
17.8535 1.1075 0.264 9
17.8515 1.1065 0.197 9
17.908501 1.1105 0.30000001 9
17.810499 1.1045001 0.204 9
17.862499 1.1065 0.154 9
17.9275 1.1115 0.34200001 9
17.835501 1.1045001 0.109 9
17.925501 1.1115 0.31999999 9
17.886499 1.1085 0.219 9
17.8615 1.1065 0.20200001 9
17.8225 1.1045001 0.177 9
17.8505 1.1075 0.278 9
17.841499 1.1085 0.38100001 9
17.9275 1.1115 0.308 9
17.835501 1.1045001 0.121 9
17.820499 1.1035 0.12899999 9
17.842501 1.1075 0.28999999 9
17.8535 1.1075 0.243 9
17.8535 1.1065 0.221 9
17.922501 1.1115 0.33899999 9
17.818501 1.1075 0.38 9
17.8715 1.1095001 0.32699999 9
17.813499 1.1045001 0.191 9
17.807501 1.1065 0.32699999 9
17.886499 1.1105 0.352 9
17.817499 1.1025 0.061000001 9
17.8255 1.1065 0.294 9
17.8675 1.1075 0.215 9
17.8325 1.1075 0.303 9
17.818501 1.1045001 0.148 9
17.9125 1.1105 0.28099999 9
17.8335 1.1065 0.29100001 9
17.8305 1.1045001 0.125 9
17.828501 1.1065 0.285 9
17.831499 1.1045001 0.131 9
17.884501 1.1085 0.22499999 9
17.876499 1.1105 0.38299999 9
17.831499 1.1065 0.28400001 9
17.8745 1.1095001 0.31900001 9
17.884501 1.1085 0.228 9
17.841499 1.1075 0.296 9
17.880501 1.1075 0.22400001 9
17.849501 1.1095001 0.38299999 9
17.817499 1.1025 0.059 9
17.9345 1.1125 0.34 9
17.8375 1.1075 0.34200001 9
17.8055 1.1055 0.28600001 9
17.866501 1.1075 0.25099999 9
17.8095 1.1075 0.36899999 9
17.870501 1.1065 0.185 9
17.8335 1.1045001 0.116 9
17.8915 1.1095001 0.278 9
17.8685 1.1075 0.227 9
17.901501 1.1105 0.32300001 9
17.9245 1.1115 0.301 9
17.8095 1.1065 0.34 9
17.8615 1.1065 0.15000001 9
17.8435 1.1055 0.156 9
17.855499 1.1075 0.24600001 9
17.828501 1.1055 0.21600001 9
17.869499 1.1065 0.177 9
17.8225 1.1075 0.38 9
17.925501 1.1125 0.377 9
17.8055 1.1075 0.377 9
17.8305 1.1065 0.30199999 9
17.9105 1.1115 0.36399999 9
17.8445 1.1085 0.37799999 9
17.9375 1.1125 0.33500001 9
17.818501 1.1045001 0.149 9
17.834499 1.1075 0.30899999 9
17.797501 1.1065 0.384 9
17.8015 1.1065 0.37799999 9
17.8195 1.1065 0.29100001 9
17.939501 1.1125 0.36700001 9
17.817499 1.1075 0.354 9
17.848499 1.1065 0.25 9
17.8445 1.1085 0.37400001 9
17.807501 1.1065 0.35100001 9
17.9175 1.1115 0.37 9
17.890499 1.1085 0.234 9
17.8395 1.1085 0.375 9
17.872499 1.1095001 0.31799999 9
17.842501 1.1055 0.20299999 9
17.8375 1.1035 0.086000003 9
17.8535 1.1055 0.133 9
17.810499 1.1065 0.329 9
17.814501 1.1075 0.35699999 9
17.8055 1.1065 0.31900001 9
17.8465 1.1065 0.20100001 9
17.8015 1.1065 0.359 9
17.8585 1.1065 0.16599999 9
17.818501 1.1035 0.093999997 9
17.907499 1.1115 0.345 9
17.8165 1.1025 0.039999999 9
17.9125 1.1105 0.27399999 9
17.834499 1.1075 0.336 9
17.810499 1.1035 0.15099999 9
17.8645 1.1095001 0.33899999 9
17.8545 1.1055 0.16599999 9
17.8745 1.1095001 0.33199999 9
17.8235 1.1065 0.31600001 9
17.831499 1.1045001 0.161 9
17.820499 1.1075 0.347 9
17.865499 1.1075 0.24699999 9
17.904499 1.1105 0.28999999 9
17.8645 1.1065 0.20100001 9
17.8335 1.1055 0.192 9
17.9035 1.1105 0.30899999 9
17.879499 1.1085 0.237 9
17.841499 1.1055 0.146 9
17.834499 1.1055 0.19599999 9
17.8745 1.1085 0.26199999 9
17.834499 1.1065 0.27200001 9
17.8505 1.1095001 0.38600001 9
17.820499 1.1025 0.046999998 9
17.904499 1.1095001 0.28400001 9
17.821501 1.1045001 0.19499999 9
17.8325 1.1085 0.36300001 9
17.797501 1.1065 0.35800001 9
17.8195 1.1045001 0.167 9
17.872499 1.1085 0.315 9
17.8675 1.1075 0.207 9
17.8295 1.1045001 0.17 9
17.8615 1.1075 0.27700001 9
17.8295 1.1035 0.096000001 9
17.828501 1.1055 0.21699999 9
17.870501 1.1095001 0.329 9
17.841499 1.1065 0.24699999 9
17.8235 1.1065 0.30500001 9
17.8095 1.1055 0.259 9
17.8265 1.1045001 0.154 9
17.8125 1.1075 0.38999999 9
17.8255 1.1065 0.27500001 9
17.817499 1.1075 0.375 9
17.8265 1.1045001 0.123 9
17.811501 1.1045001 0.20100001 9
17.8395 1.1075 0.28099999 9
17.8965 1.1095001 0.24600001 9
17.814501 1.1035 0.14399999 9
17.908501 1.1115 0.366 9
17.8255 1.1065 0.31400001 9
17.870501 1.1095001 0.32600001 9
17.877501 1.1085 0.243 9
17.8295 1.1035 0.097999997 9
17.855499 1.1095001 0.37 9
17.8095 1.1055 0.29699999 9
17.880501 1.1085 0.25600001 9
17.818501 1.1045001 0.161 9
17.872499 1.1085 0.289 9
17.8885 1.1085 0.21799999 9
17.904499 1.1115 0.382 9
17.8405 1.1085 0.36000001 9
17.865499 1.1095001 0.34299999 9
17.8515 1.1075 0.278 9
17.813499 1.1035 0.12800001 9
17.841499 1.1045001 0.103 9
17.8155 1.1045001 0.161 9
17.8545 1.1055 0.141 9
17.8265 1.1035 0.094999999 9
17.8405 1.1085 0.37099999 9
17.824499 1.1035 0.12 9
17.9055 1.1095001 0.27000001 9
17.811501 1.1055 0.285 9
17.866501 1.1085 0.30199999 9
17.8475 1.1055 0.16599999 9
17.8375 1.1085 0.35100001 9
17.8335 1.1035 0.085000001 9
17.828501 1.1045001 0.14 9
17.804501 1.1065 0.36700001 9
17.879499 1.1085 0.25099999 9
17.814501 1.1055 0.223 9
17.8915 1.1095001 0.289 9
17.887501 1.1105 0.35499999 9
17.8755 1.1095001 0.31900001 9
17.8405 1.1065 0.27399999 9
17.8645 1.1085 0.28999999 9
17.8465 1.1055 0.152 9
17.8235 1.1035 0.103 9
17.8365 1.1045001 0.109 9
17.8855 1.1085 0.215 9
17.8125 1.1055 0.27399999 9
17.8435 1.1045001 0.106 9
17.8825 1.1075 0.208 9
17.8545 1.1065 0.186 9
17.8225 1.1045001 0.178 9
17.8365 1.1065 0.22499999 9
17.9135 1.1105 0.285 9
17.811501 1.1065 0.31099999 9
17.8155 1.1025 0.083999999 9
17.8095 1.1045001 0.23199999 9
17.8505 1.1085 0.34099999 9
17.828501 1.1075 0.32300001 9
17.8685 1.1075 0.227 9
17.8445 1.1055 0.192 9
17.865499 1.1085 0.31299999 9
17.877501 1.1095001 0.31900001 9
17.8715 1.1095001 0.36500001 9
17.834499 1.1055 0.182 9
17.8295 1.1075 0.315 9
17.855499 1.1065 0.205 9
17.8195 1.1035 0.12800001 9
17.8305 1.1065 0.29300001 9
17.907499 1.1105 0.31900001 9
17.8335 1.1075 0.338 9
17.824499 1.1035 0.074000001 9
17.8545 1.1065 0.18700001 9
17.9195 1.1115 0.37400001 9
17.890499 1.1095001 0.264 9
17.936501 1.1125 0.33199999 9
17.9275 1.1125 0.36399999 9
17.921499 1.1115 0.308 9
17.8125 1.1035 0.105 9
17.820499 1.1075 0.375 9
17.838499 1.1055 0.18799999 9
17.817499 1.1065 0.308 9
17.9025 1.1115 0.36000001 9
17.828501 1.1075 0.32100001 9
17.8235 1.1065 0.289 9
17.824499 1.1035 0.071999997 9
17.869499 1.1085 0.27500001 9
17.8535 1.1075 0.29699999 9
17.7995 1.1065 0.36000001 9
17.8985 1.1105 0.31600001 9
17.929501 1.1115 0.33500001 9
17.8915 1.1105 0.35499999 9
17.8785 1.1095001 0.31099999 9
17.9125 1.1095001 0.19599999 9
17.890499 1.1065 0.064000003 9
17.9445 1.1125 0.336 9
17.879499 1.1055 0.033 9
17.907499 1.1095001 0.20299999 9
17.9515 1.1125 0.24600001 9
17.949499 1.1115 0.169 9
17.852501 1.1045001 0.045000002 9
17.883499 1.1075 0.19400001 9
17.8605 1.1045001 0.032000002 9
17.8435 1.1045001 0.089000002 9
17.8675 1.1065 0.15700001 9
17.943501 1.1105 0.13699999 9
17.8955 1.1075 0.118 9
17.9445 1.1115 0.26199999 9
17.8505 1.1045001 0.11 9
17.9545 1.1125 0.25299999 9
17.9545 1.1115 0.21600001 9
17.866501 1.1055 0.067000002 9
17.887501 1.1065 0.045000002 9
17.918501 1.1085 0.097000003 9
17.931499 1.1105 0.229 9
17.907499 1.1085 0.131 9
17.9095 1.1095001 0.245 9
17.9235 1.1095001 0.102 9
17.8825 1.1075 0.146 9
17.8505 1.1045001 0.115 9
17.9505 1.1125 0.33399999 9
17.943501 1.1125 0.315 9
17.914499 1.1095001 0.18700001 9
17.9405 1.1105 0.20200001 9
17.873501 1.1065 0.126 9
17.876499 1.1065 0.133 9
17.9245 1.1105 0.20900001 9
17.9335 1.1105 0.20200001 9
17.876499 1.1055 0.039999999 9
17.876499 1.1065 0.078000002 9
17.9475 1.1125 0.28299999 9
17.9065 1.1085 0.198 9
17.943501 1.1125 0.30700001 9
17.939501 1.1105 0.13699999 9
17.8545 1.1055 0.113 9
17.900499 1.1085 0.134 9
17.8435 1.1045001 0.056000002 9
17.939501 1.1105 0.169 9
17.907499 1.1085 0.15700001 9
17.8265 1.1025 0.039999999 9
17.884501 1.1065 0.090999998 9
17.9195 1.1085 0.059999999 9
17.9235 1.1095001 0.185 9
17.9035 1.1085 0.155 9
17.9065 1.1095001 0.222 9
17.915501 1.1085 0.093999997 9
17.9275 1.1095001 0.097999997 9
17.946501 1.1115 0.176 9
17.835501 1.1035 0.033 9
17.842501 1.1035 0.028999999 9
17.9415 1.1095001 0.035 9
17.945499 1.1095001 0.074000001 9
17.884501 1.1065 0.067000002 9
17.870501 1.1065 0.122 9
17.922501 1.1105 0.27200001 9
17.9055 1.1095001 0.244 9
17.886499 1.1075 0.12800001 9
17.8305 1.1035 0.043000001 9
17.877501 1.1055 0.032000002 9
17.9345 1.1095001 0.101 9
17.9515 1.1125 0.31400001 9
17.900499 1.1085 0.183 9
17.8335 1.1035 0.063000001 9
17.929501 1.1085 0.034000002 9
17.8305 1.1035 0.056000002 9
17.9125 1.1085 0.089000002 9
17.8855 1.1065 0.030999999 9
17.942499 1.1125 0.317 9
17.8685 1.1055 0.097000003 9
17.855499 1.1045001 0.028000001 9
17.834499 1.1035 0.052000001 9
17.8465 1.1045001 0.064999998 9
17.842501 1.1035 0.059 9
17.915501 1.1095001 0.213 9
17.8985 1.1085 0.15099999 9
17.8965 1.1075 0.108 9
17.949499 1.1115 0.21799999 9
17.8515 1.1045001 0.030999999 9
17.8715 1.1055 0.063000001 9
17.939501 1.1115 0.301 9
17.932501 1.1095001 0.072999999 9
17.9545 1.1125 0.266 9
17.8955 1.1075 0.132 9
17.9245 1.1105 0.245 9
17.9345 1.1115 0.289 9
17.9245 1.1085 0.071000002 9
17.848499 1.1045001 0.039999999 9
17.9095 1.1095001 0.243 9
17.9445 1.1115 0.27500001 9
17.9265 1.1105 0.28099999 9
17.9175 1.1095001 0.192 9
17.897499 1.1075 0.116 9
17.918501 1.1095001 0.221 9
17.883499 1.1075 0.141 9
17.943501 1.1115 0.241 9
17.9235 1.1105 0.235 9
17.8895 1.1075 0.13 9
17.8755 1.1065 0.17399999 9
17.945499 1.1105 0.122 9
17.849501 1.1045001 0.033 9
17.907499 1.1095001 0.20200001 9
17.9555 1.1135 0.34299999 9
17.908501 1.1075 0.056000002 9
17.869499 1.1055 0.050999999 9
17.908501 1.1085 0.112 9
17.9475 1.1115 0.205 9
17.9065 1.1075 0.041999999 9
17.8955 1.1065 0.046 9
17.9405 1.1105 0.147 9
17.949499 1.1125 0.34299999 9
17.918501 1.1105 0.255 9
17.8465 1.1045001 0.046 9
17.921499 1.1085 0.078000002 9
17.8475 1.1045001 0.089000002 9
17.942499 1.1125 0.336 9
17.932501 1.1085 0.037 9
17.9265 1.1095001 0.142 9
17.9105 1.1075 0.041000001 9
17.949499 1.1105 0.134 9
17.9105 1.1085 0.083999999 9
17.9055 1.1085 0.14300001 9
17.9485 1.1115 0.214 9
17.9405 1.1105 0.11 9
17.9275 1.1095001 0.15700001 9
17.9375 1.1115 0.259 9
17.922501 1.1095001 0.193 9
17.953501 1.1135 0.33500001 9
17.9095 1.1095001 0.24699999 9
17.939501 1.1125 0.32499999 9
17.9485 1.1125 0.345 9
17.953501 1.1125 0.30700001 9
17.9335 1.1095001 0.057 9
17.915501 1.1085 0.132 9
17.877501 1.1065 0.079000004 9
17.8965 1.1065 0.034000002 9
17.9235 1.1085 0.055 9
17.9205 1.1095001 0.15700001 9
17.9135 1.1095001 0.243 9
17.8255 1.1025 0.046999998 9
17.8885 1.1075 0.15099999 9
17.8715 1.1065 0.149 9
17.946501 1.1095001 0.071000002 9
17.9415 1.1105 0.16500001 9
17.9175 1.1105 0.245 9
17.8955 1.1085 0.221 9
17.9555 1.1115 0.208 9
17.8515 1.1045001 0.104 9
17.859501 1.1055 0.079000004 9
17.866501 1.1055 0.07 9
17.887501 1.1075 0.176 9
17.8745 1.1065 0.097999997 9
17.873501 1.1055 0.032000002 9
17.929501 1.1095001 0.090999998 9
17.900499 1.1085 0.156 9
17.870501 1.1055 0.035999998 9
17.946501 1.1115 0.177 9
17.8225 1.1025 0.035 9
17.877501 1.1065 0.079999998 9
17.9445 1.1095001 0.071999997 9
17.929501 1.1105 0.19400001 9
17.938499 1.1115 0.25999999 9
17.9245 1.1105 0.27399999 9
17.8675 1.1065 0.156 9
17.9135 1.1085 0.106 9
17.8965 1.1085 0.17399999 9
17.938499 1.1115 0.294 9
17.9275 1.1085 0.028999999 9
17.9235 1.1105 0.28200001 9
17.936501 1.1105 0.18799999 9
17.8755 1.1065 0.15899999 9
17.945499 1.1115 0.22 9
17.943501 1.1115 0.19599999 9
17.838499 1.1035 0.063000001 9
17.952499 1.1115 0.191 9
17.925501 1.1095001 0.117 9
17.911501 1.1075 0.048 9
17.938499 1.1105 0.13600001 9
17.842501 1.1035 0.039000001 9
17.9235 1.1095001 0.18799999 9
17.9205 1.1085 0.057 9
17.8785 1.1065 0.107 9
17.9265 1.1095001 0.15800001 9
17.942499 1.1115 0.278 9
17.8585 1.1055 0.078000002 9
17.8585 1.1045001 0.063000001 9
17.9265 1.1105 0.24699999 9
17.945499 1.1115 0.266 9
17.904499 1.1085 0.11 9
17.9505 1.1115 0.15099999 9
17.921499 1.1095001 0.19599999 9
17.9505 1.1115 0.23199999 9
17.8645 1.1055 0.050000001 9
17.8405 1.1035 0.057 9
17.8505 1.1045001 0.092 9
17.8995 1.1075 0.126 9
17.827499 1.1025 0.033 9
17.945499 1.1115 0.20100001 9
17.8855 1.1065 0.035999998 9
17.8915 1.1065 0.037 9
17.856501 1.1055 0.109 9
17.894501 1.1065 0.057 9
17.9545 1.1115 0.142 9
17.9095 1.1085 0.088 9
17.866501 1.1055 0.112 9
17.936501 1.1115 0.29699999 9
17.949499 1.1115 0.177 9
17.9105 1.1085 0.096000001 9
17.880501 1.1065 0.086000003 9
17.914499 1.1095001 0.24699999 9
17.9135 1.1075 0.050000001 9
17.8855 1.1065 0.115 9
17.856501 1.1045001 0.068000004 9
17.9065 1.1085 0.184 9
17.9055 1.1095001 0.234 9
17.945499 1.1125 0.294 9
17.865499 1.1055 0.11 9
17.9445 1.1125 0.31600001 9
17.9475 1.1115 0.226 9
17.849501 1.1045001 0.103 9
17.9505 1.1115 0.23100001 9
17.9135 1.1095001 0.21600001 9
17.8885 1.1075 0.13 9
17.8605 1.1055 0.066 9
17.8985 1.1075 0.12 9
17.838499 1.1035 0.046999998 9
17.4925 0.91049999 0.14300001 9
17.5105 0.88150001 0.043000001 9
