# .PCD v0.7 - Point Cloud Data file format
VERSION 0.7
FIELDS x y z label
SIZE 4 4 4 4
TYPE F F F U
COUNT 1 1 1 1
WIDTH 1698
HEIGHT 1
VIEWPOINT 0 0 0 1 0 0 0
POINTS 1698
DATA ascii
17.754499 5.7564998 2.2019999 9
17.747499 5.7595 2.243 9
17.682501 5.7575002 2.25 9
17.6465 5.7564998 2.2539999 9
17.7365 5.7544999 2.191 9
17.7325 5.7614999 2.279 9
17.695499 5.7575002 2.2479999 9
17.6145 5.7505002 2.197 9
17.658501 5.7535 2.214 9
17.747499 5.7605 2.257 9
17.7055 5.7614999 2.2950001 9
17.6525 5.7535 2.2160001 9
17.692499 5.7564998 2.2320001 9
17.7335 5.7595 2.25 9
17.716499 5.7605 2.276 9
17.737499 5.7595 2.2460001 9
17.7115 5.7595 2.26 9
17.6455 5.7515001 2.197 9
17.731501 5.7614999 2.2739999 9
17.7855 5.7575002 2.191 9
17.7085 5.7564998 2.2309999 9
17.7195 5.7544999 2.2 9
17.6665 5.7544999 2.227 9
17.6325 5.7515001 2.1989999 9
17.7015 5.7554998 2.2219999 9
17.6355 5.7515001 2.2079999 9
17.675501 5.7575002 2.2579999 9
17.7125 5.7614999 2.2839999 9
17.6915 5.7585001 2.2609999 9
17.758499 5.7554998 2.1919999 9
17.6975 5.7535 2.1930001 9
17.692499 5.7554998 2.2179999 9
17.762501 5.7575002 2.2090001 9
17.6805 5.7544999 2.214 9
17.7435 5.7605 2.2590001 9
17.7225 5.7605 2.27 9
17.7365 5.7544999 2.1900001 9
17.7815 5.7575002 2.204 9
17.581499 5.7484999 2.198 9
17.672501 5.7564998 2.2490001 9
17.7645 5.7564998 2.198 9
17.6495 5.7535 2.2160001 9
17.786501 5.7575002 2.198 9
17.761499 5.7575002 2.2119999 9
17.588499 5.7494998 2.2019999 9
17.6015 5.7505002 2.2049999 9
17.591499 5.7494998 2.204 9
17.7665 5.7595 2.2309999 9
17.6145 5.7525001 2.224 9
17.7535 5.7575002 2.2179999 9
17.591499 5.7484999 2.191 9
17.6745 5.7564998 2.2479999 9
17.6565 5.7564998 2.2509999 9
17.7125 5.7544999 2.1960001 9
17.678499 5.7564998 2.2460001 9
17.6705 5.7535 2.2079999 9
17.776501 5.7585001 2.2149999 9
17.7265 5.7595 2.2509999 9
17.571501 5.7474999 2.187 9
17.7155 5.7544999 2.198 9
17.6775 5.7544999 2.217 9
17.629499 5.7535 2.2279999 9
17.727501 5.7564998 2.2190001 9
17.598499 5.7505002 2.2119999 9
17.634501 5.7525001 2.221 9
17.710501 5.7535 2.1919999 9
17.6455 5.7554998 2.243 9
17.730499 5.7614999 2.2720001 9
17.693501 5.7614999 2.2920001 9
17.7805 5.7585001 2.2449999 9
17.8225 5.7554998 2.313 9
17.7855 5.7575002 2.224 9
17.803499 5.7564998 2.266 9
17.768499 5.7595 2.3039999 9
17.7715 5.7595 2.2279999 9
17.7915 5.7575002 2.2980001 9
17.807501 5.7564998 2.2279999 9
17.7745 5.7595 2.3150001 9
17.8025 5.7575002 2.3169999 9
17.7875 5.7585001 2.2839999 9
17.747499 5.7614999 2.3069999 9
17.7995 5.7564998 2.233 9
17.8095 5.7564998 2.3239999 9
17.834499 5.7544999 2.352 9
17.869499 5.7515001 2.3510001 9
17.8365 5.7544999 2.276 9
17.7635 5.7595 2.29 9
17.7325 5.7624998 2.326 9
17.7945 5.7575002 2.2130001 9
17.7735 5.7595 2.2520001 9
17.8325 5.7544999 2.349 9
17.752501 5.7605 2.3169999 9
17.741501 5.7614999 2.306 9
17.7295 5.7624998 2.302 9
17.817499 5.7554998 2.2650001 9
17.818501 5.7554998 2.243 9
17.744499 5.7614999 2.3269999 9
17.744499 5.7614999 2.28 9
17.8255 5.7554998 2.3340001 9
17.806499 5.7564998 2.3380001 9
17.7355 5.7624998 2.309 9
17.782499 5.7585001 2.211 9
17.772499 5.7595 2.322 9
17.745501 5.7614999 2.3110001 9
17.7995 5.7564998 2.2590001 9
17.8195 5.7554998 2.3239999 9
17.769501 5.7595 2.2690001 9
17.790501 5.7575002 2.3139999 9
17.7855 5.7585001 2.2980001 9
17.8305 5.7544999 2.3299999 9
17.8255 5.7554998 2.345 9
17.7915 5.7575002 2.266 9
17.814501 5.7554998 2.267 9
17.745501 5.7614999 2.2850001 9
17.8615 5.7525001 2.329 9
17.716499 5.7635002 2.3199999 9
17.7845 5.7585001 2.313 9
17.7845 5.7585001 2.319 9
17.8395 5.7544999 2.3340001 9
17.7775 5.7585001 2.247 9
17.804501 5.7564998 2.2379999 9
17.776501 5.7595 2.313 9
17.835501 5.7544999 2.2720001 9
17.759501 5.7605 2.2550001 9
17.827499 5.7554998 2.345 9
17.811501 5.7564998 2.2739999 9
17.824499 5.7554998 2.27 9
17.730499 5.7624998 2.2980001 9
17.8015 5.7564998 2.2090001 9
17.779499 5.7585001 2.2639999 9
17.7915 5.7575002 2.2 9
17.7945 5.7575002 2.2520001 9
17.7955 5.7575002 2.2179999 9
17.813499 5.7564998 2.3329999 9
17.8085 5.7564998 2.326 9
17.818501 5.7554998 2.3180001 9
17.8365 5.7544999 2.346 9
17.8465 5.7535 2.3 9
17.7845 5.7585001 2.3310001 9
17.824499 5.7554998 2.312 9
17.782499 5.7585001 2.2320001 9
17.800501 5.7575002 2.28 9
17.810499 5.7564998 2.339 9
17.7465 5.7614999 2.3299999 9
17.824499 5.7554998 2.2909999 9
17.807501 5.7564998 2.3399999 9
17.841499 5.7535 2.2869999 9
17.8645 5.7525001 2.3340001 9
17.7745 5.7585001 2.2379999 9
17.7565 5.7605 2.266 9
17.751499 5.7605 2.3069999 9
17.818501 5.7554998 2.2609999 9
17.8575 5.7525001 2.3540001 9
17.7605 5.7605 2.293 9
17.8055 5.7564998 2.3410001 9
17.7845 5.7585001 2.273 9
17.824499 5.7554998 2.335 9
17.7715 5.7595 2.296 9
17.7425 5.7614999 2.279 9
17.855499 5.7525001 2.345 9
17.7785 5.7585001 2.224 9
17.8445 5.7535 2.336 9
17.8435 5.7535 2.3299999 9
17.8025 5.7564998 2.2980001 9
17.8325 5.7544999 2.2820001 9
17.7355 5.7624998 2.3169999 9
17.730499 5.7624998 2.3199999 9
17.7955 5.7575002 2.211 9
17.7805 5.7585001 2.221 9
17.818501 5.7554998 2.289 9
17.8085 5.7564998 2.2609999 9
17.775499 5.7595 2.2939999 9
17.807501 5.7564998 2.256 9
17.751499 5.7605 2.2780001 9
17.7295 5.7624998 2.293 9
17.7605 5.7605 2.3039999 9
17.8155 5.7554998 2.2780001 9
17.8365 5.7544999 2.3139999 9
17.7295 5.7624998 2.306 9
17.8015 5.7575002 2.3410001 9
17.800501 5.7564998 2.247 9
17.8265 5.7554998 2.3080001 9
17.751499 5.7614999 2.3169999 9
17.7855 5.7575002 2.2079999 9
17.734501 5.7624998 2.3139999 9
17.740499 5.7614999 2.2880001 9
17.8305 5.7544999 2.3429999 9
17.820499 5.7554998 2.3269999 9
17.8715 5.7515001 2.3529999 9
17.8155 5.7554998 2.263 9
17.738501 5.7614999 2.312 9
17.827499 5.7544999 2.3069999 9
17.8255 5.7554998 2.299 9
17.862499 5.7525001 2.3280001 9
17.758499 5.7605 2.2449999 9
17.7735 5.7595 2.2950001 9
17.8155 5.7554998 2.303 9
17.8235 5.7554998 2.306 9
17.859501 5.7525001 2.342 9
17.7985 5.7575002 2.286 9
17.775499 5.7585001 2.2609999 9
17.7335 5.7624998 2.2920001 9
17.7505 5.7614999 2.3150001 9
17.8475 5.7395 2.1800001 9
17.813499 5.7494998 2.1849999 9
17.8085 5.7515001 2.187 9
17.8095 5.7424998 2.1800001 9
17.8155 5.7435002 2.181 9
17.813499 5.7424998 2.1800001 9
17.775499 5.7455001 2.1800001 9
17.8335 5.7564998 2.1930001 9
17.990499 5.7535 2.2219999 9
17.8815 5.7525001 2.2920001 9
17.9445 5.7544999 2.2030001 9
17.8785 5.7544999 2.227 9
17.9055 5.7535 2.2409999 9
17.928499 5.7544999 2.1930001 9
17.8685 5.7525001 2.3269999 9
17.8645 5.7525001 2.3210001 9
17.935499 5.7544999 2.1949999 9
17.9165 5.7515001 2.3150001 9
17.883499 5.7554998 2.1989999 9
17.9265 5.7525001 2.2969999 9
17.900499 5.7544999 2.24 9
17.9515 5.7535 2.2460001 9
17.9065 5.7544999 2.223 9
17.9035 5.7525001 2.3099999 9
17.8885 5.7525001 2.306 9
17.894501 5.7544999 2.2390001 9
17.8855 5.7525001 2.3180001 9
17.9415 5.7525001 2.2739999 9
17.8675 5.7554998 2.217 9
17.865499 5.7535 2.286 9
17.873501 5.7535 2.2920001 9
17.9345 5.7525001 2.277 9
17.877501 5.7544999 2.2479999 9
17.827499 5.7564998 2.2030001 9
17.901501 5.7525001 2.309 9
17.886499 5.7544999 2.2320001 9
17.8785 5.7554998 2.197 9
17.841499 5.7554998 2.2190001 9
17.8995 5.7525001 2.289 9
17.883499 5.7554998 2.191 9
17.863501 5.7544999 2.247 9
17.8305 5.7544999 2.2609999 9
17.869499 5.7554998 2.207 9
17.915501 5.7544999 2.2279999 9
17.8985 5.7535 2.2639999 9
17.9855 5.7525001 2.2360001 9
17.838499 5.7554998 2.224 9
17.936501 5.7525001 2.277 9
17.931499 5.7544999 2.2119999 9
17.8255 5.7564998 2.198 9
17.877501 5.7525001 2.2969999 9
17.820499 5.7564998 2.2130001 9
17.880501 5.7544999 2.2449999 9
17.9205 5.7544999 2.2049999 9
17.970501 5.7525001 2.25 9
17.904499 5.7515001 2.3269999 9
17.932501 5.7515001 2.296 9
17.856501 5.7544999 2.2650001 9
17.8395 5.7564998 2.1960001 9
17.914499 5.7515001 2.3210001 9
17.8815 5.7535 2.2639999 9
17.9205 5.7544999 2.2279999 9
17.8965 5.7525001 2.3110001 9
17.9575 5.7525001 2.2650001 9
18.0105 5.7535 2.197 9
17.9275 5.7525001 2.2780001 9
17.8895 5.7535 2.2609999 9
17.893499 5.7515001 2.339 9
18.0005 5.7535 2.194 9
17.869499 5.7515001 2.332 9
17.8965 5.7554998 2.194 9
17.8545 5.7535 2.3010001 9
17.869499 5.7535 2.286 9
17.911501 5.7544999 2.2160001 9
17.9785 5.7535 2.207 9
17.9335 5.7525001 2.2650001 9
17.8515 5.7535 2.296 9
17.8965 5.7544999 2.2320001 9
17.9305 5.7525001 2.2939999 9
17.9265 5.7525001 2.2709999 9
17.8825 5.7525001 2.293 9
17.990499 5.7535 2.2190001 9
17.9405 5.7535 2.221 9
17.915501 5.7515001 2.316 9
17.9855 5.7535 2.223 9
17.883499 5.7515001 2.332 9
17.859501 5.7535 2.2939999 9
17.9095 5.7525001 2.28 9
17.9205 5.7525001 2.2820001 9
17.9035 5.7535 2.2639999 9
17.855499 5.7535 2.2850001 9
17.9695 5.7525001 2.2520001 9
17.8575 5.7535 2.276 9
17.8785 5.7515001 2.332 9
17.943501 5.7535 2.221 9
17.8925 5.7515001 2.3469999 9
17.8915 5.7525001 2.3099999 9
17.883499 5.7505002 2.3629999 9
17.876499 5.7535 2.2739999 9
17.893499 5.7544999 2.2190001 9
17.9935 5.7525001 2.227 9
17.9335 5.7525001 2.2839999 9
17.884501 5.7544999 2.2249999 9
17.863501 5.7564998 2.1919999 9
17.9265 5.7525001 2.2980001 9
17.8585 5.7554998 2.197 9
17.928499 5.7544999 2.2190001 9
17.818501 5.7554998 2.22 9
17.9055 5.7554998 2.1949999 9
17.8515 5.7544999 2.2449999 9
17.907499 5.7525001 2.2809999 9
17.942499 5.7525001 2.2650001 9
17.9305 5.7525001 2.273 9
17.9205 5.7535 2.263 9
17.880501 5.7554998 2.217 9
17.879499 5.7515001 2.355 9
17.939501 5.7525001 2.2590001 9
17.956499 5.7525001 2.256 9
17.995501 5.7535 2.214 9
17.8715 5.7544999 2.247 9
17.8915 5.7554998 2.2060001 9
17.943501 5.7535 2.2409999 9
17.827499 5.7554998 2.23 9
17.8925 5.7525001 2.293 9
17.8715 5.7535 2.2609999 9
17.9375 5.7535 2.233 9
17.841499 5.7544999 2.2639999 9
17.8225 5.7554998 2.2190001 9
17.872499 5.7535 2.2690001 9
17.827499 5.7564998 2.21 9
17.849501 5.7554998 2.2190001 9
17.9855 5.7535 2.2019999 9
17.9165 5.7515001 2.3150001 9
17.852501 5.7544999 2.2409999 9
17.939501 5.7535 2.2460001 9
17.8745 5.7544999 2.253 9
17.886499 5.7515001 2.325 9
17.907499 5.7535 2.2650001 9
17.9175 5.7525001 2.296 9
17.997499 5.7535 2.2090001 9
17.8545 5.7544999 2.2579999 9
17.991501 5.7535 2.2179999 9
17.963499 5.7525001 2.244 9
17.9195 5.7535 2.243 9
17.9625 5.7525001 2.2609999 9
17.8645 5.7535 2.296 9
17.883499 5.7515001 2.326 9
17.9035 5.7544999 2.2409999 9
17.8895 5.7535 2.2780001 9
17.9175 5.7525001 2.279 9
17.897499 5.7535 2.247 9
17.862499 5.7554998 2.201 9
17.893499 5.7515001 2.3239999 9
17.9065 5.7535 2.2590001 9
17.8535 5.7535 2.289 9
17.828501 5.7554998 2.2290001 9
17.9725 5.7525001 2.2390001 9
17.8085 5.7564998 2.2 9
17.855499 5.7535 2.2880001 9
17.9055 5.7535 2.263 9
17.9135 5.7525001 2.2980001 9
17.9485 5.7544999 2.201 9
17.995501 5.7535 2.1919999 9
17.914499 5.7525001 2.2950001 9
17.981501 5.7535 2.2290001 9
17.907499 5.7544999 2.2249999 9
17.929501 5.7535 2.2460001 9
17.8405 5.7544999 2.2479999 9
17.8995 5.7515001 2.3269999 9
17.931499 5.7525001 2.289 9
17.963499 5.7535 2.22 9
17.8955 5.7535 2.26 9
17.835501 5.7554998 2.2119999 9
17.8985 5.7525001 2.286 9
17.9065 5.7535 2.26 9
17.886499 5.7525001 2.2950001 9
17.921499 5.7535 2.2349999 9
17.8915 5.7525001 2.316 9
17.884501 5.7535 2.26 9
17.8365 5.7554998 2.243 9
17.9125 5.7525001 2.293 9
17.936501 5.7525001 2.267 9
17.8855 5.7544999 2.2420001 9
17.904499 5.7525001 2.2839999 9
17.9585 5.7525001 2.2639999 9
17.921499 5.7544999 2.2060001 9
17.9195 5.7525001 2.2820001 9
17.8645 5.7554998 2.198 9
17.877501 5.7535 2.277 9
17.9555 5.7535 2.23 9
17.8305 5.7554998 2.221 9
17.880501 5.7554998 2.2119999 9
17.8895 5.7515001 2.3469999 9
17.9935 5.7535 2.2 9
17.8895 5.7515001 2.3380001 9
17.8985 5.7515001 2.3310001 9
17.9925 5.7535 2.2079999 9
17.932501 5.7515001 2.303 9
17.9025 5.7554998 2.2060001 9
17.9095 5.7525001 2.3069999 9
17.862499 5.7554998 2.2090001 9
17.967501 5.7525001 2.243 9
17.9265 5.7544999 2.224 9
17.8895 5.7525001 2.289 9
17.8465 5.7554998 2.2219999 9
17.9375 5.7535 2.234 9
17.9265 5.7535 2.2590001 9
17.973499 5.7535 2.2030001 9
17.9345 5.7505002 2.358 9
17.9405 5.7515001 2.2939999 9
18.018499 5.7494998 2.3469999 9
17.953501 5.7505002 2.3299999 9
17.9925 5.7505002 2.3150001 9
17.946501 5.7515001 2.296 9
17.9785 5.7494998 2.355 9
18.012501 5.7525001 2.2190001 9
17.973499 5.7505002 2.3440001 9
17.9135 5.7505002 2.348 9
17.9645 5.7515001 2.296 9
17.977501 5.7505002 2.3269999 9
17.9785 5.7505002 2.3329999 9
17.9835 5.7505002 2.329 9
17.977501 5.7505002 2.345 9
17.988501 5.7515001 2.2880001 9
17.984501 5.7505002 2.335 9
17.9515 5.7505002 2.329 9
17.9795 5.7515001 2.306 9
17.980499 5.7515001 2.2969999 9
17.946501 5.7515001 2.2880001 9
18.012501 5.7505002 2.302 9
17.9405 5.7515001 2.3210001 9
17.981501 5.7505002 2.3469999 9
18.0035 5.7515001 2.2820001 9
17.9405 5.7515001 2.326 9
17.980499 5.7515001 2.2720001 9
17.9715 5.7525001 2.273 9
17.953501 5.7515001 2.2880001 9
17.9505 5.7505002 2.325 9
17.9835 5.7505002 2.3329999 9
17.9855 5.7494998 2.349 9
17.974501 5.7515001 2.2780001 9
17.956499 5.7505002 2.3540001 9
18.011499 5.7505002 2.2980001 9
17.988501 5.7515001 2.273 9
17.959499 5.7515001 2.296 9
17.9445 5.7515001 2.299 9
17.928499 5.7505002 2.3510001 9
17.9505 5.7515001 2.3 9
17.9615 5.7515001 2.286 9
17.9175 5.7515001 2.336 9
17.9835 5.7515001 2.2780001 9
17.995501 5.7515001 2.286 9
17.995501 5.7505002 2.3399999 9
17.980499 5.7505002 2.3169999 9
17.966499 5.7505002 2.3429999 9
17.967501 5.7505002 2.323 9
18.004499 5.7505002 2.3210001 9
18.0065 5.7525001 2.2509999 9
17.9645 5.7515001 2.313 9
18.012501 5.7505002 2.3099999 9
18.0165 5.7525001 2.224 9
17.977501 5.7515001 2.2920001 9
17.9625 5.7505002 2.3380001 9
17.967501 5.7505002 2.3469999 9
17.8885 5.7505002 2.3599999 9
17.9205 5.7505002 2.362 9
18.009501 5.7515001 2.276 9
18.005501 5.7525001 2.2490001 9
17.9575 5.7505002 2.336 9
18.005501 5.7515001 2.2939999 9
17.914499 5.7515001 2.332 9
18.0165 5.7494998 2.3570001 9
17.9585 5.7505002 2.348 9
17.970501 5.7515001 2.279 9
17.9195 5.7515001 2.329 9
17.952499 5.7505002 2.335 9
17.9025 5.7505002 2.3540001 9
17.988501 5.7515001 2.3050001 9
17.997499 5.7494998 2.359 9
17.994499 5.7515001 2.2639999 9
17.990499 5.7505002 2.3239999 9
17.956499 5.7515001 2.2880001 9
17.9645 5.7515001 2.279 9
17.9935 5.7505002 2.3269999 9
17.925501 5.7515001 2.335 9
17.9475 5.7515001 2.303 9
17.9935 5.7515001 2.2739999 9
17.9485 5.7515001 2.3010001 9
17.9765 5.7494998 2.3599999 9
17.9205 5.7515001 2.326 9
17.973499 5.7515001 2.2880001 9
17.9305 5.7505002 2.335 9
17.973499 5.7525001 2.267 9
18.0135 5.7525001 2.2390001 9
17.970501 5.7525001 2.2650001 9
17.991501 5.7494998 2.365 9
18.012501 5.7515001 2.2579999 9
17.9575 5.7505002 2.3499999 9
17.9625 5.7515001 2.3010001 9
18.0145 5.7515001 2.2820001 9
17.956499 5.7515001 2.3039999 9
17.9245 5.7505002 2.3510001 9
17.9125 5.7515001 2.3429999 9
17.9925 5.7525001 2.2390001 9
18.001499 5.7515001 2.276 9
17.942499 5.7505002 2.3440001 9
17.931499 5.7505002 2.3610001 9
17.967501 5.7515001 2.3099999 9
17.9555 5.7505002 2.3510001 9
17.9445 5.7505002 2.3329999 9
17.974501 5.7494998 2.365 9
18.015499 5.7525001 2.2309999 9
17.9965 5.7525001 2.2279999 9
17.9965 5.7505002 2.326 9
17.935499 5.7515001 2.316 9
18.0135 5.7494998 2.3529999 9
18.0065 5.7494998 2.348 9
17.921499 5.7515001 2.325 9
17.9475 5.7505002 2.342 9
17.9695 5.7515001 2.3039999 9
17.984501 5.7505002 2.322 9
17.9135 5.7515001 2.3299999 9
17.973499 5.7515001 2.276 9
17.953501 5.7494998 2.3640001 9
17.9625 5.7515001 2.3139999 9
17.9645 5.7505002 2.348 9
18.0105 5.7525001 2.234 9
17.9655 5.7474999 2.187 9
17.831499 5.7484999 2.1849999 9
17.9935 5.7455001 2.1860001 9
17.900499 5.7525001 2.1889999 9
17.9965 5.7484999 2.187 9
17.9835 5.7414999 2.1830001 9
17.908501 5.7405 2.181 9
17.9825 5.7445002 2.1849999 9
17.953501 5.7515001 2.1889999 9
17.8445 5.7455001 2.1830001 9
17.838499 5.7474999 2.1849999 9
17.9175 5.7535 2.1889999 9
17.953501 5.7414999 2.1819999 9
17.8815 5.7445002 2.1830001 9
17.931499 5.7494998 2.187 9
17.9055 5.7505002 2.187 9
17.9715 5.7535 2.1900001 9
17.880501 5.7424998 2.1819999 9
17.872499 5.7405 2.181 9
17.8515 5.7515001 2.187 9
17.8465 5.7424998 2.1819999 9
17.8395 5.7535 2.188 9
17.9405 5.7455001 2.1849999 9
17.9585 5.7414999 2.1830001 9
17.9485 5.7465 2.1860001 9
17.942499 5.7525001 2.1889999 9
17.897499 5.7535 2.1889999 9
17.859501 5.7445002 2.1830001 9
17.918501 5.7484999 2.1860001 9
17.8685 5.7435002 2.1830001 9
17.8925 5.7424998 2.1819999 9
17.9415 5.7424998 2.1830001 9
17.911501 5.7455001 2.1849999 9
17.9335 5.7525001 2.1889999 9
18.011499 5.7414999 2.184 9
17.8535 5.7414999 2.181 9
18.0105 5.7474999 2.187 9
17.9895 5.7484999 2.188 9
17.945499 5.7455001 2.1849999 9
17.945499 5.7484999 2.187 9
17.8325 5.7494998 2.1860001 9
17.938499 5.7494998 2.187 9
17.8585 5.7544999 2.1889999 9
17.841499 5.7435002 2.1819999 9
17.8615 5.7494998 2.1860001 9
17.838499 5.7544999 2.1889999 9
17.9475 5.7474999 2.1860001 9
17.8645 5.7414999 2.181 9
18.0215 5.7505002 2.336 9
18.050501 5.7715001 2.368 9
18.0245 5.7535 2.312 9
18.026501 5.7544999 2.3659999 9
18.0375 5.7635002 2.3110001 9
18.054501 5.7744999 2.3870001 9
18.0285 5.7554998 2.3670001 9
18.022499 5.7525001 2.2739999 9
18.025499 5.7554998 2.2290001 9
18.0285 5.7554998 2.3710001 9
18.047501 5.7694998 2.382 9
18.0515 5.7735 2.3740001 9
18.0275 5.7554998 2.3139999 9
18.036501 5.7624998 2.348 9
18.0345 5.7605 2.345 9
18.0245 5.7544999 2.2620001 9
18.036501 5.7614999 2.3670001 9
18.036501 5.7624998 2.3510001 9
18.036501 5.7614999 2.313 9
18.022499 5.7505002 2.358 9
18.0235 5.7525001 2.3069999 9
18.0315 5.7585001 2.2639999 9
18.0275 5.7554998 2.3050001 9
18.0455 5.7684999 2.372 9
18.0235 5.7535 2.256 9
18.032499 5.7595 2.266 9
18.036501 5.7624998 2.2909999 9
18.0235 5.7525001 2.3299999 9
18.025499 5.7535 2.335 9
18.0235 5.7544999 2.204 9
18.0215 5.7494998 2.3529999 9
18.0525 5.7735 2.3770001 9
18.043501 5.7674999 2.3499999 9
18.036501 5.7624998 2.2950001 9
18.043501 5.7674999 2.319 9
18.036501 5.7635002 2.2739999 9
18.032499 5.7585001 2.3210001 9
18.040501 5.7655001 2.3069999 9
18.0315 5.7575002 2.3559999 9
18.0245 5.7544999 2.2360001 9
18.026501 5.7544999 2.346 9
18.022499 5.7535 2.2130001 9
15.1395 5.9264998 2.3180001 9
15.1535 5.9215002 2.3340001 9
15.1515 5.9145002 2.313 9
15.1545 5.9134998 2.3150001 9
15.1825 5.8895001 2.3139999 9
15.1555 5.9124999 2.3150001 9
15.1875 5.8835001 2.3069999 9
15.1905 5.8804998 2.306 9
15.1355 5.9305 2.3210001 9
15.1695 5.8994999 2.3099999 9
15.1785 5.8955002 2.319 9
15.1985 5.8755002 2.3099999 9
15.1645 5.9025002 2.3099999 9
15.1455 5.9295001 2.3380001 9
15.1655 5.9064999 2.3210001 9
15.1615 5.9074998 2.3150001 9
15.1645 5.9085002 2.3239999 9
15.3585 5.9345002 2.2920001 9
15.3815 5.9355001 2.2880001 9
16.834499 5.9415002 2.2309999 9
16.8395 5.9315 2.2190001 9
16.8445 5.9334998 2.227 9
16.8365 5.9345002 2.2219999 9
16.859501 5.9285002 2.23 9
16.8405 5.9324999 2.2219999 9
16.8445 5.9394999 2.237 9
16.8615 5.9235001 2.223 9
16.8335 5.9435 2.234 9
16.8645 5.9274998 2.2320001 9
16.855499 5.9235001 2.22 9
16.872499 5.9194999 2.2260001 9
16.834499 5.9365001 2.223 9
16.818501 5.9425001 2.223 9
16.8225 5.9375 2.2179999 9
16.820499 5.9334998 2.2119999 9
16.820499 5.9324999 2.2090001 9
16.821501 5.9285002 2.204 9
16.8325 5.9274998 2.2090001 9
16.828501 5.9355001 2.2179999 9
16.817499 5.9524999 2.2360001 9
16.8955 5.8864999 2.1900001 9
16.8965 5.8855 2.1889999 9
16.8995 5.8744998 2.1730001 9
16.883499 5.9155002 2.2290001 9
16.855499 5.9204998 2.214 9
16.880501 5.9105 2.217 9
16.8895 5.8944998 2.198 9
16.8585 5.9155002 2.2090001 9
16.8915 5.8794999 2.1760001 9
16.873501 5.9155002 2.22 9
16.879499 5.9015002 2.2019999 9
16.884501 5.8965001 2.197 9
16.8515 5.9225001 2.2130001 9
16.8885 5.8924999 2.194 9
16.8585 5.9215002 2.217 9
16.886499 5.9074998 2.217 9
16.8675 5.9145002 2.214 9
16.8575 5.9145002 2.2049999 9
16.852501 5.9485002 2.253 9
16.8715 5.9324999 2.244 9
16.8895 5.9305 2.2509999 9
16.918501 5.9534998 2.2969999 9
16.8615 5.9524999 2.263 9
16.9095 5.9534998 2.293 9
16.8895 5.9445 2.27 9
16.887501 5.9235001 2.2409999 9
16.904499 5.9345002 2.2650001 9
16.873501 5.9475002 2.2639999 9
16.8575 5.9435 2.2490001 9
16.879499 5.9435 2.263 9
16.8955 5.9404998 2.2679999 9
16.897499 5.9524999 2.2839999 9
16.8825 5.9225001 2.237 9
16.8965 5.9404998 2.267 9
16.8685 5.9464998 2.2590001 9
16.9025 5.9454999 2.2780001 9
16.911501 5.9404998 2.277 9
16.907499 5.9514999 2.2880001 9
16.922501 5.9495001 2.2939999 9
16.8955 5.9505 2.28 9
16.890499 5.9524999 2.279 9
16.8985 5.9495001 2.2809999 9
16.880501 5.9365001 2.253 9
16.8545 5.9514999 2.2579999 9
16.877501 5.9254999 2.2379999 9
16.9105 5.9495001 2.2869999 9
16.9035 5.9485002 2.283 9
16.9095 5.9415002 2.276 9
16.8885 5.9384999 2.26 9
16.8915 5.9355001 2.2590001 9
16.9055 5.9485002 2.283 9
16.8885 5.9305 2.25 9
17.068501 5.9545002 2.3599999 9
17.0945 5.9565001 2.3859999 9
17.054501 5.9445 2.319 9
17.0305 5.9505 2.323 9
17.0455 5.9534998 2.3429999 9
17.0595 5.9505 2.3429999 9
17.071501 5.9495001 2.348 9
17.0555 5.9555001 2.3559999 9
17.0235 5.9534998 2.326 9
17.0795 5.9534998 2.3670001 9
17.0555 5.9454999 2.325 9
17.0385 5.9495001 2.325 9
17.033501 5.9524999 2.3299999 9
17.088499 5.9565001 2.381 9
17.057501 5.9505 2.342 9
17.0275 5.9514999 2.325 9
17.0315 5.9555001 2.3380001 9
17.0415 5.9555001 2.3469999 9
17.036501 5.9524999 2.3340001 9
17.039499 5.9555001 2.345 9
17.0485 5.9475002 2.326 9
17.134501 5.9505 2.362 9
17.165501 5.9485002 2.359 9
17.1145 5.9505 2.3599999 9
17.099501 5.9545002 2.378 9
17.098499 5.9524999 2.3699999 9
17.129499 5.9505 2.3629999 9
17.0945 5.9545002 2.3759999 9
17.1565 5.9485002 2.3570001 9
17.098499 5.9485002 2.3499999 9
17.091499 5.9464998 2.3369999 9
17.120501 5.9555001 2.3859999 9
17.098499 5.9514999 2.3629999 9
17.157499 5.9505 2.3640001 9
17.127501 5.9565001 2.3929999 9
17.106501 5.9485002 2.352 9
17.102501 5.9555001 2.382 9
17.1415 5.9575 2.3989999 9
17.0805 5.9445 2.326 9
17.123501 5.9534998 2.3770001 9
17.1175 5.9505 2.3610001 9
17.1035 5.9464998 2.3399999 9
17.154499 5.9545002 2.3870001 9
17.116501 5.9555001 2.3859999 9
17.1245 5.9555001 2.3870001 9
17.077499 5.9495001 2.3499999 9
17.113501 5.9475002 2.346 9
17.1485 5.9575 2.3970001 9
17.158501 5.9534998 2.3829999 9
17.151501 5.9485002 2.355 9
17.102501 5.9524999 2.3699999 9
17.112499 5.9464998 2.3410001 9
17.070499 5.9475002 2.3399999 9
17.085501 5.9524999 2.3670001 9
17.116501 5.9555001 2.385 9
17.0975 5.9454999 2.3329999 9
17.1285 5.9464998 2.3429999 9
17.099501 5.9454999 2.3340001 9
17.105499 5.9524999 2.3670001 9
17.144501 5.9505 2.365 9
17.144501 5.9505 2.362 9
17.109501 5.9524999 2.3710001 9
17.1145 5.9545002 2.378 9
17.081499 5.9495001 2.3499999 9
17.109501 5.9545002 2.381 9
17.1045 5.9534998 2.375 9
17.1535 5.9514999 2.3710001 9
17.1115 5.9464998 2.3410001 9
17.1605 5.9495001 2.3610001 9
17.116501 5.9534998 2.3759999 9
17.1075 5.9464998 2.3399999 9
17.0935 5.9495001 2.3540001 9
17.116501 5.9475002 2.345 9
17.0975 5.9475002 2.3440001 9
17.1005 5.9524999 2.3710001 9
17.224501 5.9555001 2.3829999 9
17.171499 5.9565001 2.3940001 9
17.168501 5.9524999 2.375 9
17.179501 5.9575 2.401 9
17.2355 5.9565001 2.3840001 9
17.2185 5.9555001 2.3840001 9
17.1915 5.9575 2.3989999 9
17.2045 5.9565001 2.391 9
17.203501 5.9524999 2.369 9
17.2285 5.9565001 2.3829999 9
17.2265 5.9575 2.3900001 9
17.1705 5.9485002 2.3570001 9
17.188499 5.9505 2.3629999 9
17.2215 5.9565001 2.385 9
17.195499 5.9524999 2.3710001 9
17.171499 5.9514999 2.3699999 9
17.2155 5.9575 2.3940001 9
17.1915 5.9524999 2.3729999 9
17.1945 5.9534998 2.3770001 9
17.216499 5.9584999 2.3959999 9
17.2285 5.9584999 2.3959999 9
17.2185 5.9545002 2.3789999 9
17.1945 5.9575 2.3940001 9
17.179501 5.9495001 2.362 9
18.057501 5.9664998 2.1949999 9
18.0525 5.9675002 2.2360001 9
18.053499 5.9664998 2.2149999 9
18.056499 5.9664998 2.197 9
18.0525 5.9685001 2.2579999 9
18.0525 5.9695001 2.277 9
18.067499 5.9695001 2.1930001 9
18.047501 5.9645 2.2279999 9
18.050501 5.9664998 2.2409999 9
18.040501 5.9604998 2.1960001 9
18.0665 5.9695001 2.191 9
18.0515 5.9645 2.1919999 9
14.8705 5.6764998 2.1830001 9
14.8745 5.6745 2.1789999 9
14.8415 5.6564999 2.227 9
14.8665 5.6605 2.194 9
14.8255 5.6805 2.2390001 9
14.8615 5.6764998 2.194 9
14.8525 5.6595001 2.2119999 9
14.8615 5.6785002 2.194 9
14.8425 5.6595001 2.224 9
14.8345 5.6684999 2.2320001 9
14.8865 5.6735001 2.164 9
14.8805 5.6665001 2.174 9
14.8425 5.6615 2.224 9
14.8545 5.6754999 2.204 9
14.8375 5.6605 2.2309999 9
14.8895 5.6694999 2.161 9
14.8435 5.6615 2.223 9
14.8275 5.6824999 2.2360001 9
14.8935 5.6715002 2.1559999 9
14.8305 5.6655002 2.2379999 9
14.8745 5.6774998 2.178 9
14.8745 5.6774998 2.177 9
14.8925 5.6715002 2.1570001 9
14.8745 5.6634998 2.1830001 9
14.8185 5.6824999 2.247 9
15.0535 5.6455002 2.1070001 9
15.0185 5.6504998 2.102 9
14.9645 5.6624999 2.119 9
14.9875 5.6564999 2.1070001 9
15.0065 5.6545 2.1140001 9
14.9965 5.6535001 2.0999999 9
14.9565 5.6655002 2.128 9
14.9475 5.6655002 2.118 9
14.9525 5.6634998 2.1140001 9
15.0025 5.6525002 2.1010001 9
15.0085 5.6554999 2.1210001 9
14.9615 5.6595001 2.102 9
14.9995 5.6515002 2.0940001 9
15.0385 5.6475 2.105 9
14.9465 5.6624999 2.105 9
15.0455 5.6525002 2.1329999 9
15.0345 5.6504998 2.1159999 9
15.0155 5.6515002 2.1040001 9
15.0025 5.6585002 2.131 9
15.0125 5.6525002 2.108 9
15.0415 5.6444998 2.0940001 9
15.0195 5.6564999 2.131 9
15.0295 5.6535001 2.125 9
15.0605 5.6485 2.1259999 9
15.0005 5.6554999 2.112 9
15.0495 5.6475 2.112 9
15.0655 5.6475 2.125 9
15.0385 5.6535001 2.1340001 9
15.0715 5.6494999 2.138 9
14.9315 5.6665001 2.112 9
15.0875 5.6475 2.1400001 9
14.9635 5.6645002 2.128 9
15.0205 5.6545 2.1229999 9
15.0755 5.6455002 2.1240001 9
15.0395 5.6455002 2.0940001 9
14.9495 5.6624999 2.109 9
14.9365 5.6665001 2.118 9
14.9765 5.6574998 2.1040001 9
14.9535 5.6615 2.1059999 9
14.9985 5.6545 2.108 9
15.0315 5.6545 2.1300001 9
15.0325 5.6494999 2.1110001 9
14.9455 5.6655002 2.1199999 9
14.9825 5.6624999 2.131 9
14.9465 5.6655002 2.119 9
15.0875 5.6475 2.1400001 9
15.0185 5.6494999 2.0969999 9
14.9545 5.6645002 2.119 9
15.0395 5.6455002 2.0969999 9
14.9695 5.6574998 2.0969999 9
15.0175 5.6515002 2.1059999 9
15.0335 5.6485 2.1040001 9
15.0195 5.6504998 2.1040001 9
15.0545 5.6475 2.1170001 9
15.0155 5.6545 2.1199999 9
15.0815 5.6545 2.175 9
15.0095 5.6605 2.1459999 9
14.9725 5.6645002 2.1340001 9
15.0415 5.6554999 2.145 9
15.0285 5.6585002 2.1500001 9
15.0605 5.6515002 2.1400001 9
15.0785 5.6485 2.1429999 9
15.0455 5.6585002 2.1670001 9
15.0215 5.6585002 2.145 9
14.9495 5.6675 2.132 9
14.9765 5.6655002 2.145 9
15.0215 5.6615 2.1619999 9
15.0905 5.6494999 2.1559999 9
15.0655 5.6515002 2.1440001 9
15.0515 5.6535001 2.141 9
15.0875 5.6515002 2.1630001 9
14.9765 5.6634998 2.1329999 9
15.0525 5.6554999 2.1570001 9
15.0925 5.6545 2.184 9
15.0535 5.6564999 2.1630001 9
15.0445 5.6554999 2.1500001 9
15.0845 5.6545 2.1760001 9
15.0395 5.6554999 2.141 9
15.0955 5.6494999 2.158 9
14.9395 5.6694999 2.1329999 9
15.0885 5.6515002 2.1659999 9
15.1085 5.6525002 2.1889999 9
15.0365 5.6605 2.1659999 9
15.1135 5.6494999 2.1760001 9
15.0915 5.6475 2.1440001 9
15.0765 5.6564999 2.178 9
15.1045 5.6494999 2.1689999 9
15.0535 5.6525002 2.138 9
15.0025 5.6615 2.1440001 9
15.0925 5.6504998 2.1630001 9
15.0745 5.6504998 2.1500001 9
15.0335 5.6605 2.164 9
15.0525 5.6585002 2.1719999 9
14.9835 5.6634998 2.138 9
15.0655 5.6535001 2.1530001 9
15.0515 5.6554999 2.1530001 9
15.0595 5.6554999 2.1589999 9
15.0105 5.6595001 2.142 9
15.0685 5.6545 2.1630001 9
15.0795 5.6515002 2.1570001 9
15.0895 5.6525002 2.168 9
15.0905 5.6515002 2.1659999 9
15.0185 5.6595001 2.1489999 9
15.0695 5.6444998 2.115 9
15.0855 5.6434999 2.1059999 9
15.0585 5.6434999 2.0929999 9
15.1135 5.6424999 2.102 9
15.1115 5.6424999 2.095 9
15.1075 5.6434999 2.112 9
15.1995 5.6405001 2.0940001 9
15.1135 5.6444998 2.118 9
15.0965 5.6434999 2.1059999 9
15.1215 5.6424999 2.0999999 9
15.1075 5.6444998 2.1229999 9
15.1555 5.6415 2.096 9
15.1435 5.6424999 2.102 9
15.1155 5.6444998 2.1159999 9
15.1615 5.6424999 2.1059999 9
15.1515 5.6424999 2.1010001 9
15.0645 5.6434999 2.102 9
15.1425 5.6424999 2.1010001 9
15.1455 5.6424999 2.102 9
15.0845 5.6444998 2.112 9
15.0945 5.6444998 2.1110001 9
15.1675 5.6424999 2.102 9
15.1265 5.6424999 2.095 9
15.0635 5.6424999 2.0929999 9
15.1475 5.6415 2.0969999 9
15.1865 5.6415 2.0969999 9
15.1905 5.6415 2.096 9
15.0885 5.6455002 2.1300001 9
15.0945 5.6444998 2.1129999 9
15.0735 5.6424999 2.0940001 9
15.1505 5.6424999 2.1059999 9
15.1475 5.6434999 2.115 9
15.0875 5.6465001 2.132 9
15.0765 5.6455002 2.1229999 9
15.1225 5.6434999 2.112 9
15.1305 5.6434999 2.115 9
15.0905 5.6465001 2.135 9
15.1315 5.6434999 2.1110001 9
15.1795 5.6415 2.102 9
15.1235 5.6434999 2.1110001 9
15.0575 5.6434999 2.095 9
15.1095 5.6434999 2.105 9
15.0955 5.6444998 2.115 9
15.1705 5.6424999 2.1040001 9
15.1925 5.6415 2.095 9
15.1165 5.6424999 2.1010001 9
15.1375 5.6314998 2.1470001 9
15.1225 5.6485 2.184 9
15.1155 5.6424999 2.158 9
15.1455 5.6364999 2.1730001 9
15.1225 5.6345 2.1429999 9
15.1455 5.6335001 2.1630001 9
15.1515 5.6285 2.1570001 9
15.1155 5.6424999 2.1570001 9
15.1315 5.6455002 2.184 9
15.1475 5.6304998 2.1570001 9
15.1265 5.6364999 2.1530001 9
15.1385 5.6314998 2.1489999 9
15.1365 5.6444998 2.187 9
15.1355 5.6385002 2.1689999 9
15.1225 5.6364999 2.1470001 9
15.1175 5.6494999 2.1789999 9
15.1575 5.6234999 2.1470001 9
15.1355 5.6325002 2.1500001 9
15.1345 5.6374998 2.1630001 9
15.1245 5.6405001 2.161 9
15.1265 5.6364999 2.151 9
15.1545 5.6255002 2.151 9
15.0975 5.6444998 2.142 9
15.1005 5.6444998 2.148 9
15.1075 5.6485 2.164 9
15.1965 5.6285 2.132 9
15.2305 5.6314998 2.102 9
15.2335 5.6554999 2.142 9
15.2385 5.6444998 2.1170001 9
15.2355 5.6525002 2.135 9
15.3065 5.6925001 2.132 9
15.2835 5.6665001 2.1099999 9
15.2635 5.6465001 2.0929999 9
15.2925 5.6715002 2.108 9
15.2245 5.6395001 2.1229999 9
15.3225 5.7045002 2.138 9
15.3065 5.7055001 2.1570001 9
15.2735 5.6704998 2.1270001 9
15.3315 5.7195001 2.155 9
15.2785 5.6615 2.1029999 9
15.2205 5.6364999 2.122 9
15.2825 5.6754999 2.125 9
15.1975 5.6304998 2.1359999 9
15.2475 5.6545 2.125 9
15.2595 5.6634998 2.1289999 9
15.2665 5.6684999 2.132 9
15.3045 5.6834998 2.118 9
15.2775 5.6815 2.145 9
15.2945 5.6725001 2.108 9
15.2485 5.6545 2.1229999 9
15.1895 5.6285 2.1389999 9
15.2415 5.6475 2.1199999 9
15.2615 5.6564999 2.1140001 9
15.2745 5.6845002 2.152 9
15.3265 5.7205 2.1630001 9
15.1965 5.6285 2.1329999 9
15.3305 5.7164998 2.152 9
15.2665 5.6725001 2.138 9
15.2795 5.6564999 2.0929999 9
15.2205 5.6494999 2.1470001 9
15.2005 5.6285 2.128 9
15.2705 5.6605 2.1099999 9
15.3165 5.7094998 2.154 9
15.2645 5.6694999 2.1340001 9
15.2635 5.6504998 2.1010001 9
15.3115 5.7104998 2.1600001 9
15.2415 5.6554999 2.1340001 9
15.2355 5.6595001 2.1489999 9
15.2525 5.6415 2.0940001 9
15.2855 5.6834998 2.1389999 9
15.3135 5.7065001 2.151 9
15.2935 5.6745 2.112 9
15.2215 5.6395001 2.1259999 9
15.2025 5.6364999 2.141 9
15.2335 5.6535001 2.1389999 9
15.2855 5.6894999 2.1489999 9
15.2725 5.6665001 2.1210001 9
15.3125 5.6964998 2.1329999 9
15.3295 5.7205 2.1589999 9
15.2685 5.6675 2.1270001 9
15.2915 5.6795001 2.125 9
15.2955 5.6945 2.1470001 9
15.2135 5.6275001 2.1110001 9
15.2975 5.6985002 2.1530001 9
15.2915 5.6904998 2.1459999 9
15.2755 5.6785002 2.1389999 9
15.1765 5.6205001 2.1389999 9
15.2085 5.6294999 2.1210001 9
15.2875 5.6634998 2.098 9
15.2025 5.6234999 2.1170001 9
15.1765 5.6205001 2.1389999 9
15.1985 5.6275001 2.1289999 9
15.2345 5.6385002 2.109 9
15.2105 5.6415 2.141 9
15.3355 5.7224998 2.1570001 9
15.2005 5.6265001 2.1240001 9
15.2365 5.6525002 2.1340001 9
15.2805 5.6675 2.1140001 9
15.2255 5.6385002 2.119 9
15.2625 5.6605 2.1210001 9
15.2525 5.6475 2.1059999 9
15.3195 5.7075 2.1470001 9
15.2785 5.6564999 2.095 9
15.2725 5.6675 2.1229999 9
15.2705 5.6665001 2.1229999 9
15.2715 5.6764998 2.142 9
15.2195 5.6294999 2.109 9
15.2745 5.6745 2.1329999 9
15.3425 5.7315001 2.1670001 9
15.3065 5.6925001 2.132 9
15.2155 5.6304998 2.1159999 9
15.3355 5.7234998 2.1589999 9
15.2225 5.6294999 2.1070001 9
15.2505 5.6515002 2.1170001 9
15.2285 5.6515002 2.1400001 9
15.3075 5.7075 2.1589999 9
15.2855 5.6774998 2.1270001 9
15.2155 5.6684999 2.1700001 9
15.1515 5.6504998 2.1860001 9
15.1515 5.6535001 2.188 9
15.1905 5.6504998 2.164 9
15.1765 5.6455002 2.1659999 9
15.2105 5.6485 2.151 9
15.3185 5.7164998 2.164 9
15.1635 5.6515002 2.1789999 9
15.2595 5.6945 2.1719999 9
15.2095 5.6545 2.158 9
15.2335 5.6735001 2.165 9
15.2275 5.6645002 2.158 9
15.1755 5.6415 2.1630001 9
15.2525 5.6834998 2.165 9
15.1445 5.6574998 2.1960001 9
15.1755 5.6595001 2.1819999 9
15.1775 5.6355 2.1559999 9
15.1775 5.6655002 2.187 9
15.2745 5.7005 2.171 9
15.2085 5.6595001 2.1630001 9
15.1965 5.6634998 2.175 9
15.1825 5.6465001 2.1630001 9
15.1755 5.6424999 2.1630001 9
15.2995 5.7094998 2.1670001 9
15.1445 5.6415 2.1789999 9
15.1825 5.6494999 2.168 9
15.2625 5.7005 2.177 9
15.1835 5.6595001 2.177 9
15.1325 5.6504998 2.1949999 9
15.2125 5.6715002 2.174 9
15.1605 5.6494999 2.1789999 9
15.1495 5.6364999 2.1719999 9
15.2415 5.6865001 2.174 9
15.2345 5.6675 2.1589999 9
15.2555 5.6824999 2.1619999 9
15.1835 5.6434999 2.1600001 9
15.2065 5.6525002 2.1570001 9
15.2375 5.6715002 2.1600001 9
15.1735 5.6574998 2.1800001 9
15.1555 5.6314998 2.1630001 9
15.2855 5.7104998 2.1760001 9
15.2665 5.7005 2.175 9
15.2725 5.6894999 2.1600001 9
15.1645 5.6615 2.1889999 9
15.1765 5.6285 2.148 9
15.1505 5.6525002 2.187 9
15.1645 5.6645002 2.1930001 9
15.1435 5.6535001 2.1919999 9
15.1575 5.6325002 2.1630001 9
15.2395 5.6815 2.1700001 9
15.2105 5.6585002 2.161 9
15.1565 5.6485 2.181 9
15.2045 5.6704998 2.177 9
15.2135 5.6515002 2.152 9
15.2165 5.6764998 2.177 9
15.2675 5.6985002 2.1730001 9
15.1575 5.6615 2.1930001 9
15.2495 5.6935 2.177 9
15.1455 5.6574998 2.1960001 9
15.2175 5.6815 2.181 9
15.1465 5.6535001 2.1900001 9
15.2195 5.6774998 2.1760001 9
15.2045 5.6434999 2.1489999 9
15.2115 5.6745 2.178 9
15.2495 5.6964998 2.1800001 9
15.2525 5.6855001 2.1670001 9
15.1995 5.6525002 2.161 9
15.2385 5.6745 2.1630001 9
15.2755 5.6894999 2.1589999 9
15.2985 5.7115002 2.1700001 9
15.1555 5.6465001 2.1789999 9
15.2115 5.6704998 2.1730001 9
15.1485 5.6364999 2.1719999 9
15.1915 5.6675 2.181 9
15.3245 5.7205 2.165 9
15.2585 5.6985002 2.178 9
15.3195 5.7205 2.168 9
15.2145 5.6725001 2.174 9
15.2745 5.6975002 2.168 9
15.1815 5.6304998 2.148 9
15.2205 5.6725001 2.171 9
15.2065 5.6694999 2.1760001 9
15.1725 5.6595001 2.1830001 9
15.1925 5.6465001 2.1589999 9
15.2955 5.7205 2.1919999 9
15.2145 5.6935 2.2130001 9
15.2865 5.7195001 2.198 9
15.1995 5.6795001 2.1919999 9
15.2845 5.7185001 2.2 9
15.2765 5.7164998 2.2030001 9
15.1715 5.6704998 2.2019999 9
15.1475 5.6595001 2.198 9
15.2195 5.6945 2.211 9
15.2535 5.7075 2.2060001 9
15.2135 5.6915002 2.2090001 9
15.2455 5.7024999 2.2 9
15.1575 5.6655002 2.2030001 9
15.2675 5.7094998 2.1960001 9
15.2875 5.7175002 2.191 9
15.2735 5.7125001 2.1949999 9
15.2755 5.7145 2.1989999 9
15.3215 5.7255001 2.1730001 9
15.2235 5.6884999 2.188 9
15.2095 5.6894999 2.21 9
15.2605 5.7104998 2.204 9
15.2345 5.7024999 2.2160001 9
15.2065 5.6875 2.207 9
15.1565 5.6615 2.1949999 9
15.2745 5.7145 2.1989999 9
15.3185 5.7245002 2.174 9
15.1985 5.6785002 2.1900001 9
15.2165 5.6915002 2.2060001 9
15.2275 5.7005 2.217 9
15.1825 5.6735001 2.1960001 9
15.2915 5.7175002 2.187 9
15.2415 5.6945 2.184 9
15.2805 5.7094998 2.1789999 9
15.2225 5.6904998 2.194 9
15.1635 5.6655002 2.197 9
15.2035 5.6845002 2.2030001 9
15.2465 5.7055001 2.21 9
15.1755 5.6694999 2.1930001 9
15.2585 5.7014999 2.1830001 9
15.3325 5.7294998 2.1730001 9
15.2035 5.6805 2.1889999 9
15.2885 5.7125001 2.177 9
15.1635 5.6655002 2.1960001 9
15.2555 5.7034998 2.1919999 9
15.2315 5.6995001 2.21 9
15.2785 5.7154999 2.197 9
15.2095 5.6904998 2.211 9
15.2245 5.6925001 2.1989999 9
15.2965 5.7185001 2.184 9
15.3335 5.7484999 2.2550001 9
15.2815 5.7224998 2.223 9
15.2905 5.7245002 2.2149999 9
15.2835 5.7205 2.211 9
15.2925 5.7234998 2.21 9
15.2865 5.7234998 2.22 9
15.3005 5.7305002 2.2249999 9
15.2745 5.7175002 2.21 9
15.2965 5.7275 2.221 9
15.3165 5.7275 2.1849999 9
15.3125 5.7305002 2.207 9
15.2895 5.7224998 2.2090001 9
15.2985 5.7265 2.2130001 9
15.2865 5.7245002 2.224 9
15.3355 5.7315001 2.1760001 9
15.3345 5.7335 2.184 9
15.3215 5.7405 2.2379999 9
15.3375 5.7405 2.2130001 9
15.2705 5.7205 2.2290001 9
15.3325 5.7395 2.2160001 9
15.3085 5.7364998 2.2420001 9
15.3305 5.7325001 2.1860001 9
15.3025 5.7325001 2.233 9
15.3035 5.7255001 2.198 9
15.2905 5.7224998 2.2060001 9
15.3005 5.7265 2.21 9
15.2855 5.7255001 2.23 9
15.2795 5.7205 2.217 9
15.2665 5.7145 2.211 9
15.3245 5.7344999 2.204 9
15.3245 5.7284999 2.1800001 9
15.3195 5.7364998 2.2249999 9
15.3295 5.7435002 2.237 9
15.3195 5.7424998 2.2479999 9
15.3285 5.7405 2.2260001 9
15.3055 5.7255001 2.197 9
15.3105 5.7284999 2.2019999 9
15.2965 5.7234998 2.2 9
15.3205 5.7414999 2.2449999 9
15.3195 5.7325001 2.204 9
15.3155 5.7325001 2.2130001 9
15.3305 5.7305002 2.175 9
15.3365 5.7474999 2.247 9
15.3255 5.7405 2.233 9
15.3315 5.7445002 2.2390001 9
15.3935 5.6764998 2.096 9
15.3905 5.6764998 2.0969999 9
15.4245 5.6884999 2.1059999 9
15.4025 5.6774998 2.095 9
15.4075 5.6834998 2.1029999 9
15.4165 5.6845002 2.1029999 9
15.4005 5.6795001 2.098 9
15.4085 5.6815 2.0999999 9
15.3415 5.6845002 2.1140001 9
15.3405 5.7135 2.1459999 9
15.3515 5.7005 2.1300001 9
15.3675 5.6975002 2.1259999 9
15.3295 5.7094998 2.142 9
15.3275 5.6975002 2.1289999 9
15.3675 5.6964998 2.1240001 9
15.3285 5.6684999 2.096 9
15.3665 5.7034998 2.1329999 9
15.3665 5.7135 2.1440001 9
15.3625 5.7164998 2.148 9
15.3355 5.6795001 2.109 9
15.4295 5.7005 2.1229999 9
15.3755 5.6894999 2.1159999 9
15.3485 5.6694999 2.096 9
15.3765 5.7135 2.142 9
15.3525 5.6715002 2.098 9
15.3425 5.7075 2.1389999 9
15.3235 5.6815 2.1110001 9
15.3295 5.7115002 2.145 9
15.3415 5.7275 2.1619999 9
15.3195 5.6815 2.112 9
15.3455 5.6865001 2.115 9
15.4015 5.6855001 2.109 9
15.4235 5.6995001 2.1229999 9
15.4095 5.6975002 2.122 9
15.3555 5.6704998 2.096 9
15.3395 5.6875 2.1170001 9
15.3045 5.6774998 2.109 9
15.3675 5.6995001 2.128 9
15.3415 5.7055001 2.1370001 9
15.3685 5.7164998 2.1470001 9
15.3535 5.7214999 2.154 9
15.3545 5.6935 2.122 9
15.4025 5.6964998 2.1210001 9
15.3465 5.6865001 2.1140001 9
15.3655 5.6935 2.1210001 9
15.4075 5.7005 2.1259999 9
15.3635 5.7014999 2.1300001 9
15.4125 5.7065001 2.131 9
15.3905 5.7075 2.135 9
15.4025 5.7094998 2.1359999 9
15.3995 5.6865001 2.1099999 9
15.3355 5.7205 2.154 9
15.3385 5.6725001 2.099 9
15.3415 5.6684999 2.095 9
15.3245 5.6865001 2.1170001 9
15.4055 5.6915002 2.115 9
15.4075 5.6915002 2.1159999 9
15.3355 5.7185001 2.152 9
15.3655 5.6764998 2.102 9
15.3535 5.7145 2.1459999 9
15.4175 5.6945 2.118 9
15.3965 5.6904998 2.115 9
15.3655 5.6894999 2.1170001 9
15.3965 5.7055001 2.132 9
15.3105 5.6815 2.1129999 9
15.3275 5.6915002 2.122 9
15.3015 5.6745 2.105 9
15.3135 5.6645002 2.0929999 9
15.3565 5.7055001 2.1359999 9
15.3765 5.6774998 2.102 9
15.3835 5.7175002 2.1470001 9
15.3855 5.6865001 2.1110001 9
15.3525 5.6925001 2.1210001 9
15.3395 5.6855001 2.115 9
15.3775 5.6774998 2.102 9
15.3825 5.7115002 2.1400001 9
15.3825 5.6945 2.1210001 9
15.3615 5.6805 2.1070001 9
15.3875 5.6805 2.105 9
15.3135 5.6904998 2.122 9
15.3345 5.6884999 2.118 9
15.3675 5.6834998 2.109 9
15.3135 5.6894999 2.122 9
15.4025 5.7084999 2.135 9
15.3855 5.7115002 2.1400001 9
15.3405 5.6855001 2.115 9
15.4475 5.6945 2.1359999 9
15.3795 5.7205 2.1559999 9
15.4095 5.7094998 2.161 9
15.4175 5.7065001 2.145 9
15.4525 5.6935 2.1489999 9
15.4015 5.7125001 2.1589999 9
15.4075 5.7094998 2.138 9
15.3585 5.7275 2.164 9
15.4375 5.6995001 2.1570001 9
15.4055 5.7104998 2.1470001 9
15.4295 5.7024999 2.154 9
15.4315 5.7005 2.1259999 9
15.4425 5.6975002 2.155 9
15.3805 5.7195001 2.161 9
15.4375 5.6985002 2.1240001 9
15.4425 5.6964998 2.1400001 9
15.4005 5.7125001 2.1589999 9
15.4195 5.7055001 2.148 9
15.4325 5.6995001 2.128 9
15.4135 5.7075 2.1470001 9
15.4345 5.6995001 2.1459999 9
15.4205 5.7055001 2.154 9
15.4535 5.6935 2.1530001 9
15.4165 5.7065001 2.1459999 9
15.4445 5.7145 2.1789999 9
15.4555 5.7024999 2.1670001 9
15.3765 5.7284999 2.1730001 9
15.4455 5.6975002 2.158 9
15.4435 5.7104998 2.1730001 9
15.4145 5.7075 2.161 9
15.4225 5.7115002 2.168 9
15.4395 5.7125001 2.174 9
15.4245 5.7164998 2.174 9
15.4445 5.7014999 2.1630001 9
15.4015 5.7195001 2.1700001 9
15.4455 5.7145 2.1789999 9
15.4055 5.7224998 2.175 9
15.4495 5.7045002 2.168 9
15.4445 5.7034998 2.165 9
15.4285 5.7195001 2.1789999 9
15.4475 5.6964998 2.158 9
15.4025 5.7214999 2.1730001 9
15.4475 5.7164998 2.1819999 9
15.3495 5.7315001 2.1670001 9
15.4445 5.7185001 2.184 9
15.3915 5.7234998 2.171 9
15.4165 5.7245002 2.181 9
15.4335 5.7135 2.174 9
15.4795 5.6915002 2.1359999 9
15.5685 5.6845002 2.135 9
15.4785 5.6915002 2.1389999 9
15.5845 5.6834998 2.135 9
15.5395 5.6855001 2.142 9
15.4525 5.6954999 2.1229999 9
15.5555 5.6855001 2.1359999 9
15.4925 5.6904998 2.1340001 9
15.5265 5.6884999 2.1300001 9
15.5055 5.6894999 2.135 9
15.4655 5.6935 2.1300001 9
15.4675 5.6925001 2.138 9
15.4915 5.6894999 2.145 9
15.4995 5.6904998 2.135 9
15.5435 5.6855001 2.1400001 9
15.4925 5.6904998 2.1340001 9
15.5055 5.6875 2.1459999 9
15.5105 5.6894999 2.1300001 9
15.4725 5.6915002 2.141 9
15.4785 5.6935 2.125 9
15.4535 5.6935 2.1400001 9
15.4875 5.6925001 2.1270001 9
15.4895 5.6915002 2.132 9
15.4595 5.6915002 2.1440001 9
15.4695 5.6904998 2.1459999 9
15.4685 5.6915002 2.1440001 9
15.4995 5.7094998 2.2219999 9
15.4995 5.7014999 2.1849999 9
15.5395 5.7154999 2.2290001 9
15.5175 5.7075 2.2060001 9
15.4955 5.6995001 2.177 9
15.5255 5.7234998 2.2709999 9
15.5285 5.7175002 2.244 9
15.4865 5.7005 2.188 9
15.4875 5.7024999 2.198 9
15.5205 5.7135 2.233 9
15.5265 5.7224998 2.2690001 9
15.5315 5.7214999 2.2609999 9
15.4885 5.7005 2.188 9
15.5175 5.7104998 2.2190001 9
15.4885 5.7034998 2.204 9
15.4675 5.6915002 2.1589999 9
15.5175 5.7145 2.237 9
15.4835 5.6954999 2.1689999 9
15.5295 5.7154999 2.2349999 9
15.5285 5.7094998 2.2079999 9
15.5135 5.7055001 2.198 9
15.5195 5.7125001 2.2279999 9
15.4955 5.7065001 2.2130001 9
15.4705 5.6935 2.1670001 9
15.5295 5.7084999 2.201 9
15.4685 5.6925001 2.1619999 9
15.5335 5.7145 2.2279999 9
15.5155 5.7104998 2.2190001 9
15.5035 5.7065001 2.2060001 9
15.5225 5.7154999 2.2379999 9
15.5365 5.7125001 2.2160001 9
15.5335 5.7154999 2.233 9
15.5235 5.7205 2.26 9
15.5095 5.7055001 2.1989999 9
15.5005 5.7024999 2.1930001 9
15.5335 5.6925001 2.165 9
15.5485 5.6964998 2.181 9
15.5395 5.7055001 2.211 9
15.5185 5.7034998 2.2049999 9
15.5345 5.7214999 2.267 9
15.5635 5.6884999 2.152 9
15.5295 5.7084999 2.22 9
15.5025 5.7075 2.2179999 9
15.5495 5.6915002 2.1630001 9
15.5175 5.6925001 2.165 9
15.5445 5.6884999 2.154 9
15.5165 5.7145 2.2420001 9
15.5655 5.6884999 2.154 9
15.5275 5.7094998 2.2249999 9
15.5485 5.6945 2.1719999 9
15.4805 5.6894999 2.154 9
15.5045 5.6925001 2.1630001 9
15.5755 5.6915002 2.164 9
15.5065 5.6935 2.1689999 9
15.5695 5.6855001 2.141 9
15.5775 5.6834998 2.1370001 9
15.5175 5.7115002 2.2309999 9
15.5825 5.6894999 2.1559999 9
15.5315 5.6915002 2.161 9
15.5685 5.6995001 2.1930001 9
15.5215 5.7145 2.2409999 9
15.4965 5.6964998 2.1789999 9
15.4895 5.7005 2.1930001 9
15.5185 5.7125001 2.2349999 9
15.5495 5.6935 2.1689999 9
15.5405 5.7205 2.2620001 9
15.5725 5.6925001 2.1670001 9
15.5105 5.7045002 2.2049999 9
15.4895 5.6945 2.1719999 9
15.4865 5.6945 2.1700001 9
15.5215 5.6954999 2.1760001 9
15.5365 5.7195001 2.26 9
15.5015 5.7034998 2.2019999 9
15.5105 5.6925001 2.1659999 9
15.5815 5.6855001 2.142 9
15.5235 5.7094998 2.2260001 9
15.5005 5.6964998 2.177 9
15.4775 5.6925001 2.1630001 9
15.5365 5.6954999 2.1760001 9
15.5705 5.6995001 2.191 9
15.5345 5.6945 2.1719999 9
15.5325 5.6904998 2.1600001 9
15.5455 5.6915002 2.164 9
15.5125 5.7084999 2.221 9
15.5675 5.6894999 2.155 9
15.5465 5.7014999 2.1989999 9
15.5265 5.7185001 2.256 9
15.5665 5.7014999 2.197 9
15.5335 5.6865001 2.145 9
15.5495 5.6865001 2.1470001 9
15.5775 5.6884999 2.152 9
15.5055 5.7125001 2.2349999 9
15.5375 5.6985002 2.188 9
15.5305 5.7164998 2.2479999 9
15.5205 5.6964998 2.178 9
15.5525 5.6855001 2.142 9
15.4965 5.7075 2.217 9
15.5375 5.7005 2.194 9
15.5625 5.6964998 2.1800001 9
15.5345 5.6954999 2.178 9
15.4935 5.6884999 2.151 9
15.5665 5.6894999 2.158 9
15.4955 5.6964998 2.177 9
15.5085 5.6925001 2.165 9
15.5275 5.7065001 2.2149999 9
15.5505 5.6985002 2.1860001 9
15.5455 5.7154999 2.2460001 9
15.4905 5.6985002 2.184 9
15.5065 5.6875 2.148 9
15.5075 5.6915002 2.1630001 9
15.5255 5.7075 2.2190001 9
15.5365 5.6904998 2.158 9
15.5415 5.7014999 2.1960001 9
15.5405 5.7195001 2.2590001 9
15.5785 5.6915002 2.1630001 9
15.5395 5.7154999 2.244 9
15.5205 5.6884999 2.151 9
15.5635 5.6855001 2.1429999 9
15.5225 5.7185001 2.256 9
15.5675 5.6894999 2.158 9
15.5585 5.6904998 2.1600001 9
15.5275 5.7135 2.2390001 9
15.5085 5.7055001 2.21 9
15.5015 5.6904998 2.1589999 9
15.5365 5.7045002 2.207 9
15.5595 5.6985002 2.1860001 9
15.5345 5.7185001 2.2550001 9
15.5635 5.6935 2.1700001 9
15.5455 5.7145 2.244 9
15.5305 5.6935 2.168 9
15.5135 5.7084999 2.221 9
15.5425 5.7115002 2.233 9
15.5245 5.6785002 2.115 9
15.5145 5.6725001 2.1059999 9
15.5585 5.6774998 2.1210001 9
15.4565 5.6945 2.1199999 9
15.4325 5.6894999 2.109 9
15.4515 5.6785002 2.1010001 9
15.5225 5.6795001 2.115 9
15.4735 5.6805 2.1070001 9
15.5275 5.6815 2.119 9
15.5085 5.6894999 2.1240001 9
15.4355 5.6925001 2.1129999 9
15.4305 5.6884999 2.1070001 9
15.4555 5.6785002 2.1010001 9
15.4565 5.6834998 2.1070001 9
15.4445 5.6925001 2.115 9
15.4605 5.6845002 2.109 9
15.4505 5.6785002 2.1010001 9
15.4245 5.6834998 2.1010001 9
15.5175 5.6824999 2.118 9
15.4555 5.6865001 2.1099999 9
15.5705 5.6845002 2.131 9
15.4235 5.6855001 2.1029999 9
15.4715 5.6774998 2.1029999 9
15.5355 5.6865001 2.1259999 9
15.4695 5.6875 2.1140001 9
15.4325 5.6834998 2.102 9
15.4975 5.6715002 2.102 9
15.4595 5.6774998 2.1010001 9
15.4335 5.6774998 2.096 9
15.4525 5.6824999 2.105 9
15.4305 5.6875 2.1059999 9
15.4965 5.6845002 2.1170001 9
15.4265 5.6805 2.098 9
15.5085 5.6834998 2.118 9
15.4755 5.6805 2.108 9
15.4365 5.6935 2.1140001 9
15.4605 5.6875 2.1129999 9
15.5405 5.6785002 2.118 9
15.4445 5.6904998 2.1129999 9
15.4665 5.6875 2.1140001 9
15.5545 5.6785002 2.1210001 9
15.4845 5.6764998 2.1040001 9
15.4515 5.6774998 2.0999999 9
15.5025 5.6875 2.1210001 9
15.5175 5.6815 2.1170001 9
15.5305 5.6774998 2.115 9
15.4795 5.6764998 2.1040001 9
15.4965 5.6725001 2.1029999 9
15.7125 5.6615 2.2179999 9
15.5665 5.7094998 2.2460001 9
15.6105 5.6915002 2.217 9
15.6775 5.6684999 2.198 9
15.6585 5.6805 2.2360001 9
15.5885 5.7034998 2.2479999 9
15.6755 5.6694999 2.197 9
15.6165 5.6884999 2.2090001 9
15.6745 5.6645002 2.164 9
15.6915 5.6634998 2.1919999 9
15.6225 5.6785002 2.1600001 9
15.6625 5.6665001 2.155 9
15.6815 5.6655002 2.1849999 9
15.7815 5.6345 2.1849999 9
15.6095 5.6815 2.1559999 9
15.5935 5.6995001 2.2309999 9
15.7185 5.6535001 2.1760001 9
15.6265 5.6884999 2.2249999 9
15.6375 5.6855001 2.224 9
15.7415 5.6494999 2.1960001 9
15.6195 5.6824999 2.178 9
15.6315 5.6875 2.2279999 9
15.6885 5.6665001 2.201 9
15.6125 5.6865001 2.1889999 9
15.6555 5.6684999 2.1570001 9
15.6585 5.6764998 2.2119999 9
15.6335 5.6735001 2.145 9
15.5545 5.7164998 2.266 9
15.5945 5.7024999 2.2539999 9
15.7765 5.6374998 2.1900001 9
15.5945 5.6945 2.207 9
15.5875 5.6975002 2.2119999 9
15.6885 5.6675 2.207 9
15.6595 5.6675 2.1570001 9
15.7535 5.6455002 2.1960001 9
15.6095 5.6894999 2.2030001 9
15.7545 5.6434999 2.184 9
15.7095 5.6615 2.2079999 9
15.6265 5.6855001 2.2049999 9
15.6115 5.6865001 2.1860001 9
15.5495 5.7145 2.2420001 9
15.7265 5.6525002 2.1900001 9
15.7545 5.6444998 2.1860001 9
15.6545 5.6764998 2.2060001 9
15.6845 5.6694999 2.2160001 9
15.5835 5.7065001 2.2579999 9
15.7765 5.6385002 2.1989999 9
15.6625 5.6665001 2.1559999 9
15.5595 5.7115002 2.243 9
15.6135 5.6925001 2.2290001 9
15.6925 5.6595001 2.1670001 9
15.6475 5.6795001 2.211 9
15.7135 5.6564999 2.187 9
15.6195 5.6824999 2.1730001 9
15.6575 5.6764998 2.21 9
15.6335 5.6855001 2.2219999 9
15.6305 5.6774998 2.1659999 9
15.7095 5.6605 2.2060001 9
15.5535 5.7115002 2.237 9
15.5805 5.6975002 2.194 9
15.6215 5.6855001 2.197 9
15.5685 5.7065001 2.2279999 9
15.7335 5.6494999 2.1800001 9
15.6935 5.6585002 2.161 9
15.6535 5.6764998 2.2 9
15.7235 5.6585002 2.217 9
