# .PCD v0.7 - Point Cloud Data file format
VERSION 0.7
FIELDS x y z label
SIZE 4 4 4 4
TYPE F F F U
COUNT 1 1 1 1
WIDTH 1714
HEIGHT 1
VIEWPOINT 0 0 0 1 0 0 0
POINTS 1714
DATA ascii
16.192499 2.4354999 2.28 9
16.1635 2.4844999 2.2839999 9
16.365499 2.4075 2.279 9
16.112499 2.4885001 2.283 9
16.377501 2.4094999 2.28 9
16.210501 2.4735 2.283 9
16.3915 2.4065001 2.28 9
16.3195 2.4135001 2.28 9
16.453501 2.4925001 2.286 9
16.234501 2.4224999 2.28 9
16.445499 2.4535 2.283 9
16.577499 2.4725001 2.286 9
16.429501 2.4625001 2.2839999 9
16.247499 2.4625001 2.283 9
16.2745 2.3794999 2.277 9
16.192499 2.4235001 2.279 9
16.5305 2.4885001 2.2869999 9
16.0875 2.4775 2.283 9
16.404499 2.4335001 2.2820001 9
16.3165 2.3975 2.2780001 9
16.5515 2.4914999 2.2869999 9
16.4165 2.4284999 2.2809999 9
16.3895 2.4224999 2.2809999 9
16.387501 2.4914999 2.286 9
16.536501 2.4775 2.286 9
16.431499 2.4254999 2.2809999 9
16.6695 2.5025001 2.289 9
16.6415 2.4765 2.2869999 9
16.2535 2.4075 2.279 9
16.3995 2.4795001 2.2850001 9
16.3535 2.4695001 2.2839999 9
16.3445 2.3905001 2.2780001 9
16.272499 2.3715 2.276 9
16.613501 2.4775 2.286 9
16.262501 2.3845 2.277 9
16.269501 2.4395001 2.2809999 9
16.328501 2.4435 2.2820001 9
16.313499 2.4835 2.2850001 9
16.254499 2.4215 2.28 9
16.2645 2.4985001 2.2850001 9
16.5315 2.5014999 2.2880001 9
16.445499 2.4705 2.2850001 9
16.4785 2.4775 2.2850001 9
16.327499 2.4525001 2.283 9
16.463499 2.4514999 2.283 9
16.077499 2.4865 2.283 9
16.359501 2.4735 2.2839999 9
16.3895 2.4135001 2.28 9
16.348499 2.4575 2.283 9
16.3575 2.4085 2.28 9
16.303499 2.4805 2.2839999 9
16.154499 2.4805 2.283 9
16.2875 2.3755 2.277 9
16.2645 2.4735 2.2839999 9
16.456499 2.4475 2.283 9
16.3755 2.4445 2.2820001 9
16.5275 2.4784999 2.286 9
16.4405 2.4865 2.286 9
16.622499 2.4995 2.2880001 9
16.4105 2.4645 2.2839999 9
16.421499 2.4295001 2.2820001 9
16.3465 2.3945 2.2780001 9
16.501499 2.4844999 2.286 9
16.421499 2.4714999 2.2850001 9
16.3395 2.4015 2.279 9
16.4165 2.4914999 2.286 9
16.563499 2.4595001 2.2850001 9
16.352501 2.4505 2.283 9
16.268499 2.4054999 2.279 9
16.3755 2.4844999 2.2850001 9
16.283501 2.4175 2.28 9
16.6175 2.5044999 2.2880001 9
16.7465 2.5044999 2.289 9
16.352501 2.3985 2.279 9
16.4335 2.4475 2.283 9
16.6105 2.4985001 2.2880001 9
16.5145 2.4825001 2.286 9
16.7085 2.5065 2.289 9
16.4445 2.4995 2.2869999 9
16.4855 2.4875 2.286 9
16.3015 2.4965 2.2850001 9
16.4405 2.4484999 2.283 9
16.404499 2.4974999 2.286 9
16.4095 2.4944999 2.286 9
16.227501 2.4035001 2.2780001 9
16.4095 2.4655001 2.2839999 9
16.3685 2.3975 2.279 9
16.2225 2.4955001 2.2850001 9
16.304501 2.4974999 2.286 9
16.4275 2.4145 2.28 9
16.102501 2.4844999 2.283 9
16.2145 2.4024999 2.2780001 9
16.175501 2.4914999 2.2839999 9
16.3915 2.4435 2.2820001 9
16.4405 2.4384999 2.2820001 9
16.3715 2.4625001 2.2839999 9
16.2435 2.4565001 2.2820001 9
16.4575 2.4514999 2.283 9
16.4055 2.4365001 2.2820001 9
16.7145 2.4965 2.289 9
16.2435 2.4405 2.2809999 9
16.5285 2.4435 2.283 9
16.2505 2.3994999 2.2780001 9
16.2225 2.4825001 2.2839999 9
16.3295 2.4855001 2.2850001 9
16.519501 2.4655001 2.2850001 9
16.5285 2.5035 2.2880001 9
16.328501 2.4445 2.2820001 9
16.4305 2.4974999 2.2869999 9
16.4335 2.4395001 2.2820001 9
16.5275 2.4744999 2.286 9
16.3295 2.4805 2.2850001 9
16.525499 2.4775 2.286 9
16.5525 2.4885001 2.2869999 9
16.2335 2.4795001 2.2839999 9
16.1085 2.4914999 2.2839999 9
16.244499 2.4365001 2.2809999 9
16.543501 2.4565001 2.2839999 9
16.5555 2.4684999 2.2850001 9
16.3085 2.3824999 2.277 9
16.3825 2.4944999 2.286 9
16.224501 2.4575 2.2820001 9
16.3435 2.4925001 2.286 9
16.560499 2.4695001 2.2850001 9
16.453501 2.4495001 2.283 9
16.4655 2.4735 2.2850001 9
16.5655 2.4635 2.2850001 9
16.2715 2.4305 2.28 9
16.3445 2.4995 2.286 9
16.1845 2.4384999 2.28 9
16.304501 2.3954999 2.2780001 9
16.3825 2.4645 2.2839999 9
16.390499 2.4405 2.2820001 9
16.237499 2.3864999 2.277 9
16.352501 2.3945 2.2780001 9
16.6485 2.4755001 2.2869999 9
16.334499 2.4584999 2.283 9
16.376499 2.4115 2.28 9
16.626499 2.4765 2.286 9
16.217501 2.4145 2.279 9
16.2815 2.4465001 2.2820001 9
16.5585 2.4914999 2.2869999 9
16.318501 2.4154999 2.28 9
16.179501 2.4345 2.28 9
16.466499 2.4655001 2.2850001 9
16.348499 2.4324999 2.2809999 9
16.290501 2.3945 2.2780001 9
16.2005 2.4475 2.2809999 9
16.209499 2.4744999 2.283 9
16.2635 2.4124999 2.279 9
16.272499 2.4725001 2.2839999 9
16.3745 2.4744999 2.2839999 9
16.717501 2.5065 2.289 9
16.154499 2.4695001 2.2820001 9
16.164499 2.4335001 2.28 9
16.3095 2.4324999 2.2809999 9
16.5235 2.4965 2.2869999 9
16.3325 2.4684999 2.2839999 9
16.3685 2.5005 2.286 9
16.2075 2.4655001 2.283 9
16.4125 2.4295001 2.2809999 9
16.268499 2.4944999 2.2850001 9
16.224501 2.3894999 2.277 9
16.220501 2.4755001 2.283 9
16.411501 2.4625001 2.2839999 9
16.220501 2.4265001 2.28 9
16.6665 2.4814999 2.2869999 9
16.613501 2.4725001 2.286 9
16.3465 2.4935 2.286 9
16.348499 2.4844999 2.2850001 9
16.2955 2.3945 2.2780001 9
16.289499 2.3794999 2.277 9
16.2675 2.4454999 2.2820001 9
16.518499 2.4775 2.286 9
16.532499 2.4765 2.286 9
16.192499 2.4565001 2.2820001 9
16.237499 2.4224999 2.28 9
16.341499 2.4885001 2.2850001 9
16.3465 2.4914999 2.2850001 9
16.290501 2.3905001 2.2780001 9
16.4195 2.5005 2.2869999 9
16.5425 2.4825001 2.286 9
16.4195 2.4175 2.2809999 9
16.3575 2.4844999 2.2850001 9
16.1635 2.4284999 2.28 9
16.1145 2.4605 2.2820001 9
16.2875 2.4665 2.283 9
16.418501 2.4554999 2.283 9
16.306499 2.4445 2.2820001 9
16.3745 2.4075 2.28 9
16.3255 2.4015 2.279 9
16.415501 2.4235001 2.2809999 9
16.432501 2.4805 2.2850001 9
16.511499 2.4405 2.283 9
16.623501 2.4814999 2.2869999 9
16.3475 2.4335001 2.2809999 9
16.3265 2.4454999 2.2820001 9
16.2075 2.4665 2.283 9
16.3055 2.4885001 2.2850001 9
16.436501 2.4435 2.283 9
16.240499 2.3855 2.277 9
16.5005 2.4905 2.2869999 9
16.6075 2.4974999 2.2880001 9
16.303499 2.4645 2.283 9
16.2985 2.4714999 2.2839999 9
16.2575 2.3875 2.277 9
16.546499 2.4725001 2.286 9
16.2015 2.4175 2.279 9
16.3815 2.4625001 2.2839999 9
16.2505 2.3785 2.277 9
16.366501 2.4205 2.28 9
16.5805 2.4814999 2.2869999 9
16.481501 2.4655001 2.2850001 9
16.612499 2.4955001 2.2880001 9
16.4245 2.4974999 2.286 9
16.518499 2.4735 2.2850001 9
16.1905 2.4545 2.2820001 9
16.553499 2.4735 2.286 9
16.373501 2.4675 2.2839999 9
16.2005 2.4505 2.2809999 9
16.4615 2.4695001 2.2850001 9
16.5105 2.4695001 2.2850001 9
16.210501 2.4744999 2.283 9
16.626499 2.5014999 2.2880001 9
16.3745 2.4205 2.2809999 9
16.189501 2.4335001 2.28 9
16.2605 2.4545 2.2820001 9
16.494499 2.4435 2.283 9
16.259501 2.4675 2.283 9
16.4585 2.4554999 2.2839999 9
16.2645 2.4844999 2.2839999 9
16.4125 2.4925001 2.286 9
16.303499 2.4475 2.2820001 9
16.210501 2.4625001 2.2820001 9
16.4555 2.4224999 2.2809999 9
16.5935 2.4974999 2.2880001 9
16.3715 2.4135001 2.28 9
16.422501 2.4675 2.2839999 9
16.306499 2.4855001 2.2850001 9
16.7215 2.4985001 2.289 9
16.5235 2.4905 2.2869999 9
16.373501 2.4525001 2.283 9
16.193501 2.4315 2.28 9
16.2985 2.4645 2.283 9
16.321501 2.4584999 2.283 9
16.533501 2.4905 2.2869999 9
16.293501 2.4944999 2.2850001 9
16.4235 2.4175 2.2809999 9
16.689501 2.4965 2.2880001 9
16.234501 2.3994999 2.2780001 9
16.3505 2.4974999 2.286 9
16.556499 2.4675 2.2850001 9
16.429501 2.4545 2.283 9
16.0835 2.4814999 2.283 9
16.328501 2.4345 2.2809999 9
16.436501 2.4584999 2.2839999 9
16.223499 2.4855001 2.2839999 9
16.3025 2.3864999 2.2780001 9
16.2885 2.3815 2.277 9
16.2085 2.4665 2.283 9
16.1805 2.4684999 2.283 9
16.140499 2.4425001 2.28 9
16.213499 2.4435 2.2809999 9
16.6325 2.4784999 2.2869999 9
16.181499 2.4254999 2.279 9
16.6315 2.4895 2.2869999 9
16.4135 2.4215 2.2809999 9
16.4335 2.4195001 2.2809999 9
16.3545 2.4184999 2.28 9
16.1395 2.4525001 2.2809999 9
16.532499 2.4985001 2.2869999 9
16.2015 2.4495001 2.2809999 9
16.695499 2.4914999 2.2880001 9
16.247499 2.4625001 2.283 9
16.4245 2.4154999 2.2809999 9
16.2945 2.5005 2.286 9
16.2645 2.4584999 2.2820001 9
16.3585 2.4895 2.2850001 9
16.3325 2.4545 2.283 9
16.557501 2.4875 2.2869999 9
16.2955 2.3835001 2.277 9
16.2225 2.3965001 2.2780001 9
16.4485 2.4265001 2.2820001 9
16.518499 2.4495001 2.2839999 9
16.546499 2.4865 2.2869999 9
16.2115 2.4245 2.28 9
16.349501 2.4525001 2.283 9
16.1605 2.4554999 2.2809999 9
16.366501 2.4195001 2.28 9
16.487499 2.4974999 2.2869999 9
16.2215 2.4844999 2.2839999 9
16.3915 2.4165001 2.28 9
16.4855 2.4475 2.283 9
16.4515 2.4324999 2.2820001 9
16.737499 2.5035 2.289 9
16.282499 2.4525001 2.2820001 9
16.193501 2.4154999 2.279 9
16.081499 2.4865 2.283 9
16.203501 2.4554999 2.2820001 9
16.3605 2.3945 2.279 9
16.425501 2.4525001 2.283 9
16.3745 2.4254999 2.2809999 9
16.3445 2.4814999 2.2850001 9
16.2215 2.4645 2.283 9
16.598499 2.4714999 2.286 9
16.401501 2.4085 2.28 9
16.5625 2.4695001 2.2850001 9
16.438499 2.4985001 2.2869999 9
16.290501 2.4965 2.2850001 9
16.5345 2.4675 2.2850001 9
16.3895 2.4115 2.28 9
16.376499 2.4235001 2.2809999 9
16.269501 2.4525001 2.2820001 9
16.3575 2.4054999 2.279 9
16.393499 2.4475 2.283 9
16.0945 2.4855001 2.283 9
16.206499 2.4784999 2.283 9
16.2495 2.4914999 2.2850001 9
16.686501 2.5005 2.289 9
16.3885 2.4324999 2.2820001 9
16.5755 2.4655001 2.2850001 9
16.3255 2.4545 2.283 9
16.6915 2.4885001 2.2880001 9
16.6625 2.4825001 2.2869999 9
16.411501 2.4825001 2.2850001 9
16.4475 2.4224999 2.2809999 9
16.244499 2.4365001 2.2809999 9
16.3965 2.4254999 2.2809999 9
16.7565 2.5055001 2.29 9
16.3585 2.4454999 2.2820001 9
16.3605 2.4305 2.2809999 9
16.547501 2.4484999 2.2839999 9
16.237499 2.4224999 2.28 9
16.634501 2.4895 2.2880001 9
16.5415 2.4895 2.2869999 9
16.5205 2.5005 2.2869999 9
16.1985 2.4235001 2.279 9
16.334499 2.4985001 2.286 9
16.2675 2.3835001 2.277 9
16.4035 2.4545 2.283 9
16.2465 2.4324999 2.28 9
16.1395 2.4725001 2.283 9
16.560499 2.4525001 2.2839999 9
16.661501 2.4905 2.2880001 9
16.3305 2.4315 2.2809999 9
16.616501 2.4805 2.2869999 9
16.415501 2.4284999 2.2809999 9
16.460501 2.4445 2.283 9
16.3435 2.4575 2.283 9
16.247499 2.4705 2.283 9
16.3715 2.4895 2.286 9
16.4135 2.4614999 2.2839999 9
16.439501 2.4735 2.2850001 9
16.348499 2.4124999 2.28 9
16.4055 2.4175 2.2809999 9
16.1915 2.4324999 2.28 9
16.282499 2.4875 2.2850001 9
16.4555 2.4545 2.2839999 9
16.0875 2.4875 2.283 9
16.112499 2.4735 2.2820001 9
16.348499 2.4705 2.2839999 9
16.647499 2.4865 2.2869999 9
16.407499 2.4354999 2.2820001 9
16.136499 2.4755001 2.283 9
16.3585 2.4875 2.2850001 9
16.6075 2.4825001 2.2869999 9
16.3815 2.4525001 2.283 9
16.2295 2.4375 2.2809999 9
16.650499 2.4795001 2.2869999 9
16.247499 2.4844999 2.2839999 9
16.2075 2.4645 2.283 9
16.755501 2.5085001 2.29 9
16.1915 2.4445 2.2809999 9
16.609501 2.4814999 2.2869999 9
16.3675 2.4184999 2.28 9
16.320499 2.4435 2.2820001 9
16.509501 2.4925001 2.2869999 9
16.4585 2.4814999 2.286 9
16.442499 2.4315 2.2820001 9
16.355499 2.3935001 2.2780001 9
16.341499 2.4124999 2.28 9
16.515499 2.4595001 2.2839999 9
16.1465 2.4405 2.28 9
16.3815 2.4744999 2.2839999 9
16.2845 2.4814999 2.2839999 9
16.561501 2.4885001 2.2869999 9
16.210501 2.4614999 2.2820001 9
16.314501 2.4495001 2.2820001 9
16.202499 2.4795001 2.2839999 9
16.126499 2.4725001 2.2820001 9
16.561501 2.4775 2.286 9
16.8445 2.3835001 2.2839999 9
16.671499 2.3924999 2.2809999 9
16.560499 2.3625 2.2809999 9
16.9335 2.4405 2.2820001 9
16.557501 2.3345001 2.283 9
16.7875 2.3415 2.286 9
16.7465 2.3115001 2.2869999 9
16.8155 2.4154999 2.2809999 9
16.376499 2.3835001 2.276 9
16.8745 2.4484999 2.28 9
16.5215 2.3445001 2.2809999 9
16.5595 2.3655 2.2809999 9
16.3895 2.3785 2.277 9
16.5895 2.3515 2.2820001 9
16.640499 2.3475001 2.283 9
16.7355 2.3855 2.2820001 9
16.7395 2.4135001 2.28 9
16.752501 2.3415 2.2850001 9
16.505501 2.3994999 2.277 9
16.8885 2.4445 2.2809999 9
16.557501 2.4075 2.2780001 9
16.848499 2.3985 2.283 9
16.5805 2.3585 2.2809999 9
16.8405 2.4045 2.283 9
16.821501 2.3724999 2.2839999 9
16.5865 2.3475001 2.2820001 9
16.7325 2.3994999 2.2809999 9
16.6695 2.3994999 2.28 9
16.827499 2.4165001 2.2809999 9
16.699499 2.4265001 2.279 9
16.7155 2.3385 2.2850001 9
16.880501 2.4124999 2.283 9
16.887501 2.3755 2.2850001 9
16.8925 2.4435 2.2809999 9
16.4825 2.3605001 2.28 9
16.776501 2.3935001 2.2820001 9
16.6425 2.4245 2.2780001 9
16.634501 2.4045 2.279 9
16.893499 2.4165001 2.283 9
16.8825 2.4154999 2.2820001 9
16.643499 2.4124999 2.279 9
16.745501 2.3485 2.2850001 9
16.7125 2.3945 2.2809999 9
16.8615 2.4205 2.2820001 9
16.3685 2.3715 2.277 9
16.922501 2.4525001 2.2809999 9
16.738501 2.3234999 2.286 9
16.9095 2.4094999 2.283 9
16.592501 2.3705001 2.2809999 9
16.5895 2.3345001 2.283 9
16.7815 2.4315 2.28 9
16.429501 2.3594999 2.279 9
16.782499 2.4365001 2.279 9
16.706499 2.4265001 2.279 9
16.348499 2.3625 2.277 9
16.7635 2.3494999 2.2850001 9
16.5525 2.3415 2.2820001 9
16.824499 2.3315001 2.2869999 9
16.738501 2.3325 2.286 9
16.2805 2.3645 2.276 9
16.532499 2.3564999 2.2809999 9
16.431499 2.3835001 2.277 9
16.782499 2.3125 2.2880001 9
16.4835 2.3405001 2.2809999 9
16.442499 2.3794999 2.2780001 9
16.563499 2.4135001 2.277 9
16.817499 2.3204999 2.2880001 9
16.8025 2.3835001 2.283 9
16.6395 2.3935001 2.28 9
16.5305 2.3655 2.28 9
16.7265 2.3455 2.2850001 9
16.8995 2.4145 2.283 9
16.7885 2.3545001 2.2850001 9
16.907499 2.4065001 2.283 9
16.887501 2.4395001 2.2809999 9
16.6665 2.3515 2.283 9
16.5555 2.4035001 2.2780001 9
16.717501 2.3195 2.286 9
16.838499 2.3794999 2.2839999 9
16.6285 2.3234999 2.2839999 9
16.474501 2.3755 2.2780001 9
16.436501 2.3594999 2.279 9
16.841499 2.4435 2.28 9
16.547501 2.3675001 2.28 9
16.8985 2.3965001 2.2839999 9
16.717501 2.4365001 2.2780001 9
16.8055 2.4224999 2.2809999 9
16.960501 2.4584999 2.2809999 9
16.737499 2.3355 2.2850001 9
16.945499 2.4254999 2.283 9
16.8605 2.4015 2.283 9
16.5555 2.3994999 2.2780001 9
16.730499 2.3415 2.2850001 9
16.7365 2.3575001 2.2839999 9
16.7735 2.3545001 2.2850001 9
16.821501 2.4224999 2.2809999 9
16.629499 2.3355 2.2839999 9
16.4645 2.3835001 2.2780001 9
16.685499 2.4124999 2.279 9
16.567499 2.3425 2.2820001 9
16.522499 2.3994999 2.2780001 9
16.8375 2.3954999 2.283 9
16.6385 2.3794999 2.2809999 9
16.6465 2.3545001 2.283 9
16.932501 2.4154999 2.283 9
16.6845 2.3794999 2.2820001 9
16.817499 2.3285 2.2869999 9
16.658501 2.3455 2.2839999 9
16.5585 2.3395 2.2820001 9
16.4375 2.3785 2.2780001 9
16.703501 2.3764999 2.2820001 9
16.727501 2.4054999 2.2809999 9
16.5965 2.3334999 2.283 9
16.526501 2.3785 2.279 9
16.748501 2.3304999 2.286 9
16.8435 2.3425 2.2869999 9
16.6485 2.3745 2.2809999 9
16.6905 2.4215 2.279 9
16.7295 2.3945 2.2809999 9
16.4865 2.3985 2.277 9
16.5485 2.3445001 2.2820001 9
16.727501 2.4215 2.28 9
16.8575 2.3994999 2.283 9
16.431499 2.3615 2.279 9
16.515499 2.4045 2.277 9
16.568501 2.3605001 2.2809999 9
16.685499 2.3755 2.2820001 9
16.779499 2.4115 2.2809999 9
16.515499 2.3835001 2.279 9
16.651501 2.3835001 2.2809999 9
16.2845 2.3694999 2.276 9
16.703501 2.3204999 2.286 9
16.939501 2.4575 2.2809999 9
16.782499 2.3425 2.286 9
16.7665 2.4184999 2.28 9
16.7955 2.4484999 2.279 9
16.797501 2.3234999 2.2869999 9
16.820499 2.4354999 2.28 9
16.6775 2.3425 2.2839999 9
16.879499 2.4395001 2.2809999 9
16.598499 2.3375001 2.283 9
16.751499 2.4094999 2.2809999 9
16.6745 2.3525 2.283 9
16.651501 2.3545001 2.283 9
16.745501 2.4195001 2.28 9
16.807501 2.3945 2.283 9
16.699499 2.3864999 2.2809999 9
16.838499 2.3675001 2.2850001 9
16.6015 2.3645 2.2809999 9
16.8055 2.3675001 2.2839999 9
16.7735 2.3894999 2.2820001 9
16.821501 2.4224999 2.2809999 9
16.664499 2.3845 2.2809999 9
16.8155 2.4384999 2.28 9
16.5765 2.3685 2.2809999 9
16.8965 2.4445 2.2809999 9
16.6605 2.3364999 2.2839999 9
16.8855 2.4484999 2.28 9
16.6555 2.4165001 2.279 9
16.7875 2.3415 2.286 9
16.7325 2.3434999 2.2850001 9
16.8985 2.4075 2.283 9
16.668501 2.3534999 2.283 9
16.6915 2.3655 2.283 9
16.668501 2.3745 2.2820001 9
16.5585 2.3464999 2.2820001 9
16.8515 2.3894999 2.2839999 9
16.849501 2.3885 2.2839999 9
16.463499 2.3594999 2.279 9
16.321501 2.3585 2.277 9
16.6555 2.3545001 2.283 9
16.5755 2.3965001 2.279 9
16.7465 2.3815 2.283 9
16.866501 2.4335001 2.2809999 9
16.769501 2.4395001 2.279 9
16.7505 2.4115 2.2809999 9
16.688499 2.3585 2.283 9
16.755501 2.3415 2.2850001 9
16.5135 2.3464999 2.2809999 9
16.7665 2.3985 2.2820001 9
16.7715 2.3965001 2.2820001 9
16.5215 2.3845 2.279 9
16.709499 2.4195001 2.279 9
16.526501 2.3555 2.2809999 9
16.379499 2.3735001 2.277 9
16.4835 2.3594999 2.28 9
16.6625 2.3485 2.283 9
16.9545 2.4545 2.2809999 9
16.570499 2.4035001 2.2780001 9
16.886499 2.3775001 2.2850001 9
16.987499 2.4625001 2.2809999 9
16.8225 2.3585 2.2850001 9
16.4575 2.3545001 2.28 9
16.7705 2.3074999 2.2880001 9
16.9855 2.4625001 2.2809999 9
16.866501 2.3975 2.283 9
16.637501 2.3724999 2.2809999 9
16.8435 2.3724999 2.2850001 9
16.7815 2.3255 2.2869999 9
16.8225 2.3425 2.286 9
16.647499 2.3215001 2.2850001 9
16.730499 2.3994999 2.2809999 9
16.5425 2.3805001 2.279 9
16.8195 2.3555 2.2850001 9
16.622499 2.3645 2.2820001 9
16.2775 2.3645 2.276 9
16.4165 2.3515 2.279 9
16.7565 2.3415 2.2850001 9
16.5805 2.3945 2.279 9
16.6085 2.4175 2.2780001 9
16.7635 2.4205 2.28 9
16.658501 2.3605001 2.2820001 9
16.5625 2.3965001 2.279 9
16.834499 2.4475 2.28 9
16.7255 2.4045 2.2809999 9
16.5165 2.3835001 2.279 9
16.7635 2.4324999 2.279 9
16.907499 2.4054999 2.2839999 9
16.7145 2.3615 2.283 9
16.432501 2.3855 2.277 9
16.782499 2.4184999 2.2809999 9
16.7535 2.3225 2.2869999 9
16.859501 2.3775001 2.2850001 9
16.5215 2.3985 2.2780001 9
16.567499 2.3364999 2.283 9
16.376499 2.3694999 2.277 9
16.9125 2.4535 2.28 9
16.900499 2.3985 2.2839999 9
16.7535 2.3164999 2.2869999 9
16.612499 2.3764999 2.2809999 9
16.633499 2.3635001 2.2820001 9
16.487499 2.3824999 2.2780001 9
16.540501 2.3835001 2.279 9
16.8025 2.4335001 2.28 9
16.5515 2.3905001 2.279 9
16.695499 2.3304999 2.2850001 9
16.657499 2.4154999 2.279 9
16.6525 2.3555 2.283 9
16.775499 2.3694999 2.2839999 9
16.7365 2.4045 2.2809999 9
16.564501 2.3745 2.28 9
16.5235 2.4015 2.2780001 9
16.848499 2.4275 2.2809999 9
16.8335 2.3705001 2.2850001 9
16.973499 2.4535 2.2809999 9
16.407499 2.3875 2.277 9
16.8985 2.3945 2.2839999 9
16.8475 2.4384999 2.28 9
16.6665 2.3735001 2.2820001 9
16.7785 2.4124999 2.2809999 9
16.7055 2.3534999 2.2839999 9
16.963499 2.4495001 2.2809999 9
16.6285 2.3915 2.28 9
16.831499 2.3275001 2.2869999 9
16.8365 2.4525001 2.279 9
16.511499 2.3945 2.2780001 9
16.7855 2.3195 2.2869999 9
16.7885 2.3525 2.2850001 9
16.7335 2.3415 2.2850001 9
16.5495 2.3385 2.2820001 9
16.8755 2.3694999 2.2850001 9
16.6945 2.3785 2.2820001 9
16.2945 2.3685 2.276 9
16.5525 2.3485 2.2820001 9
16.7675 2.3545001 2.2850001 9
16.9035 2.4354999 2.2809999 9
16.9135 2.4045 2.2839999 9
16.943501 2.4725001 2.28 9
16.7185 2.4375 2.2780001 9
16.5965 2.3505001 2.2820001 9
16.709499 2.3915 2.2809999 9
16.6535 2.3225 2.2850001 9
16.716499 2.3615 2.283 9
16.8715 2.4054999 2.283 9
16.8405 2.3475001 2.286 9
16.775499 2.3605001 2.2839999 9
16.5555 2.3894999 2.279 9
16.4405 2.3625 2.279 9
16.852501 2.4554999 2.279 9
16.908501 2.4284999 2.2820001 9
16.671499 2.3564999 2.283 9
16.928499 2.4525001 2.2809999 9
16.7195 2.3985 2.2809999 9
16.9025 2.3935001 2.2839999 9
16.789499 2.4124999 2.2809999 9
16.394501 2.3835001 2.277 9
16.643499 2.4094999 2.279 9
16.3435 2.3715 2.277 9
16.4795 2.3594999 2.28 9
16.4575 2.3635001 2.279 9
16.682501 2.3525 2.283 9
16.664499 2.3605001 2.283 9
16.699499 2.4135001 2.28 9
16.672501 2.3385 2.2839999 9
16.432501 2.3464999 2.28 9
16.7145 2.4284999 2.279 9
16.848499 2.4275 2.2809999 9
16.4165 2.3724999 2.2780001 9
16.828501 2.3545001 2.286 9
16.5485 2.4054999 2.2780001 9
16.9545 2.4525001 2.2809999 9
16.6665 2.3575001 2.283 9
16.8985 2.4195001 2.2820001 9
16.8085 2.3965001 2.2820001 9
16.8365 2.4475 2.28 9
16.682501 2.3445001 2.2839999 9
16.894501 2.3785 2.2850001 9
16.8305 2.3245001 2.2880001 9
16.768499 2.4445 2.279 9
16.716499 2.3455 2.2839999 9
16.6845 2.3875 2.2809999 9
16.796499 2.3164999 2.2880001 9
16.818501 2.3285 2.2869999 9
16.8685 2.4605 2.279 9
16.591499 2.3855 2.28 9
16.5215 2.3745 2.279 9
16.7875 2.4425001 2.279 9
16.664499 2.3485 2.283 9
16.637501 2.4175 2.2780001 9
16.637501 2.4215 2.2780001 9
16.553499 2.3575001 2.2809999 9
16.772499 2.4135001 2.2809999 9
16.8165 2.3355 2.2869999 9
16.585501 2.4154999 2.2780001 9
16.8225 2.4475 2.279 9
16.886499 2.4605 2.28 9
16.8395 2.4454999 2.28 9
16.6085 2.3445001 2.283 9
16.5515 2.3475001 2.2820001 9
16.7155 2.3555 2.2839999 9
16.5415 2.4085 2.277 9
16.4645 2.3755 2.2780001 9
16.7225 2.3505001 2.2839999 9
16.869499 2.4275 2.2809999 9
16.7505 2.4054999 2.2809999 9
16.6175 2.4115 2.2780001 9
16.5895 2.3285 2.283 9
16.7735 2.3434999 2.2850001 9
16.797501 2.3185 2.2869999 9
16.6085 2.3755 2.2809999 9
16.6315 2.3775001 2.2809999 9
16.4835 2.3625 2.279 9
16.724501 2.3794999 2.2820001 9
16.8505 2.4514999 2.28 9
16.7225 2.3755 2.283 9
16.7945 2.4135001 2.2809999 9
16.8785 2.4235001 2.2820001 9
16.5655 2.3764999 2.28 9
16.8535 2.4435 2.28 9
16.6565 2.3215001 2.2850001 9
16.769501 2.3664999 2.2839999 9
16.8085 2.3364999 2.2869999 9
16.6565 2.3715 2.2820001 9
16.7735 2.4175 2.2809999 9
16.7145 2.3345001 2.2850001 9
16.7395 2.3345001 2.286 9
16.7815 2.4184999 2.2809999 9
16.8195 2.3735001 2.2839999 9
16.650499 2.3724999 2.2820001 9
16.5485 2.3525 2.2809999 9
16.5945 2.3785 2.28 9
16.6115 2.3264999 2.2839999 9
16.3545 2.3775001 2.276 9
16.640499 2.4135001 2.279 9
16.7505 2.4005001 2.2809999 9
16.318501 2.3705001 2.276 9
16.897499 2.4554999 2.28 9
16.7255 2.4224999 2.279 9
16.7365 2.4005001 2.2809999 9
16.928499 2.4395001 2.2820001 9
16.629499 2.3645 2.2820001 9
16.6035 2.3564999 2.2820001 9
16.6835 2.3915 2.2809999 9
16.7635 2.4435 2.279 9
16.4755 2.3775001 2.2780001 9
16.5415 2.3875 2.279 9
16.797501 2.4215 2.2809999 9
16.675501 2.3994999 2.28 9
16.8995 2.4265001 2.2820001 9
16.811501 2.3525 2.2850001 9
16.557501 2.3445001 2.2820001 9
16.6945 2.3375001 2.2850001 9
16.8815 2.3915 2.2839999 9
16.3785 2.3824999 2.276 9
16.5355 2.3475001 2.2809999 9
16.790501 2.3864999 2.283 9
16.6015 2.3355 2.283 9
16.442499 2.3805001 2.2780001 9
16.5245 2.3755 2.279 9
16.8095 2.3965001 2.2820001 9
16.6035 2.3845 2.28 9
16.8335 2.3724999 2.2839999 9
16.730499 2.3505001 2.2839999 9
16.605499 2.4184999 2.2780001 9
16.9555 2.4405 2.2820001 9
16.779499 2.4105 2.2809999 9
16.5755 2.3835001 2.28 9
16.5875 2.3805001 2.28 9
16.782499 2.4065001 2.2809999 9
16.7505 2.3965001 2.2820001 9
16.880501 2.4284999 2.2820001 9
16.818501 2.3315001 2.2869999 9
16.8755 2.4454999 2.28 9
16.8195 2.4425001 2.28 9
16.5935 2.3455 2.2820001 9
16.9245 2.4105 2.283 9
16.4725 2.3585 2.28 9
16.8435 2.4015 2.283 9
16.717501 2.4335001 2.279 9
16.4405 2.3915 2.277 9
16.9055 2.4655001 2.279 9
16.7055 2.3924999 2.2809999 9
16.511499 2.3645 2.28 9
16.4625 2.3494999 2.28 9
16.886499 2.4484999 2.28 9
16.6975 2.3985 2.2809999 9
16.466499 2.3755 2.2780001 9
16.7295 2.4224999 2.28 9
16.7815 2.3794999 2.283 9
16.640499 2.4254999 2.2780001 9
16.7955 2.3285 2.2869999 9
16.5835 2.3425 2.2820001 9
16.841499 2.3415 2.2869999 9
16.914499 2.4635 2.28 9
16.7085 2.3835001 2.2820001 9
16.7085 2.3525 2.2839999 9
16.3335 2.3705001 2.277 9
16.8435 2.3594999 2.286 9
16.775499 2.3625 2.2839999 9
16.863501 2.4235001 2.2820001 9
16.831499 2.3485 2.286 9
16.480499 2.3985 2.277 9
16.4555 2.3605001 2.279 9
16.782499 2.4284999 2.28 9
16.6875 2.3664999 2.283 9
16.8165 2.4035001 2.2820001 9
16.4995 2.3785 2.279 9
16.689501 2.3385 2.2839999 9
16.7155 2.3724999 2.283 9
16.7335 2.3785 2.2820001 9
16.5525 2.3594999 2.2809999 9
16.9415 2.4514999 2.2809999 9
16.4895 2.3855 2.2780001 9
16.8335 2.3264999 2.2880001 9
16.7775 2.4254999 2.28 9
16.870501 2.4165001 2.2820001 9
16.8445 2.3445001 2.2869999 9
16.769501 2.3805001 2.283 9
16.834499 2.3764999 2.2839999 9
16.563499 2.4124999 2.277 9
16.6045 2.3864999 2.28 9
16.467501 2.3715 2.279 9
16.5485 2.3724999 2.28 9
16.553499 2.3545001 2.2809999 9
16.686501 2.3515 2.2839999 9
16.946501 2.4375 2.2820001 9
16.8915 2.4414999 2.2809999 9
16.828501 2.3434999 2.286 9
16.751499 2.3445001 2.2850001 9
16.4795 2.3694999 2.279 9
16.734501 2.4024999 2.2809999 9
16.598499 2.3975 2.279 9
16.845501 2.3564999 2.286 9
16.811501 2.3104999 2.2880001 9
16.615499 2.3285 2.2839999 9
16.328501 2.3625 2.277 9
16.4475 2.3705001 2.2780001 9
16.689501 2.3255 2.2850001 9
16.6975 2.4184999 2.279 9
16.5625 2.4015 2.2780001 9
16.7195 2.3755 2.2820001 9
16.5625 2.4065001 2.2780001 9
16.904499 2.4215 2.2820001 9
16.925501 2.4235001 2.283 9
16.4195 2.3594999 2.279 9
16.6175 2.3255 2.2839999 9
16.8055 2.3715 2.2839999 9
16.515499 2.3875 2.2780001 9
16.5205 2.3755 2.279 9
16.8435 2.3824999 2.2839999 9
16.623501 2.4175 2.2780001 9
16.748501 2.3954999 2.2820001 9
16.6115 2.3815 2.28 9
16.5875 2.3304999 2.283 9
16.883499 2.4595001 2.279 9
16.6215 2.4224999 2.2780001 9
16.4515 2.3794999 2.2780001 9
16.7775 2.4275 2.28 9
16.644501 2.4015 2.279 9
16.477501 2.3545001 2.28 9
16.6675 2.3575001 2.283 9
16.751499 2.3445001 2.2850001 9
16.445499 2.3585 2.279 9
16.6745 2.3694999 2.2820001 9
16.6675 2.4195001 2.279 9
16.5625 2.3375001 2.2820001 9
16.731501 2.3905001 2.2820001 9
16.7285 2.3505001 2.2839999 9
16.393499 2.3785 2.277 9
16.365499 2.3645 2.277 9
16.789499 2.3275001 2.2869999 9
16.525499 2.4045 2.277 9
16.505501 2.3794999 2.279 9
16.5795 2.3864999 2.279 9
16.7845 2.3405001 2.286 9
16.841499 2.3945 2.283 9
16.8435 2.3724999 2.2850001 9
16.849501 2.4015 2.283 9
16.622499 2.4065001 2.279 9
16.8585 2.4405 2.28 9
16.6045 2.3965001 2.279 9
16.355499 2.3605001 2.2780001 9
16.8465 2.4035001 2.283 9
16.709499 2.3234999 2.286 9
16.8305 2.3764999 2.2839999 9
16.849501 2.4315 2.2809999 9
16.7215 2.3655 2.283 9
16.945499 2.4445 2.2820001 9
16.6325 2.3555 2.2820001 9
16.5005 2.3905001 2.2780001 9
16.5175 2.3534999 2.2809999 9
16.789499 2.4395001 2.279 9
16.710501 2.3545001 2.2839999 9
16.5765 2.3775001 2.28 9
16.870501 2.4565001 2.28 9
16.7775 2.3375001 2.286 9
16.856501 2.3594999 2.286 9
16.761499 2.3724999 2.283 9
16.657499 2.3965001 2.28 9
16.740499 2.3425 2.2850001 9
16.8925 2.4105 2.283 9
16.595501 2.3835001 2.28 9
16.8165 2.3664999 2.2850001 9
16.6975 2.4315 2.2780001 9
16.880501 2.4425001 2.2809999 9
16.6975 2.3494999 2.2839999 9
16.859501 2.4254999 2.2809999 9
16.793501 2.3805001 2.283 9
16.6705 2.3664999 2.2820001 9
16.539499 2.3615 2.2809999 9
16.838499 2.3334999 2.2869999 9
16.731501 2.3905001 2.2820001 9
16.6905 2.3525 2.2839999 9
16.7955 2.3805001 2.283 9
16.436501 2.3694999 2.2780001 9
16.717501 2.3694999 2.283 9
16.598499 2.3304999 2.283 9
16.570499 2.4115 2.2780001 9
16.6385 2.3664999 2.2820001 9
16.817499 2.3385 2.2869999 9
16.6015 2.4124999 2.2780001 9
16.745501 2.3824999 2.2820001 9
16.887501 2.4554999 2.28 9
16.786501 2.4465001 2.279 9
16.835501 2.3875 2.2839999 9
16.3335 2.3655 2.277 9
16.7285 2.3824999 2.2820001 9
16.7735 2.3325 2.286 9
16.789499 2.3564999 2.2850001 9
16.752501 2.4154999 2.28 9
16.796499 2.3145001 2.2880001 9
16.3685 2.3575001 2.2780001 9
16.738501 2.3735001 2.283 9
16.702499 2.4254999 2.279 9
16.745501 2.3915 2.2820001 9
16.539499 2.3764999 2.279 9
16.928499 2.4655001 2.28 9
16.7995 2.5025001 2.2880001 9
16.5935 2.4535 2.2839999 9
16.6635 2.4665 2.2850001 9
16.6325 2.4595001 2.2839999 9
16.748501 2.4665 2.283 9
16.574499 2.4395001 2.2820001 9
16.627501 2.4405 2.2809999 9
16.8745 2.4775 2.2820001 9
16.7255 2.4645 2.283 9
16.679501 2.4655001 2.2839999 9
16.5005 2.4224999 2.28 9
16.925501 2.4835 2.2820001 9
16.8155 2.4675 2.2809999 9
16.679501 2.4584999 2.283 9
16.6555 2.4495001 2.2820001 9
16.681499 2.4365001 2.279 9
16.571501 2.4495001 2.2839999 9
16.5005 2.4165001 2.279 9
16.7565 2.4735 2.2839999 9
16.626499 2.4595001 2.2839999 9
16.8465 2.4765 2.2820001 9
16.831499 2.4955001 2.286 9
16.6835 2.4645 2.2839999 9
16.709499 2.4454999 2.28 9
16.613501 2.4405 2.2809999 9
16.5865 2.4575 2.2850001 9
16.8855 2.4744999 2.2809999 9
16.349501 2.3875 2.277 9
16.557501 2.4165001 2.2780001 9
16.717501 2.4614999 2.2820001 9
16.5455 2.4254999 2.28 9
16.5695 2.4184999 2.2780001 9
16.970501 2.4855001 2.2809999 9
16.5425 2.4145 2.2780001 9
16.626499 2.4465001 2.2820001 9
16.759501 2.4675 2.283 9
16.488501 2.4115 2.279 9
16.4195 2.4035001 2.279 9
16.5695 2.4445 2.283 9
16.5275 2.4284999 2.2809999 9
16.657499 2.4505 2.2820001 9
16.8575 2.4784999 2.2820001 9
16.563499 2.4484999 2.2839999 9
16.474501 2.4175 2.28 9
16.7675 2.4505 2.279 9
16.7605 2.4454999 2.279 9
16.6605 2.4335001 2.279 9
16.818501 2.4974999 2.2869999 9
16.7495 2.4645 2.2820001 9
16.709499 2.4375 2.2780001 9
16.6595 2.4714999 2.286 9
16.790501 2.4625001 2.2809999 9
16.754499 2.4925001 2.2869999 9
16.5965 2.4375 2.2809999 9
16.6455 2.4275 2.2780001 9
16.943501 2.4844999 2.2809999 9
16.5415 2.4265001 2.28 9
16.4695 2.4075 2.2780001 9
16.8445 2.4895 2.2850001 9
16.790501 2.5025001 2.2880001 9
16.9035 2.4814999 2.2820001 9
16.876499 2.4775 2.2820001 9
16.6635 2.4755001 2.286 9
16.6325 2.4405 2.2809999 9
16.466499 2.4224999 2.2809999 9
16.942499 2.4885001 2.2820001 9
16.9785 2.4875 2.2809999 9
16.754499 2.4955001 2.2880001 9
16.5215 2.4245 2.28 9
16.286501 2.3715 2.276 9
16.5935 2.4575 2.2850001 9
16.9995 2.4844999 2.28 9
16.5695 2.4165001 2.2780001 9
16.4965 2.4184999 2.28 9
16.7885 2.4614999 2.2809999 9
16.8435 2.4765 2.2820001 9
16.775499 2.4844999 2.2850001 9
16.873501 2.4855001 2.283 9
16.7265 2.4755001 2.2850001 9
16.588499 2.4254999 2.279 9
16.4345 2.4035001 2.2780001 9
16.5415 2.4165001 2.2780001 9
16.494499 2.4085 2.2780001 9
16.7995 2.4865 2.2850001 9
16.4925 2.4205 2.28 9
16.463499 2.4145 2.28 9
16.768499 2.5025001 2.289 9
16.893499 2.4955001 2.2850001 9
16.4415 2.4115 2.28 9
16.5355 2.4265001 2.28 9
16.460501 2.4045 2.2780001 9
16.709499 2.4454999 2.28 9
16.834499 2.4575 2.279 9
16.5595 2.4275 2.28 9
16.7985 2.4955001 2.2869999 9
16.5285 2.4305 2.2809999 9
16.7225 2.4565001 2.2820001 9
16.563499 2.4454999 2.283 9
16.432501 2.4124999 2.28 9
16.6565 2.4465001 2.2809999 9
16.3985 2.4035001 2.279 9
16.9685 2.4844999 2.2809999 9
16.814501 2.4905 2.2850001 9
16.7925 2.4714999 2.283 9
16.6175 2.4265001 2.279 9
16.8515 2.4665 2.28 9
16.8465 2.4655001 2.28 9
16.5735 2.4275 2.28 9
16.5525 2.4154999 2.2780001 9
16.5035 2.4124999 2.279 9
16.3025 2.3764999 2.277 9
16.4205 2.4005001 2.2780001 9
16.884501 2.4705 2.28 9
16.8435 2.4625001 2.28 9
16.7355 2.4885001 2.2869999 9
16.4205 2.4105 2.28 9
16.863501 2.4775 2.2820001 9
16.3405 2.3805001 2.276 9
16.5205 2.4215 2.28 9
16.6485 2.4375 2.28 9
16.7495 2.4925001 2.2869999 9
16.8895 2.4844999 2.283 9
16.501499 2.4305 2.2820001 9
16.6465 2.4445 2.2809999 9
16.598499 2.4375 2.2809999 9
16.505501 2.4165001 2.279 9
16.7005 2.4554999 2.2820001 9
16.3515 2.3875 2.2780001 9
16.741501 2.4825001 2.286 9
16.8465 2.4814999 2.283 9
16.526501 2.4345 2.2820001 9
16.6555 2.4614999 2.2839999 9
16.974501 2.4875 2.2809999 9
16.980499 2.4875 2.2809999 9
16.6985 2.4725001 2.2850001 9
16.654499 2.4744999 2.286 9
16.3755 2.3864999 2.277 9
16.4165 2.4015 2.279 9
16.5375 2.4224999 2.28 9
16.8085 2.4684999 2.2820001 9
16.6605 2.4744999 2.286 9
16.613501 2.4535 2.283 9
16.363501 2.3845 2.277 9
16.720501 2.4935 2.2880001 9
16.4345 2.4115 2.28 9
16.797501 2.4914999 2.286 9
16.806499 2.4584999 2.28 9
16.862499 2.4735 2.2809999 9
16.769501 2.5005 2.2880001 9
16.7805 2.4895 2.286 9
16.6805 2.4635 2.2839999 9
16.797501 2.4625001 2.2809999 9
16.7575 2.4454999 2.279 9
16.525499 2.4224999 2.28 9
16.4555 2.4175 2.2809999 9
16.8015 2.5005 2.2880001 9
16.668501 2.4744999 2.286 9
16.762501 2.5014999 2.289 9
16.3755 2.3985 2.279 9
16.651501 2.4335001 2.279 9
16.765499 2.4595001 2.2809999 9
16.987499 2.4835 2.28 9
16.8295 2.4805 2.283 9
16.505501 2.4065001 2.277 9
16.553499 2.4335001 2.2809999 9
16.730499 2.4705 2.2839999 9
16.7535 2.4835 2.286 9
16.7055 2.4875 2.2869999 9
16.543501 2.4395001 2.283 9
16.446501 2.4035001 2.2780001 9
16.8165 2.4805 2.2839999 9
16.6605 2.4684999 2.2850001 9
16.716499 2.4514999 2.2809999 9
16.852501 2.4695001 2.2809999 9
16.7465 2.4965 2.2880001 9
16.7675 2.4475 2.279 9
16.557501 2.4165001 2.2780001 9
16.702499 2.4844999 2.2869999 9
16.5235 2.4154999 2.279 9
16.7845 2.5025001 2.2880001 9
16.4825 2.4035001 2.277 9
16.6085 2.4295001 2.279 9
16.796499 2.4665 2.2820001 9
16.900499 2.4865 2.283 9
16.658501 2.4514999 2.2820001 9
16.827499 2.4825001 2.2839999 9
16.5755 2.4324999 2.2809999 9
16.702499 2.4395001 2.279 9
16.7435 2.4505 2.28 9
16.508499 2.4105 2.2780001 9
16.703501 2.4635 2.283 9
16.8365 2.4605 2.28 9
16.800501 2.4825001 2.2839999 9
16.629499 2.4295001 2.279 9
16.688499 2.4365001 2.279 9
16.5035 2.4184999 2.28 9
16.877501 2.4914999 2.2839999 9
16.519501 2.4305 2.2809999 9
16.8165 2.4875 2.2850001 9
16.8235 2.4655001 2.2809999 9
16.9765 2.4875 2.2809999 9
16.943501 2.4895 2.2820001 9
16.6045 2.4445 2.2820001 9
16.751499 2.4665 2.283 9
16.7675 2.4525001 2.28 9
16.7185 2.4844999 2.2869999 9
16.4305 2.3954999 2.277 9
16.7605 2.4514999 2.28 9
16.740499 2.4584999 2.2809999 9
16.8225 2.4575 2.279 9
16.702499 2.4535 2.2809999 9
16.7665 2.4974999 2.2880001 9
16.786501 2.4974999 2.2869999 9
16.8465 2.4935 2.2850001 9
16.6835 2.4635 2.2839999 9
16.598499 2.4525001 2.2839999 9
16.8685 2.4944999 2.2850001 9
16.6665 2.4505 2.2820001 9
16.8615 2.4695001 2.2809999 9
16.921499 2.4865 2.2820001 9
16.570499 2.4195001 2.2780001 9
16.724501 2.4525001 2.2809999 9
16.980499 2.4805 2.28 9
16.7875 2.4844999 2.2850001 9
16.3395 2.3875 2.2780001 9
16.6145 2.4625001 2.2850001 9
16.556499 2.4315 2.2809999 9
16.671499 2.4705 2.2850001 9
16.5075 2.4085 2.2780001 9
16.893499 2.4965 2.2850001 9
16.779499 2.5035 2.289 9
16.8925 2.4865 2.283 9
16.8505 2.4605 2.279 9
16.8995 2.4825001 2.2820001 9
16.866501 2.4675 2.28 9
16.8405 2.4844999 2.2839999 9
16.755501 2.5035 2.289 9
16.730499 2.4705 2.2839999 9
16.6765 2.4614999 2.283 9
16.571501 2.4395001 2.2820001 9
16.779499 2.4974999 2.2880001 9
16.8615 2.5174999 2.302 9
16.824499 2.5125 2.2950001 9
17.011499 2.4985001 2.2920001 9
17.009501 2.5065 2.299 9
16.8505 2.5074999 2.2920001 9
16.879499 2.5005 2.2869999 9
17.005501 2.4875 2.2820001 9
16.9715 2.5304999 2.319 9
16.970501 2.5074999 2.2980001 9
16.9865 2.4885001 2.2820001 9
16.866501 2.5125 2.2980001 9
16.980499 2.5255001 2.3150001 9
16.8475 2.5085001 2.293 9
16.945499 2.4944999 2.2850001 9
16.8305 2.5174999 2.3 9
16.907499 2.4974999 2.286 9
16.952499 2.5165 2.306 9
16.9175 2.5315001 2.3180001 9
16.990499 2.5065 2.2980001 9
16.9165 2.5344999 2.3199999 9
16.8615 2.5144999 2.299 9
16.8225 2.5174999 2.3 9
16.8915 2.5074999 2.2939999 9
16.9765 2.5085001 2.299 9
16.998501 2.5204999 2.3110001 9
16.8505 2.5155001 2.3 9
16.8685 2.5165 2.3010001 9
16.7925 2.5114999 2.293 9
16.9485 2.5014999 2.2920001 9
16.938499 2.5135 2.303 9
16.987499 2.4914999 2.2850001 9
17.0105 2.5125 2.3050001 9
16.880501 2.5044999 2.2909999 9
16.9585 2.5125 2.302 9
16.977501 2.4905 2.2839999 9
16.994499 2.5255001 2.3169999 9
16.959499 2.4925001 2.2850001 9
16.9375 2.5204999 2.309 9
16.821501 2.5095 2.2920001 9
16.960501 2.5395 2.3280001 9
17.0105 2.5095 2.303 9
16.9445 2.5105 2.3 9
16.952499 2.5174999 2.306 9
16.883499 2.5235 2.3080001 9
16.8855 2.5025001 2.289 9
16.869499 2.5014999 2.2880001 9
16.8605 2.5215001 2.306 9
16.988501 2.5165 2.3080001 9
16.9375 2.5225 2.3099999 9
16.967501 2.5395 2.3280001 9
16.7815 2.5095 2.2909999 9
16.9475 2.4955001 2.286 9
16.9415 2.4985001 2.289 9
16.8125 2.5144999 2.2969999 9
16.8295 2.5065 2.29 9
16.9505 2.5315001 2.319 9
16.904499 2.5074999 2.2950001 9
16.9245 2.5295 2.316 9
16.9935 2.5425 2.3310001 9
16.9965 2.5474999 2.3369999 9
16.956499 2.4974999 2.2880001 9
16.884501 2.5215001 2.3069999 9
16.9925 2.4875 2.2809999 9
16.9755 2.4935 2.2850001 9
16.925501 2.5085001 2.2969999 9
17.008499 2.4905 2.2850001 9
16.9025 2.5235 2.309 9
16.8235 2.5144999 2.2969999 9
16.9765 2.5295 2.319 9
16.883499 2.4995 2.2869999 9
16.9475 2.5014999 2.2920001 9
16.9555 2.4925001 2.2839999 9
16.9305 2.5285001 2.3150001 9
16.8575 2.5204999 2.3050001 9
16.960501 2.5014999 2.293 9
16.931499 2.5374999 2.3239999 9
17.009501 2.5235 2.3150001 9
16.9765 2.5455 2.3340001 9
16.8985 2.5085001 2.296 9
16.9275 2.5235 2.3099999 9
16.9585 2.4995 2.2909999 9
16.9925 2.5415001 2.3299999 9
16.988501 2.5155001 2.306 9
16.8615 2.5095 2.2950001 9
16.9035 2.5325 2.3180001 9
17.009501 2.4875 2.2820001 9
16.9345 2.5335 2.3199999 9
16.945499 2.5195 2.3080001 9
16.974501 2.5114999 2.303 9
16.9095 2.5225 2.309 9
17.0035 2.5125 2.3050001 9
16.9585 2.5135 2.303 9
16.9655 2.5155001 2.306 9
16.9855 2.4985001 2.2909999 9
17.0135 2.4955001 2.29 9
16.9615 2.5415001 2.329 9
16.9375 2.5225 2.3099999 9
16.8295 2.5114999 2.2950001 9
16.9575 2.5065 2.2969999 9
16.8585 2.5065 2.2920001 9
16.8325 2.5204999 2.303 9
16.8925 2.5195 2.3050001 9
16.984501 2.5174999 2.3080001 9
16.9025 2.5215001 2.3080001 9
16.995501 2.4944999 2.2880001 9
16.929501 2.5374999 2.323 9
16.8995 2.5074999 2.2950001 9
16.9175 2.5074999 2.2950001 9
16.980499 2.5415001 2.3299999 9
16.9895 2.5044999 2.2969999 9
16.8095 2.5135 2.2950001 9
17.181499 2.3025 2.2980001 9
17.2915 2.3004999 2.302 9
17.105499 2.3065 2.293 9
16.994499 2.3104999 2.2880001 9
17.036501 2.3115001 2.2880001 9
17.1745 2.3104999 2.2909999 9
17.3235 2.3095 2.296 9
17.2435 2.3034999 2.299 9
17.0065 2.3065 2.29 9
17.2055 2.2995 2.3 9
17.0105 2.3034999 2.293 9
17.0105 2.3045001 2.2920001 9
17.2285 2.3145001 2.29 9
17.0205 2.3015001 2.2950001 9
17.1525 2.3104999 2.2909999 9
17.0455 2.3074999 2.2909999 9
17.3085 2.3215001 2.2869999 9
17.3395 2.3185 2.29 9
17.0005 2.3074999 2.289 9
16.897499 2.3045001 2.289 9
16.998501 2.3074999 2.29 9
17.1425 2.3045001 2.2950001 9
17.234501 2.2995 2.3010001 9
17.3755 2.3225 2.2880001 9
17.001499 2.3085001 2.289 9
17.223499 2.3164999 2.289 9
17.223499 2.3115001 2.2920001 9
17.349501 2.3255 2.2850001 9
17.2645 2.3095 2.2950001 9
16.943501 2.3025 2.2920001 9
17.2465 2.2965 2.3039999 9
16.877501 2.3055 2.2880001 9
17.2915 2.3085001 2.296 9
16.883499 2.3055 2.2880001 9
16.997499 2.3074999 2.29 9
17.1535 2.3115001 2.29 9
17.060499 2.2995 2.2969999 9
17.241501 2.2985001 2.302 9
16.901501 2.3045001 2.289 9
17.2355 2.3025 2.299 9
17.2985 2.3195 2.2880001 9
17.0825 2.2995 2.2969999 9
17.182501 2.3065 2.2950001 9
17.0445 2.3055 2.2920001 9
16.890499 2.3034999 2.29 9
17.1945 2.3085001 2.2939999 9
17.161501 2.3125 2.29 9
17.2715 2.3164999 2.29 9
17.3325 2.3095 2.296 9
17.157499 2.2974999 2.3010001 9
16.9895 2.3015001 2.2939999 9
17.380501 2.3215001 2.289 9
16.960501 2.3085001 2.2880001 9
16.9515 2.3025 2.2920001 9
17.067499 2.2995 2.2969999 9
17.077499 2.3015001 2.296 9
16.932501 2.3065 2.289 9
17.3055 2.3065 2.2980001 9
16.8755 2.3045001 2.289 9
17.140499 2.3025 2.296 9
17.238501 2.3015001 2.3 9
17.296499 2.3104999 2.2950001 9
16.9725 2.3034999 2.2920001 9
17.165501 2.2985001 2.3 9
17.3645 2.3245001 2.286 9
17.070499 2.3055 2.2920001 9
17.248501 2.3134999 2.2909999 9
17.164499 2.3074999 2.2939999 9
17.252501 2.3065 2.296 9
17.1875 2.3025 2.2980001 9
17.306499 2.3065 2.2980001 9
17.1665 2.3134999 2.289 9
17.1245 2.3155 2.2869999 9
17.2055 2.3185 2.2869999 9
17.245501 2.2985001 2.302 9
17.359501 2.3215001 2.2880001 9
16.9235 2.3034999 2.29 9
17.3435 2.3185 2.29 9
17.0455 2.3004999 2.296 9
16.9445 2.3045001 2.29 9
17.1035 2.2995 2.2980001 9
17.0555 2.3074999 2.2909999 9
17.2805 2.3195 2.2880001 9
17.3025 2.3115001 2.2939999 9
17.2565 2.2945001 2.3050001 9
16.9695 2.3095 2.2880001 9
17.192499 2.3134999 2.29 9
16.997499 2.3085001 2.289 9
17.3225 2.3195 2.289 9
16.8745 2.3025 2.29 9
17.3295 2.3185 2.29 9
16.9795 2.3095 2.2869999 9
17.220501 2.3034999 2.2980001 9
17.335501 2.3234999 2.286 9
17.144501 2.3055 2.2950001 9
17.026501 2.3074999 2.29 9
17.224501 2.3134999 2.29 9
17.0175 2.3065 2.2909999 9
17.279499 2.3104999 2.2939999 9
17.185499 2.3085001 2.293 9
17.164499 2.3025 2.2969999 9
17.181499 2.2995 2.3 9
16.918501 2.3004999 2.293 9
17.2665 2.3215001 2.286 9
17.186501 2.2974999 2.3010001 9
17.1905 2.3134999 2.29 9
16.876499 2.3104999 2.2880001 9
17.1765 2.4105 2.2820001 9
17.113501 2.4235001 2.2820001 9
16.884501 2.3505001 2.286 9
17.1355 2.3985 2.283 9
17.068501 2.4565001 2.2809999 9
17.0965 2.3675001 2.2839999 9
17.2075 2.4005001 2.2820001 9
17.1605 2.3745 2.2839999 9
17.043501 2.4245 2.2820001 9
16.9715 2.3534999 2.286 9
16.9105 2.3485 2.286 9
17.0345 2.4224999 2.2820001 9
16.908501 2.3115001 2.2880001 9
17.165501 2.4005001 2.283 9
17.2365 2.3935001 2.283 9
16.966499 2.3924999 2.2839999 9
16.977501 2.4275 2.283 9
17.0975 2.3805001 2.2839999 9
17.1495 2.4045 2.283 9
17.0235 2.4695001 2.2809999 9
17.0315 2.3395 2.286 9
17.0865 2.3325 2.286 9
17.0175 2.4165001 2.283 9
17.261499 2.3364999 2.2850001 9
17.231501 2.3975 2.2820001 9
17.0835 2.4365001 2.2820001 9
17.275499 2.3475001 2.2839999 9
16.943501 2.3945 2.2839999 9
17.077499 2.3585 2.2850001 9
16.949499 2.3315001 2.2869999 9
17.0935 2.3724999 2.2839999 9
17.078501 2.4115 2.283 9
16.879499 2.3264999 2.2869999 9
17.0175 2.4744999 2.28 9
17.1605 2.4195001 2.2820001 9
17.151501 2.4065001 2.2820001 9
16.9545 2.3975 2.2839999 9
17.244499 2.3545001 2.2839999 9
17.054501 2.3505001 2.2850001 9
17.3265 2.3615 2.283 9
17.0825 2.3794999 2.2839999 9
16.9715 2.4035001 2.2839999 9
16.974501 2.4154999 2.283 9
17.210501 2.3455 2.2850001 9
17.1385 2.4065001 2.2820001 9
17.2285 2.3855 2.283 9
17.119499 2.4045 2.283 9
17.029499 2.3345001 2.286 9
17.039499 2.3764999 2.2839999 9
16.9895 2.3945 2.2839999 9
16.935499 2.3675001 2.2850001 9
17.3085 2.3575001 2.2839999 9
17.2085 2.3405001 2.2850001 9
16.8755 2.3164999 2.2880001 9
17.018499 2.3625 2.2850001 9
17.251499 2.3885 2.283 9
16.991501 2.3485 2.286 9
16.8995 2.3395 2.2869999 9
17.231501 2.3855 2.283 9
17.172501 2.3924999 2.283 9
16.997499 2.4235001 2.283 9
17.328501 2.3464999 2.2839999 9
16.866501 2.3434999 2.2869999 9
17.2575 2.3234999 2.2850001 9
17.143499 2.4085 2.2820001 9
16.966499 2.3594999 2.2850001 9
17.0595 2.3434999 2.286 9
16.9895 2.4384999 2.2820001 9
17.0965 2.4284999 2.2820001 9
17.122499 2.3845 2.2839999 9
17.078501 2.4005001 2.283 9
16.974501 2.3355 2.286 9
17.123501 2.4045 2.283 9
17.245501 2.3445001 2.2850001 9
17.355499 2.3345001 2.2839999 9
17.039499 2.3134999 2.2869999 9
17.106501 2.3615 2.2850001 9
17.165501 2.4115 2.2820001 9
17.217501 2.4015 2.2820001 9
17.102501 2.4295001 2.2820001 9
16.9965 2.4514999 2.2809999 9
17.0835 2.3425 2.286 9
16.900499 2.3585 2.286 9
17.133499 2.3195 2.286 9
16.9755 2.3295 2.2869999 9
16.8675 2.3485 2.286 9
17.0975 2.3594999 2.2850001 9
17.0205 2.4395001 2.2820001 9
17.0305 2.3905001 2.2839999 9
17.004499 2.4375 2.2820001 9
17.040501 2.4085 2.283 9
16.908501 2.3245001 2.2869999 9
16.9065 2.3525 2.286 9
17.113501 2.4115 2.2820001 9
16.9655 2.4105 2.283 9
16.8815 2.3085001 2.2880001 9
16.870501 2.3515 2.286 9
17.1085 2.4454999 2.2809999 9
17.0315 2.4284999 2.2820001 9
17.171499 2.3204999 2.286 9
16.991501 2.4024999 2.283 9
16.877501 2.3385 2.2869999 9
16.990499 2.3954999 2.2839999 9
16.9895 2.4324999 2.2820001 9
17.179501 2.3664999 2.2839999 9
17.209499 2.3715 2.2839999 9
17.185499 2.3785 2.283 9
17.002501 2.4655001 2.2809999 9
17.0275 2.3494999 2.286 9
17.019501 2.4175 2.283 9
17.008499 2.3494999 2.286 9
17.068501 2.4595001 2.2809999 9
17.0875 2.3924999 2.283 9
17.2255 2.3875 2.283 9
16.9245 2.3505001 2.286 9
17.0755 2.3155 2.2869999 9
16.946501 2.3115001 2.2880001 9
17.213499 2.3264999 2.2850001 9
17.282499 2.3685 2.283 9
17.1425 2.4345 2.2809999 9
17.0585 2.3685 2.2850001 9
17.0495 2.4215 2.2820001 9
16.9755 2.3355 2.286 9
16.848499 2.3255 2.2880001 9
17.025499 2.4635 2.2809999 9
16.9755 2.3455 2.286 9
17.0385 2.3455 2.286 9
17.116501 2.4224999 2.2820001 9
16.9515 2.4045 2.2839999 9
17.067499 2.3364999 2.286 9
16.966499 2.3894999 2.2839999 9
17.098499 2.4094999 2.283 9
17.1675 2.4154999 2.2820001 9
17.216499 2.3745 2.283 9
17.039499 2.3215001 2.2869999 9
17.2115 2.3885 2.283 9
17.216499 2.3905001 2.283 9
17.2575 2.3304999 2.2850001 9
16.9195 2.3494999 2.286 9
17.3715 2.3345001 2.2839999 9
17.011499 2.4575 2.2809999 9
17.043501 2.3485 2.2850001 9
17.061501 2.4405 2.2820001 9
16.883499 2.3455 2.2869999 9
17.036501 2.3155 2.2869999 9
16.8855 2.3464999 2.286 9
16.949499 2.4085 2.2839999 9
16.9925 2.4315 2.2820001 9
17.178499 2.3875 2.283 9
16.9125 2.3405001 2.2869999 9
16.9895 2.4275 2.2820001 9
17.154499 2.3375001 2.2850001 9
16.9025 2.3415 2.2869999 9
16.914499 2.3615 2.286 9
17.0075 2.3845 2.2839999 9
16.974501 2.4075 2.283 9
17.192499 2.3664999 2.2839999 9
16.928499 2.3594999 2.286 9
17.189501 2.4094999 2.2820001 9
17.188499 2.3945 2.283 9
17.2635 2.3345001 2.2850001 9
17.040501 2.3534999 2.2850001 9
17.1145 2.3295 2.286 9
17.151501 2.3525 2.2850001 9
16.997499 2.3715 2.2850001 9
17.0595 2.3724999 2.2839999 9
16.8915 2.3065 2.2880001 9
17.220501 2.3325 2.2850001 9
16.988501 2.3325 2.286 9
16.855499 2.3155 2.2880001 9
17.324499 2.3285 2.2850001 9
17.3475 2.3505001 2.2839999 9
17.269501 2.3395 2.2850001 9
17.2215 2.3405001 2.2850001 9
17.1985 2.3645 2.2839999 9
16.9625 2.3134999 2.2869999 9
16.966499 2.3095 2.2880001 9
17.018499 2.3724999 2.2850001 9
17.0485 2.4575 2.2809999 9
17.0655 2.3824999 2.2839999 9
17.195499 2.4024999 2.2820001 9
17.0665 2.3935001 2.283 9
17.099501 2.3965001 2.283 9
17.0485 2.4075 2.283 9
16.991501 2.3505001 2.286 9
16.9895 2.4345 2.2820001 9
16.9935 2.3295 2.2869999 9
16.9615 2.3125 2.2869999 9
16.8815 2.3485 2.286 9
16.8985 2.3225 2.2869999 9
16.9205 2.3085001 2.2880001 9
17.3405 2.3295 2.2850001 9
16.884501 2.3164999 2.2880001 9
17.102501 2.3935001 2.283 9
16.9545 2.4054999 2.2839999 9
17.070499 2.4435 2.2809999 9
16.897499 2.3445001 2.286 9
17.3685 2.3434999 2.2839999 9
17.008499 2.4184999 2.283 9
16.987499 2.3395 2.286 9
17.154499 2.3434999 2.2850001 9
17.0875 2.3585 2.2850001 9
17.0075 2.4115 2.283 9
16.984501 2.3505001 2.286 9
17.0975 2.3915 2.283 9
17.1385 2.3564999 2.2850001 9
17.0895 2.3885 2.2839999 9
16.855499 2.3065 2.2880001 9
17.4025 2.3295 2.2839999 9
16.8715 2.3534999 2.286 9
17.019501 2.4154999 2.283 9
17.067499 2.4284999 2.2820001 9
16.921499 2.3104999 2.2880001 9
16.959499 2.3494999 2.286 9
16.9755 2.3505001 2.286 9
16.932501 2.3845 2.2850001 9
16.938499 2.3924999 2.2839999 9
17.3125 2.3285 2.2850001 9
17.1845 2.3975 2.283 9
17.234501 2.3935001 2.283 9
17.3305 2.3425 2.2839999 9
16.9105 2.3894999 2.2850001 9
17.0655 2.4115 2.283 9
17.0905 2.3994999 2.283 9
17.1695 2.3705001 2.2839999 9
17.150499 2.4085 2.2820001 9
16.897499 2.3475001 2.286 9
16.9615 2.3905001 2.2839999 9
17.0285 2.4525001 2.2809999 9
17.2465 2.3894999 2.283 9
17.1185 2.3645 2.2839999 9
16.835501 2.3225 2.2880001 9
16.960501 2.3494999 2.286 9
17.0495 2.4535 2.2809999 9
17.2605 2.3715 2.283 9
17.2005 2.3785 2.283 9
16.9105 2.3364999 2.2869999 9
16.9615 2.3954999 2.2839999 9
16.9305 2.4005001 2.2839999 9
17.1835 2.3824999 2.283 9
17.342501 2.3445001 2.2839999 9
16.9025 2.3155 2.2880001 9
17.2735 2.3794999 2.283 9
17.0135 2.3705001 2.2850001 9
17.213499 2.3304999 2.2850001 9
17.012501 2.3775001 2.2839999 9
17.247499 2.3635001 2.2839999 9
17.011499 2.3485 2.286 9
16.9375 2.3534999 2.286 9
16.9755 2.3675001 2.2850001 9
17.2845 2.3385 2.2850001 9
17.0665 2.3425 2.286 9
17.1495 2.3845 2.283 9
17.1395 2.3464999 2.2850001 9
17.1285 2.4265001 2.2820001 9
17.081499 2.4335001 2.2820001 9
17.220501 2.3534999 2.2839999 9
16.8605 2.3405001 2.2869999 9
16.946501 2.3164999 2.2869999 9
16.907499 2.3315001 2.2869999 9
17.3965 2.3325 2.2839999 9
17.2735 2.3575001 2.2839999 9
17.053499 2.3805001 2.2839999 9
17.154499 2.3815 2.283 9
16.9715 2.4115 2.283 9
17.237499 2.3345001 2.2850001 9
17.2085 2.3794999 2.283 9
16.9055 2.3505001 2.286 9
17.2045 2.3685 2.2839999 9
16.997499 2.3434999 2.286 9
17.217501 2.3275001 2.2850001 9
17.248501 2.3694999 2.283 9
16.974501 2.3185 2.2869999 9
17.216499 2.3905001 2.283 9
16.9695 2.3334999 2.2869999 9
17.2185 2.3885 2.283 9
16.956499 2.3625 2.2850001 9
16.907499 2.3095 2.2880001 9
16.936501 2.3954999 2.2839999 9
17.4025 2.3355 2.2839999 9
17.2115 2.3575001 2.2839999 9
17.3125 2.3585 2.2839999 9
17.091499 2.3155 2.2869999 9
16.9895 2.3345001 2.286 9
17.2535 2.3345001 2.2850001 9
17.0525 2.3175001 2.2869999 9
16.9175 2.3304999 2.2869999 9
17.3965 2.3325 2.2839999 9
17.188499 2.3885 2.283 9
17.0825 2.4154999 2.2820001 9
16.9755 2.4324999 2.2820001 9
17.244499 2.3334999 2.2850001 9
17.0375 2.3954999 2.2839999 9
17.1625 2.3304999 2.286 9
16.835501 2.3185 2.2880001 9
17.1285 2.3824999 2.2839999 9
17.1905 2.3525 2.2839999 9
