# .PCD v0.7 - Point Cloud Data file format
VERSION 0.7
FIELDS x y z label
SIZE 4 4 4 4
TYPE F F F U
COUNT 1 1 1 1
WIDTH 1708
HEIGHT 1
VIEWPOINT 0 0 0 1 0 0 0
POINTS 1708
DATA ascii
17.9615 1.3015 0.54699999 5
17.9615 1.3005 0.55299997 5
17.9615 1.3055 0.54100001 5
17.9615 1.2895 0.60299999 5
17.9575 1.2885 0.46700001 5
17.956499 1.2984999 0.33899999 5
17.959499 1.2934999 0.49900001 5
17.9585 1.2875 0.48100001 5
17.960501 1.2815 0.59899998 5
17.960501 1.2975 0.52399999 5
17.9625 1.3065 0.55900002 5
17.9585 1.2855 0.49900001 5
17.9585 1.2745 0.55699998 5
17.956499 1.2865 0.43700001 5
17.960501 0.98650002 0.47600001 5
17.9615 0.96350002 0.505 5
17.9585 1.0305001 0.45199999 5
17.963499 0.94450003 0.58099997 5
17.966499 0.8725 0.59200001 5
17.966499 0.86750001 0.56800002 5
17.9615 0.96950001 0.47600001 5
17.960501 0.96350002 0.44400001 5
17.9615 0.9515 0.456 5
17.9645 0.91250002 0.55699998 5
17.9655 0.84649998 0.47299999 5
17.9615 0.96149999 0.46799999 5
17.9615 0.96649998 0.49000001 5
17.960501 0.9795 0.442 5
17.9645 0.88450003 0.51599997 5
17.9655 0.86049998 0.52200001 5
17.959499 1.0055 0.45199999 5
17.9585 1.0245 0.47 5
17.9645 0.88550001 0.53399998 5
17.9615 0.94950002 0.48800001 5
17.9615 0.95450002 0.44100001 5
17.9625 0.93550003 0.47 5
17.963499 0.90750003 0.46799999 5
17.9625 0.92549998 0.48199999 5
17.9655 0.89749998 0.56300002 5
17.9575 1.0505 0.42899999 5
17.963499 0.91350001 0.495 5
17.959499 1.0035 0.47 5
17.9655 0.89950001 0.57700002 5
17.963499 0.88349998 0.45899999 5
17.960501 1.0055 0.495 5
17.9645 0.86549997 0.48199999 5
17.9625 0.95249999 0.51899999 5
17.966499 0.85350001 0.53299999 5
17.959499 1.0005 0.44 5
17.9655 0.90850002 0.59200001 5
17.963499 0.89249998 0.47299999 5
17.9585 1.0215 0.435 5
17.9645 0.90149999 0.53899997 5
17.966499 0.87050003 0.58999997 5
17.960501 0.98650002 0.498 5
17.963499 0.92049998 0.51999998 5
17.9615 0.9375 0.44400001 5
17.963499 0.8865 0.45899999 5
17.9655 0.86250001 0.49200001 5
17.9645 0.88249999 0.52100003 5
17.959499 1.0045 0.45699999 5
17.963499 0.90750003 0.48800001 5
17.966499 0.86449999 0.58499998 5
17.963499 0.88050002 0.454 5
17.966499 0.8585 0.55500001 5
17.9615 0.95450002 0.44 5
17.9655 0.88950002 0.56800002 5
17.9625 0.95749998 0.55400002 5
17.966499 0.85350001 0.55299997 5
17.963499 0.94150001 0.565 5
17.959499 1.0145 0.47799999 5
17.9625 0.9425 0.52700001 5
17.9625 0.91350001 0.44600001 5
17.9615 0.95649999 0.46399999 5
17.9615 0.9655 0.465 5
17.9625 0.91750002 0.46599999 5
17.9625 0.95850003 0.56 5
17.9625 0.91149998 0.463 5
17.960501 0.9795 0.47600001 5
17.9625 0.94349998 0.51700002 5
17.959499 0.99250001 0.44100001 5
17.9585 1.0305001 0.44400001 5
17.9615 0.9515 0.486 5
17.963499 0.9005 0.46599999 5
17.9655 0.85149997 0.51099998 5
17.960501 0.9835 0.454 5
17.9655 0.90249997 0.59299999 5
17.963499 0.94550002 0.57499999 5
17.963499 0.93449998 0.565 5
17.9655 0.85350001 0.46799999 5
17.9645 0.90850002 0.579 5
17.9625 0.9605 0.56300002 5
17.9585 1.0325 0.44 5
17.9615 0.9605 0.477 5
17.966499 0.86549997 0.56 5
17.963499 0.88749999 0.46000001 5
17.9625 0.94849998 0.523 5
17.9655 0.8545 0.472 5
17.9615 0.94550002 0.46599999 5
17.959499 1.0085 0.47999999 5
17.9615 0.95249999 0.48500001 5
17.9625 0.9145 0.46399999 5
17.9645 0.8955 0.50700003 5
17.959499 1.0135 0.449 5
17.963499 0.92449999 0.50099999 5
17.9645 0.90549999 0.55000001 5
17.9645 0.91750002 0.55500001 5
17.9625 0.93650001 0.47299999 5
17.963499 0.89649999 0.491 5
17.9655 0.87050003 0.52399999 5
17.9645 0.89950001 0.50099999 5
17.9645 0.90350002 0.56300002 5
17.959499 0.9975 0.43200001 5
17.9655 0.86949998 0.50300002 5
17.963499 0.9005 0.48300001 5
17.9645 0.91149998 0.58200002 5
17.9645 0.90149999 0.53100002 5
17.9625 0.94550002 0.514 5
17.9625 0.9285 0.44999999 5
17.9655 0.88450003 0.52999997 5
17.960501 0.98250002 0.50199997 5
17.9655 0.86449999 0.54100001 5
17.959499 1.0035 0.454 5
17.960501 0.9885 0.45899999 5
17.959499 1.0145 0.456 5
17.963499 0.91949999 0.48500001 5
17.9655 0.88749999 0.58600003 5
17.963499 0.94550002 0.57499999 5
17.9585 1.0265 0.456 5
17.9585 1.0215 0.45699999 5
17.9615 0.97149998 0.48699999 5
17.9645 0.9095 0.579 5
17.9625 0.93949997 0.47 5
17.9625 0.92150003 0.47499999 5
17.9655 0.85350001 0.5 5
17.9655 0.87349999 0.528 5
17.966499 0.86650002 0.58200002 5
17.960501 0.97149998 0.44400001 5
17.9615 0.97250003 0.49599999 5
17.9645 0.91350001 0.55599999 5
17.9615 0.97049999 0.49000001 5
17.9645 0.86849999 0.48899999 5
17.9615 0.98250002 0.50599998 5
17.9645 0.86650002 0.46200001 5
17.9615 0.95349997 0.465 5
17.960501 0.9975 0.50400001 5
17.9645 0.90549999 0.51700002 5
17.9655 0.86449999 0.49900001 5
17.9645 0.9005 0.54699999 5
17.9575 1.0425 0.43099999 5
17.959499 1.0055 0.48800001 5
17.966499 0.85049999 0.54400003 5
17.960501 0.98449999 0.50199997 5
17.960501 1.0075001 0.5 5
17.9615 0.96350002 0.5 5
17.9625 0.94550002 0.50700003 5
17.963499 0.90450001 0.51300001 5
17.9655 0.8865 0.58499998 5
17.9645 0.90850002 0.55000001 5
17.9645 0.9145 0.59600002 5
17.9645 0.91649997 0.55900002 5
17.9655 0.8545 0.498 5
17.963499 0.91149998 0.47499999 5
17.9615 0.95749998 0.46000001 5
17.9655 0.85350001 0.45699999 5
17.9655 0.8495 0.45899999 5
17.9655 0.87449998 0.54799998 5
17.966499 0.8495 0.537 5
17.963499 0.90850002 0.50199997 5
17.966499 0.85750002 0.55299997 5
17.9655 0.84850001 0.48899999 5
17.9655 0.8635 0.50800002 5
17.9645 0.88450003 0.52600002 5
17.9645 0.89450002 0.491 5
17.9655 0.90450001 0.59299999 5
17.960501 0.99550003 0.48699999 5
17.9645 0.9145 0.565 5
17.9645 0.8865 0.53500003 5
17.9655 0.87449998 0.56199998 5
17.9655 0.89349997 0.56199998 5
17.960501 0.97750002 0.44299999 5
17.9615 0.98750001 0.51999998 5
17.9615 0.98049998 0.50099999 5
17.960501 0.99449998 0.472 5
17.960501 0.98650002 0.509 5
17.960501 0.98150003 0.50099999 5
17.960501 0.98949999 0.514 5
17.9615 0.98650002 0.52700001 5
17.963499 0.94349998 0.54900002 5
17.9615 0.96450001 0.46399999 5
17.963499 0.93550003 0.56900001 5
17.9615 0.97250003 0.53399998 5
17.9645 0.8865 0.52399999 5
17.9625 0.95050001 0.55699998 5
17.960501 0.97750002 0.47799999 5
17.960501 0.99550003 0.509 5
17.9655 0.8585 0.47799999 5
17.9645 0.90450001 0.523 5
17.9575 1.0375 0.43200001 5
17.9625 0.94550002 0.495 5
17.9585 1.0145 0.44100001 5
17.960501 0.97149998 0.47099999 5
17.9585 1.0375 0.447 5
17.966499 0.8545 0.56900001 5
17.967501 0.85250002 0.58899999 5
17.9645 0.90750003 0.52200001 5
17.9645 0.89749998 0.49599999 5
17.9645 0.92150003 0.58499998 5
17.966499 0.88050002 0.58899999 5
17.963499 0.93449998 0.51999998 5
17.9645 0.87349999 0.47999999 5
17.9645 0.92049998 0.57099998 5
17.9655 0.9005 0.58899999 5
17.963499 0.91149998 0.47400001 5
17.9655 0.85949999 0.49399999 5
17.959499 1.0045 0.42899999 5
17.9615 0.98549998 0.528 5
17.9615 0.96749997 0.52100003 5
17.960501 0.98949999 0.46700001 5
17.963499 0.95050001 0.56999999 5
17.9655 0.86150002 0.54000002 5
17.9615 0.97250003 0.51999998 5
17.963499 0.95050001 0.57800001 5
17.963499 0.92949998 0.528 5
17.966499 0.85350001 0.52499998 5
17.966499 0.86849999 0.574 5
17.966499 0.85549998 0.55699998 5
17.960501 0.98650002 0.50099999 5
17.959499 0.98449999 0.43900001 5
17.9625 0.93949997 0.50999999 5
17.963499 0.90450001 0.461 5
17.963499 0.91949999 0.49399999 5
17.9655 0.89450002 0.55699998 5
17.960501 0.97250003 0.47099999 5
17.960501 0.96749997 0.46599999 5
17.966499 0.86849999 0.57800001 5
17.960501 0.9795 0.48899999 5
17.960501 0.9795 0.435 5
17.959499 1.0135 0.472 5
17.960501 0.99949998 0.48300001 5
17.9625 0.95249999 0.514 5
17.9625 0.96249998 0.54100001 5
17.9625 0.96249998 0.54799998 5
17.9575 1.0405 0.44499999 5
17.966499 0.85650003 0.53500003 5
17.9575 1.0355 0.43000001 5
17.960501 0.98250002 0.479 5
17.963499 0.9005 0.46399999 5
17.9615 0.9745 0.50999999 5
17.963499 0.92549998 0.51800001 5
17.9645 0.91149998 0.53399998 5
17.963499 0.93949997 0.58200002 5
17.9575 1.0375 0.43900001 5
17.9655 0.88950002 0.546 5
17.9645 0.91850001 0.57099998 5
17.9625 0.95450002 0.551 5
17.9615 0.96149999 0.47999999 5
17.9655 0.84850001 0.493 5
17.960501 0.97350001 0.44499999 5
17.9615 0.97549999 0.51599997 5
17.966499 0.86549997 0.58700001 5
17.963499 0.94849998 0.55699998 5
17.960501 1.0255001 0.54299998 5
17.9615 0.99250001 0.53899997 5
17.9625 0.96249998 0.57200003 5
17.960501 0.99949998 0.52100003 5
17.963499 0.9655 0.58899999 5
17.9585 1.0565 0.46700001 5
17.959499 1.0315 0.49000001 5
17.9625 1.0295 0.59799999 5
17.9585 1.0565 0.46200001 5
17.9625 0.99650002 0.58499998 5
17.959499 1.0525 0.509 5
17.960501 1.0285 0.53399998 5
17.959499 1.0135 0.50199997 5
17.959499 1.0165 0.498 5
17.963499 0.97350001 0.58999997 5
17.9615 0.9975 0.53500003 5
17.9585 1.0375 0.47 5
17.960501 1.0445 0.53399998 5
17.9615 1.0115 0.56999999 5
17.9625 0.99849999 0.57800001 5
17.9625 0.98750001 0.58899999 5
17.959499 1.0245 0.509 5
17.963499 0.95550001 0.58099997 5
17.9625 0.9835 0.57599998 5
17.959499 1.0455 0.5 5
17.9585 1.0495 0.46700001 5
17.959499 1.0495 0.51599997 5
17.9625 0.99650002 0.59500003 5
17.9615 1.0015 0.55299997 5
17.959499 1.0425 0.514 5
17.9615 0.99849999 0.53100002 5
17.960501 1.0215 0.509 5
17.9625 0.99949998 0.56900001 5
17.956499 1.0685 0.42300001 5
17.959499 1.0595 0.50300002 5
17.963499 0.97049999 0.59100002 5
17.9615 1.0275 0.57599998 5
17.9615 1.0265 0.56800002 5
17.9615 0.99349999 0.537 5
17.9615 1.0015 0.54799998 5
17.9625 0.98250002 0.57999998 5
17.9625 0.96249998 0.57599998 5
17.9615 1.0255001 0.56 5
17.9625 0.99250001 0.56999999 5
17.9615 0.98949999 0.53799999 5
17.959499 1.0515 0.50199997 5
17.9625 0.98549998 0.59299999 5
17.960501 1.0045 0.52600002 5
17.9585 1.0415 0.46700001 5
17.9585 1.0475 0.472 5
17.959499 1.0255001 0.484 5
17.960501 1.0405 0.55000001 5
17.9585 1.0434999 0.47499999 5
17.9585 1.0495 0.46900001 5
17.9625 1.0125 0.59600002 5
17.963499 0.96950001 0.59200001 5
17.9615 1.0295 0.56900001 5
17.960501 1.0035 0.514 5
17.960501 1.0165 0.51899999 5
17.9625 0.99049997 0.58200002 5
17.9615 1.0495 0.583 5
17.959499 1.0175 0.48699999 5
17.9615 1.0365 0.56199998 5
17.9625 1.0265 0.59100002 5
17.9625 0.99349999 0.57599998 5
17.959499 1.0484999 0.514 5
17.9625 1.0055 0.59200001 5
17.9615 1.0135 0.57099998 5
17.960501 1.0484999 0.55599999 5
17.960501 1.0075001 0.51300001 5
17.9585 1.0605 0.47099999 5
17.9575 1.0475 0.44100001 5
17.960501 1.0375 0.54699999 5
17.9625 1.0085 0.58399999 5
17.959499 1.0305001 0.50999999 5
17.959499 1.0505 0.498 5
17.959499 1.0225 0.50599998 5
17.963499 0.96450001 0.59399998 5
17.9625 1.0135 0.58399999 5
17.960501 1.0455 0.54100001 5
17.960501 1.0545 0.54100001 5
17.9625 1.0015 0.58999997 5
17.9615 1.0075001 0.56300002 5
17.960501 1.0355 0.546 5
17.9625 0.9745 0.56999999 5
17.9585 1.0515 0.486 5
17.9615 1.0055 0.54900002 5
17.9625 0.98549998 0.57999998 5
17.9615 1.0215 0.56999999 5
17.959499 1.0275 0.50599998 5
17.960501 1.0475 0.55599999 5
17.9575 1.0545 0.44100001 5
17.9615 1.0185 0.57599998 5
17.959499 1.0245 0.486 5
17.9625 1.0315 0.59899998 5
17.959499 1.0305001 0.51300001 5
17.9615 1.0295 0.56300002 5
17.9615 1.0455 0.56900001 5
17.9615 0.98949999 0.53600001 5
17.959499 1.0515 0.50999999 5
17.9615 0.99550003 0.55000001 5
17.9625 0.97350001 0.57800001 5
17.960501 1.0285 0.53200001 5
17.9575 1.0495 0.43700001 5
17.9575 1.0625 0.44999999 5
17.9615 1.0225 0.56300002 5
17.9575 1.1745 0.41800001 5
17.960501 1.1315 0.528 5
17.9585 1.1115 0.46399999 5
17.956499 1.2715 0.338 5
17.9615 1.1375 0.546 5
17.9585 1.1165 0.46000001 5
17.9575 1.1055 0.41999999 5
17.9575 1.0745 0.45899999 5
17.9575 1.2035 0.39399999 5
17.956499 1.2485 0.34099999 5
17.960501 1.1425 0.51099998 5
17.959499 1.1085 0.50999999 5
17.9575 1.2315 0.38800001 5
17.960501 1.0685 0.55699998 5
17.9585 1.0685 0.48199999 5
17.9615 1.1075 0.54799998 5
17.9575 1.1355 0.421 5
17.956499 1.1905 0.359 5
17.9615 1.0875 0.55500001 5
17.956499 1.2255 0.375 5
17.9585 1.0664999 0.47099999 5
17.9585 1.1135 0.47499999 5
17.9585 1.1375 0.45199999 5
17.960501 1.0664999 0.54000002 5
17.956499 1.1825 0.38600001 5
17.960501 1.0775 0.55599999 5
17.9575 1.1235 0.433 5
17.956499 1.1485 0.377 5
17.956499 1.1615 0.37 5
17.960501 1.0655 0.55599999 5
17.9555 1.1905 0.34799999 5
17.956499 1.2325 0.34999999 5
17.960501 1.0775 0.54400003 5
17.9585 1.2035 0.43399999 5
17.959499 1.2005 0.458 5
17.956499 1.2565 0.338 5
17.9575 1.1174999 0.43399999 5
17.9585 1.1955 0.433 5
17.960501 1.1035 0.51800001 5
17.9575 1.1645 0.419 5
17.9615 1.0505 0.59500003 5
17.959499 1.1385 0.491 5
17.956499 1.2565 0.34900001 5
17.9615 1.1005 0.55400002 5
17.960501 1.0595 0.56099999 5
17.956499 1.2115 0.37799999 5
17.9575 1.0985 0.42399999 5
17.960501 1.0775 0.54000002 5
17.960501 1.1255 0.51300001 5
17.9585 1.0675 0.472 5
17.956499 1.2155 0.36399999 5
17.9615 1.0655 0.588 5
17.9575 1.1805 0.42399999 5
17.9575 1.2435 0.38699999 5
17.9615 1.0555 0.56900001 5
17.9585 1.0865 0.46399999 5
17.959499 1.1015 0.51499999 5
17.9575 1.2165 0.40099999 5
17.959499 1.0655 0.52700001 5
17.9585 1.1985 0.44100001 5
17.9575 1.1445 0.433 5
17.959499 1.0935 0.48699999 5
17.9615 1.0575 0.57999998 5
17.956499 1.1865 0.37900001 5
17.9625 1.0805 0.59899998 5
17.960501 1.1115 0.54100001 5
17.959499 1.1585 0.49200001 5
17.9585 1.1265 0.46900001 5
17.956499 1.2395 0.359 5
17.9615 1.0645 0.58200002 5
17.956499 1.1964999 0.38100001 5
17.9615 1.1155 0.54400003 5
17.9585 1.2205 0.41499999 5
17.960501 1.0994999 0.53500003 5
17.956499 1.0825 0.41600001 5
17.959499 1.0805 0.51099998 5
17.9585 1.0895 0.46799999 5
17.9585 1.0805 0.472 5
17.9575 1.1895 0.41999999 5
17.9625 1.0895 0.59799999 5
17.9575 1.1835001 0.412 5
17.9575 1.1895 0.39199999 5
17.9615 1.1445 0.53399998 5
17.9585 1.1835001 0.449 5
17.9585 1.0915 0.48500001 5
17.9555 1.2615 0.31200001 5
17.9575 1.1005 0.43099999 5
17.9585 1.0985 0.46700001 5
17.9555 1.2585 0.331 5
17.960501 1.1545 0.51800001 5
17.959499 1.1925 0.461 5
17.9585 1.1385 0.44999999 5
17.956499 1.2265 0.37 5
17.959499 1.1755 0.47 5
17.9625 1.0605 0.597 5
17.9575 1.2075 0.41299999 5
17.9575 1.1995 0.40599999 5
17.959499 1.1445 0.47499999 5
17.9575 1.1615 0.41 5
17.9585 1.1335 0.44800001 5
17.959499 1.0755 0.50199997 5
17.9555 1.2265 0.34400001 5
17.9625 1.0545 0.60000002 5
17.959499 1.1485 0.47499999 5
17.9575 1.1914999 0.39899999 5
17.960501 1.1625 0.50300002 5
17.960501 1.0875 0.53200001 5
17.9575 1.1895 0.41 5
17.960501 1.1725 0.493 5
17.959499 1.1055 0.48800001 5
17.9625 1.0805 0.60100001 5
17.960501 1.1475 0.51800001 5
17.956499 1.2205 0.347 5
17.959499 1.1075 0.49399999 5
17.9555 1.2415 0.33199999 5
17.960501 1.0585001 0.56 5
17.956499 1.1345 0.40099999 5
17.9555 1.2115 0.33899999 5
17.956499 1.2485 0.34299999 5
17.9585 1.0985 0.463 5
17.960501 1.1375 0.505 5
17.956499 1.2335 0.35800001 5
17.9585 1.1025 0.47600001 5
17.960501 1.0815001 0.53799999 5
17.9585 1.0975 0.465 5
17.9575 1.1174999 0.44400001 5
17.959499 1.0755 0.50800002 5
17.959499 1.0645 0.50400001 5
17.959499 1.1185 0.509 5
17.9585 1.1515 0.46200001 5
17.959499 1.1955 0.465 5
17.956499 1.1555001 0.38800001 5
17.960501 1.1385 0.51200002 5
17.959499 1.1425 0.47799999 5
17.9585 1.1185 0.47 5
17.9585 1.1605 0.43900001 5
17.9585 1.1404999 0.44400001 5
17.9575 1.1515 0.433 5
17.9555 1.2415 0.32800001 5
17.9575 1.0835 0.44499999 5
17.9585 1.0745 0.477 5
17.956499 1.2215 0.37400001 5
17.960501 1.1355 0.52600002 5
17.956499 1.1734999 0.36899999 5
17.960501 1.1615 0.498 5
17.9585 1.1125 0.458 5
17.9615 1.1145 0.57200003 5
17.9585 1.1495 0.44299999 5
17.9585 1.1325001 0.45699999 5
17.9625 1.0885 0.58399999 5
17.9575 1.1445 0.41 5
17.959499 1.1224999 0.5 5
17.9585 1.1445 0.465 5
17.9575 1.1545 0.41999999 5
17.956499 1.0944999 0.412 5
17.960501 1.1245 0.53200001 5
17.956499 1.2155 0.352 5
17.959499 1.1515 0.49599999 5
17.956499 1.2395 0.34799999 5
17.9585 1.1035 0.45500001 5
17.956499 1.2315 0.37099999 5
17.9615 1.0565 0.56800002 5
17.956499 1.2415 0.34900001 5
17.959499 1.1025 0.50599998 5
17.956499 1.2615 0.34599999 5
17.9615 1.1145 0.54799998 5
17.9575 1.2275 0.38499999 5
17.960501 1.1675 0.51300001 5
17.960501 1.1684999 0.51300001 5
17.9555 1.2925 0.296 5
17.9625 1.0785 0.602 5
17.9575 1.1815 0.40000001 5
17.9555 1.2305 0.32600001 5
17.9575 1.1404999 0.41299999 5
17.9575 1.0745 0.43599999 5
17.9575 1.0805 0.45199999 5
17.960501 1.1525 0.509 5
17.9575 1.0944999 0.44100001 5
17.959499 1.1575 0.486 5
17.9575 1.2365 0.398 5
17.9615 1.1355 0.56 5
17.960501 1.1705 0.50800002 5
17.959499 1.1855 0.463 5
17.959499 1.1615 0.48500001 5
17.9575 1.1045001 0.45100001 5
17.960501 1.0565 0.53899997 5
17.9575 1.1275001 0.428 5
17.9585 1.0885 0.463 5
17.9575 1.0765001 0.44499999 5
17.9575 1.1085 0.43700001 5
17.9555 1.2765 0.31200001 5
17.9615 1.0925 0.56800002 5
17.9575 1.0905 0.449 5
17.960501 1.0855 0.54400003 5
17.956499 1.1895 0.38800001 5
17.956499 1.2505 0.338 5
17.956499 1.2385 0.36399999 5
17.9575 1.1945 0.405 5
17.9555 1.2165 0.34299999 5
17.9625 1.1174999 0.588 5
17.959499 1.1575 0.48500001 5
17.9615 1.1045001 0.56699997 5
17.960501 1.1785001 0.48899999 5
17.9585 1.2145 0.42199999 5
17.9615 1.1155 0.56099999 5
17.959499 1.1525 0.47400001 5
17.960501 1.0655 0.54500002 5
17.9555 1.1465 0.36199999 5
17.959499 1.0625 0.51099998 5
17.9585 1.1705 0.45199999 5
17.9575 1.1545 0.419 5
17.956499 1.1195 0.41100001 5
17.959499 1.1325001 0.48699999 5
17.9615 1.1135 0.574 5
17.960501 1.1655 0.51099998 5
17.9625 1.1025 0.58200002 5
17.9615 1.1145 0.57200003 5
17.959499 1.0835 0.50599998 5
17.9555 1.2635 0.315 5
17.956499 1.1914999 0.37900001 5
17.9625 1.1135 0.59600002 5
17.9575 1.2315 0.38299999 5
17.956499 1.2235 0.361 5
17.959499 1.1555001 0.484 5
17.960501 1.1035 0.52399999 5
17.9585 1.1645 0.45699999 5
17.959499 1.1785001 0.46900001 5
17.9585 1.1815 0.43399999 5
17.9575 1.1224999 0.42199999 5
17.9615 1.0565 0.588 5
17.9615 1.0535001 0.57700002 5
17.9585 1.1935 0.447 5
17.9625 1.0965 0.602 5
17.960501 1.1005 0.52600002 5
17.960501 1.1015 0.52499998 5
17.956499 1.2385 0.347 5
17.956499 1.2585 0.333 5
17.956499 1.1015 0.41800001 5
17.959499 1.1404999 0.47999999 5
17.9615 1.0925 0.57700002 5
17.960501 1.0925 0.542 5
17.9585 1.1575 0.44499999 5
17.9585 1.1575 0.447 5
17.9615 1.0535001 0.579 5
17.9555 1.2785 0.32499999 5
17.9585 1.1855 0.44600001 5
17.960501 1.1055 0.514 5
17.9615 1.1454999 0.54299998 5
17.9575 1.1914999 0.412 5
17.9555 1.2845 0.308 5
17.956499 1.2035 0.36000001 5
17.960501 1.1555001 0.52100003 5
17.956499 1.2215 0.377 5
17.960501 1.1174999 0.51999998 5
17.9575 1.1174999 0.43000001 5
17.956499 1.2045 0.36399999 5
17.9575 1.0885 0.43700001 5
17.9575 1.1275001 0.43399999 5
17.956499 1.0785 0.419 5
17.9585 1.1734999 0.454 5
17.9575 1.1045001 0.44999999 5
17.9555 1.2704999 0.324 5
17.9575 1.1895 0.39399999 5
17.9585 1.1795 0.454 5
17.9575 1.1385 0.42899999 5
17.9625 1.0885 0.59399998 5
17.956499 1.2645 0.33899999 5
17.9615 1.1565 0.53299999 5
17.956499 1.1345 0.40799999 5
17.9555 1.2555 0.324 5
17.9575 1.1635 0.40599999 5
17.960501 1.1325001 0.51899999 5
17.960501 1.0585001 0.56 5
17.956499 1.1705 0.38100001 5
17.9555 1.1945 0.34599999 5
17.956499 1.1395 0.38299999 5
17.960501 1.1285 0.53500003 5
17.9585 1.1454999 0.44999999 5
17.9615 1.1425 0.55599999 5
17.956499 1.1955 0.38 5
17.956499 1.2695 0.331 5
17.9615 1.1015 0.56400001 5
17.9585 1.1174999 0.45699999 5
17.9625 1.1115 0.58399999 5
17.9555 1.1495 0.36700001 5
17.9555 1.1775 0.35800001 5
17.9615 1.0935 0.57700002 5
17.956499 1.1695 0.38800001 5
17.9575 1.1605 0.40700001 5
17.9575 1.1755 0.40599999 5
17.9575 1.1315 0.42899999 5
17.9615 1.1205 0.54400003 5
17.9585 1.1425 0.45899999 5
17.9585 1.1015 0.48300001 5
17.956499 1.2175 0.37 5
17.9575 1.0865 0.456 5
17.960501 1.1635 0.51099998 5
17.9575 1.0895 0.44400001 5
17.960501 1.1605 0.49700001 5
17.9585 1.1505001 0.44999999 5
17.9585 1.0825 0.47400001 5
17.960501 1.0885 0.53299999 5
17.9585 1.1325001 0.47099999 5
17.9575 1.2135 0.39399999 5
17.9585 1.1505001 0.45500001 5
17.956499 1.2525001 0.35499999 5
17.9555 1.1535 0.35800001 5
17.960501 1.1755 0.56099999 5
17.9615 1.1595 0.57300001 5
17.9585 1.2285 0.55599999 5
17.9575 1.2465 0.414 5
17.9585 1.2244999 0.47099999 5
17.9575 1.2424999 0.44499999 5
17.9575 1.2654999 0.53399998 5
17.9585 1.2285 0.53799999 5
17.9585 1.2325 0.48899999 5
17.9615 1.1445 0.597 5
17.9625 1.1224999 0.59799999 5
17.9585 1.2365 0.45699999 5
17.9585 1.2385 0.574 5
17.959499 1.2035 0.51099998 5
17.959499 1.2075 0.495 5
17.959499 1.2025 0.54400003 5
17.960501 1.1815 0.528 5
17.9575 1.2485 0.495 5
17.9575 1.2465 0.44600001 5
17.9555 1.2925 0.33199999 5
17.9585 1.2185 0.54299998 5
17.9575 1.2605 0.419 5
17.9575 1.2485 0.56599998 5
17.959499 1.1865 0.48500001 5
17.960501 1.1765 0.59299999 5
17.9585 1.2325 0.56800002 5
17.959499 1.2155 0.54000002 5
17.9575 1.2505 0.46700001 5
17.9615 1.1645 0.56099999 5
17.9555 1.2885 0.31299999 5
17.9575 1.2505 0.49900001 5
17.959499 1.1995 0.565 5
17.960501 1.1825 0.56999999 5
17.956499 1.2695 0.352 5
17.956499 1.2745 0.36899999 5
17.9575 1.2385 0.42199999 5
17.959499 1.2025 0.54900002 5
17.9615 1.1665 0.59100002 5
17.956499 1.2765 0.42399999 5
17.9575 1.2365 0.449 5
17.959499 1.1935 0.53899997 5
17.9575 1.2605 0.54400003 5
17.9575 1.2585 0.49399999 5
17.956499 1.2735 0.35800001 5
17.9585 1.2225 0.56800002 5
17.956499 1.2654999 0.405 5
17.9615 1.1515 0.551 5
17.960501 1.1725 0.514 5
17.9575 1.2625 0.456 5
17.9585 1.2244999 0.46599999 5
17.9575 1.2675 0.50300002 5
17.9585 1.2215 0.43399999 5
17.9575 1.2615 0.47099999 5
17.956499 1.2695 0.382 5
17.956499 1.2654999 0.44400001 5
17.9585 1.2185 0.52700001 5
17.9555 1.2865 0.389 5
17.9575 1.2445 0.39199999 5
17.959499 1.2115 0.53100002 5
17.9585 1.2455 0.56999999 5
17.9575 1.2465 0.456 5
17.956499 1.2825 0.417 5
17.9585 1.2265 0.537 5
17.9575 1.2605 0.498 5
17.9585 1.2355 0.55000001 5
17.9585 1.2275 0.42199999 5
17.9585 1.2285 0.597 5
17.9585 1.2155 0.435 5
17.9585 1.2345001 0.50199997 5
17.960501 1.1825 0.495 5
17.9585 1.2265 0.49399999 5
17.9585 1.2325 0.53200001 5
17.9585 1.2205 0.48699999 5
17.956499 1.2755001 0.447 5
17.9575 1.2525001 0.43700001 5
17.9575 1.2525001 0.389 5
17.956499 1.2665 0.40400001 5
17.960501 1.1805 0.546 5
17.9585 1.2355 0.537 5
17.9585 1.2135 0.45300001 5
17.9615 1.1565 0.55299997 5
17.956499 1.2785 0.33199999 5
17.9615 1.1475 0.60299999 5
17.9575 1.2575001 0.43099999 5
17.959499 1.2045 0.46599999 5
17.9575 1.2455 0.39300001 5
17.9585 1.2395 0.58899999 5
17.9575 1.2445 0.505 5
17.959499 1.1935 0.53299999 5
17.9585 1.2265 0.60299999 5
17.9575 1.2525001 0.56699997 5
17.959499 1.1975 0.57200003 5
17.9585 1.2095 0.45199999 5
17.956499 1.2745 0.47299999 5
17.9575 1.2474999 0.53399998 5
17.959499 1.2115 0.55900002 5
17.9575 1.2525001 0.45899999 5
17.956499 1.2745 0.42500001 5
17.959499 1.2155 0.53600001 5
17.9585 1.2335 0.51599997 5
17.956499 1.2775 0.45500001 5
17.9585 1.2365 0.53100002 5
17.9585 1.2325 0.461 5
17.9615 1.1575 0.55699998 5
17.956499 1.2765 0.435 5
17.959499 1.2065001 0.51300001 5
17.9585 1.2345001 0.57300001 5
17.9585 1.2305 0.479 5
17.9575 1.2474999 0.50999999 5
17.9575 1.2585 0.403 5
17.9615 1.1565 0.54299998 5
17.960501 1.1835001 0.53899997 5
17.956499 1.2725 0.361 5
17.9615 1.1415 0.588 5
17.9575 1.2555 0.57099998 5
17.956499 1.2685 0.345 5
17.9585 1.2355 0.49700001 5
17.9615 1.1485 0.57200003 5
17.9585 1.2415 0.60100001 5
17.9575 1.2575001 0.57999998 5
17.959499 1.1985 0.51800001 5
17.9585 1.2315 0.53799999 5
17.9585 1.2315 0.43599999 5
17.9625 1.1305 0.58600003 5
17.959499 1.1925 0.505 5
17.9585 1.2175 0.48699999 5
17.959499 1.2125 0.60000002 5
17.960501 1.1745 0.59799999 5
17.9575 1.2575001 0.43799999 5
17.959499 1.2035 0.54000002 5
17.9575 1.2545 0.41800001 5
17.959499 1.1925 0.55400002 5
17.9585 1.2235 0.54400003 5
17.9575 1.2474999 0.542 5
17.956499 1.2825 0.428 5
17.959499 1.1985 0.57099998 5
17.9585 1.2125 0.465 5
17.9575 1.2654999 0.479 5
17.9615 1.1665 0.58399999 5
17.9615 1.1565 0.55400002 5
17.9575 1.2435 0.491 5
17.959499 1.2095 0.48500001 5
17.956499 1.2745 0.39500001 5
17.9585 1.2235 0.54000002 5
17.960501 1.1905 0.54400003 5
17.9575 1.2545 0.40900001 5
17.959499 1.2175 0.55299997 5
17.956499 1.2695 0.34900001 5
17.9575 1.2565 0.54000002 5
17.9585 1.2255 0.58700001 5
17.960501 1.1705 0.57999998 5
17.959499 1.2115 0.491 5
17.959499 1.2135 0.52700001 5
17.9615 1.1555001 0.55500001 5
17.959499 1.2095 0.48899999 5
17.9575 1.2365 0.41299999 5
17.9585 1.2474999 0.58399999 5
17.9575 1.2495 0.43700001 5
17.9585 1.2424999 0.51300001 5
17.959499 1.2105 0.52499998 5
17.9575 1.2605 0.58099997 5
17.9585 1.2435 0.55599999 5
17.9585 1.2385 0.47400001 5
17.9585 1.2145 0.47 5
17.9575 1.2415 0.442 5
17.9575 1.2525001 0.44999999 5
17.9575 1.2565 0.463 5
17.960501 1.1795 0.51899999 5
17.9575 1.2455 0.461 5
17.956499 1.2745 0.49000001 5
17.9555 1.2835 0.36399999 5
17.956499 1.2715 0.42300001 5
17.9615 1.1485 0.60000002 5
17.956499 1.2654999 0.44400001 5
17.956499 1.2704999 0.484 5
17.9555 1.2905 0.361 5
17.956499 1.2785 0.442 5
17.9575 1.2505 0.57200003 5
17.9575 1.2515 0.484 5
17.9585 1.2415 0.54699999 5
17.9585 1.2244999 0.50999999 5
17.960501 1.1655 0.54500002 5
17.956499 1.2825 0.36199999 5
17.9625 1.1174999 0.60000002 5
17.9555 1.2855 0.338 5
17.9575 1.2385 0.46900001 5
17.956499 1.2675 0.39500001 5
17.9575 1.2645 0.47799999 5
17.9575 1.2455 0.414 5
17.9585 1.2445 0.58399999 5
17.960501 1.1925 0.57099998 5
17.9575 1.2515 0.43900001 5
17.960501 1.1885 0.58499998 5
17.9585 1.2215 0.46399999 5
17.956499 1.2755001 0.37400001 5
17.9555 1.2875 0.333 5
17.959499 1.2005 0.51099998 5
17.9585 1.2225 0.42500001 5
17.956499 1.2645 0.41999999 5
17.959499 1.1895 0.47799999 5
17.9575 1.2485 0.48899999 5
17.9575 1.2445 0.458 5
17.9585 1.2415 0.54500002 5
17.9575 1.2535 0.57999998 5
17.960501 1.1675 0.55000001 5
17.9575 1.2445 0.40599999 5
17.959499 1.2045 0.542 5
17.9575 1.2515 0.55599999 5
17.959499 1.2045 0.56800002 5
17.9585 1.2435 0.59600002 5
17.9575 1.2424999 0.495 5
17.9575 1.2445 0.44 5
17.960501 1.1805 0.56 5
17.956499 1.2665 0.44499999 5
17.9585 1.2275 0.42899999 5
17.9615 1.1635 0.55500001 5
17.960501 1.1684999 0.58200002 5
17.9615 1.1625 0.60399997 5
17.959499 1.2005 0.53799999 5
17.956499 1.2645 0.36500001 5
17.9585 1.2355 0.44600001 5
17.960501 1.1715 0.53299999 5
17.959499 1.2045 0.50300002 5
17.956499 1.2775 0.42300001 5
17.9575 1.2685 0.51200002 5
17.9555 1.2895 0.33399999 5
17.9575 1.2424999 0.398 5
17.9615 1.1435 0.59500003 5
17.959499 1.1995 0.551 5
17.959499 1.2065001 0.58899999 5
17.959499 1.2035 0.50700003 5
17.9585 1.2325 0.43900001 5
17.959499 1.1945 0.50099999 5
17.960501 1.1715 0.574 5
17.9575 1.2605 0.537 5
17.9585 1.2165 0.52399999 5
17.9615 1.1435 0.58099997 5
17.9555 1.2915 0.31200001 5
17.959499 1.2015001 0.60000002 5
17.959499 1.2155 0.546 5
17.959499 1.2205 0.60399997 5
17.9615 1.1475 0.588 5
17.9625 1.1295 0.597 5
17.960501 1.1755 0.59600002 5
17.9585 1.2205 0.46000001 5
17.959499 1.2135 0.53899997 5
17.960501 1.1845 0.56 5
17.959499 1.2075 0.47499999 5
17.9575 1.2565 0.454 5
17.9575 1.2424999 0.398 5
17.959499 1.2065001 0.45300001 5
17.959499 1.2005 0.49900001 5
17.959499 1.1955 0.55699998 5
17.9585 1.2285 0.546 5
17.9545 1.1705 0.189 5
17.956499 1.1195 0.113 5
17.9545 1.1945 0.093999997 5
17.9555 1.1485 0.198 5
17.9575 1.1115 0.059999999 5
17.953501 1.2165 0.056000002 5
17.9555 1.1675 0.177 5
17.956499 1.1325001 0.134 5
17.956499 1.1355 0.147 5
17.956499 1.1265 0.278 5
17.9545 1.1905 0.079000004 5
17.956499 1.1295 0.079999998 5
17.9545 1.1975 0.097000003 5
17.9555 1.1515 0.082999997 5
17.9555 1.1495 0.147 5
17.9545 1.1925 0.079999998 5
17.9555 1.1605 0.207 5
17.9555 1.1525 0.17 5
17.956499 1.1335 0.119 5
17.9555 1.1375 0.259 5
17.956499 1.1215 0.21699999 5
17.9545 1.2005 0.050000001 5
17.956499 1.1255 0.079000004 5
17.9545 1.1805 0.11 5
17.9555 1.1695 0.108 5
17.956499 1.1185 0.089000002 5
17.9545 1.1975 0.117 5
17.9555 1.1715 0.086999997 5
17.9545 1.2045 0.052000001 5
17.9545 1.1725 0.177 5
17.9555 1.1645 0.14 5
17.9555 1.1684999 0.114 5
17.9575 1.1125 0.075999998 5
17.9555 1.1775 0.043000001 5
17.9575 1.1125 0.064999998 5
17.9555 1.1505001 0.116 5
17.9555 1.1515 0.054000001 5
17.9555 1.1565 0.112 5
17.9555 1.1745 0.085000001 5
17.956499 1.1315 0.097999997 5
17.9555 1.1475 0.107 5
17.9555 1.1575 0.111 5
17.9555 1.1395 0.289 5
17.956499 1.1295 0.18799999 5
17.9555 1.1695 0.132 5
17.956499 1.1345 0.16500001 5
17.9555 1.1605 0.199 5
17.956499 1.1315 0.20100001 5
17.9545 1.1865 0.112 5
17.9555 1.1615 0.15899999 5
17.956499 1.1315 0.244 5
17.9555 1.1485 0.134 5
17.9545 1.1725 0.19 5
17.9555 1.1655 0.1 5
17.953501 1.2165 0.035999998 5
17.956499 1.1285 0.079999998 5
17.9555 1.1495 0.24600001 5
17.9545 1.1815 0.092 5
17.9545 1.1825 0.097000003 5
17.956499 1.1205 0.056000002 5
17.956499 1.1295 0.093000002 5
17.9555 1.1545 0.15700001 5
17.9545 1.1964999 0.039999999 5
17.956499 1.1215 0.035999998 5
17.9555 1.1415 0.168 5
17.9555 1.1505001 0.17299999 5
17.9545 1.1825 0.138 5
17.9555 1.1575 0.241 5
17.9545 1.1815 0.164 5
17.9545 1.2075 0.054000001 5
17.9545 1.1755 0.147 5
17.9545 1.1805 0.153 5
17.9555 1.1615 0.079999998 5
17.9555 1.1585 0.134 5
17.9555 1.1625 0.052000001 5
17.956499 1.1375 0.089000002 5
17.9555 1.1485 0.21799999 5
17.9555 1.1595 0.083999999 5
17.956499 1.1325001 0.039000001 5
17.9545 1.1825 0.077 5
17.953501 1.2185 0.050000001 5
17.956499 1.1415 0.075000003 5
17.956499 1.1195 0.17299999 5
17.9555 1.1675 0.086999997 5
17.956499 1.1295 0.059 5
17.9555 1.1545 0.122 5
17.9555 1.1635 0.14300001 5
17.9555 1.1625 0.212 5
17.9555 1.1425 0.206 5
17.9555 1.1615 0.12800001 5
17.9545 1.1795 0.093000002 5
17.9555 1.1495 0.15700001 5
17.956499 1.1385 0.169 5
17.956499 1.1325001 0.14300001 5
17.9545 1.1975 0.028000001 5
17.9555 1.1565 0.18700001 5
17.9555 1.1575 0.169 5
17.9555 1.1385 0.17900001 5
17.9555 1.1495 0.059 5
17.956499 1.1335 0.121 5
17.956499 1.1385 0.142 5
17.956499 1.1275001 0.26699999 5
17.9555 1.1515 0.056000002 5
17.956499 1.1355 0.12 5
17.9545 1.1805 0.16 5
17.9555 1.1495 0.20299999 5
17.9555 1.1404999 0.29100001 5
17.9555 1.1715 0.122 5
17.9555 1.1495 0.075000003 5
17.9555 1.1585 0.106 5
17.956499 1.1315 0.11 5
17.956499 1.1195 0.176 5
17.956499 1.1224999 0.124 5
17.9545 1.1935 0.054000001 5
17.9555 1.1625 0.164 5
17.9555 1.1605 0.081 5
17.9575 1.1105 0.046 5
17.956499 1.1385 0.061999999 5
17.9555 1.1335 0.271 5
17.956499 1.1265 0.15700001 5
17.9555 1.1505001 0.177 5
17.956499 1.1415 0.131 5
17.956499 1.1195 0.14399999 5
17.9575 1.1165 0.030999999 5
17.9545 1.2045 0.061999999 5
17.9555 1.1655 0.112 5
17.9555 1.1505001 0.20999999 5
17.9555 1.1575 0.141 5
17.9555 1.1645 0.074000001 5
17.9555 1.1665 0.124 5
17.956499 1.1335 0.168 5
17.9555 1.1595 0.134 5
17.9555 1.1595 0.133 5
17.9555 1.1315 0.27500001 5
17.956499 1.1335 0.041000001 5
17.9555 1.1585 0.148 5
17.956499 1.1305 0.089000002 5
17.956499 1.1215 0.17200001 5
17.9545 1.1815 0.116 5
17.956499 1.1185 0.13500001 5
17.956499 1.1275001 0.12800001 5
17.956499 1.1325001 0.12800001 5
17.956499 1.1425 0.075999998 5
17.9545 1.1855 0.090000004 5
17.9545 1.1905 0.077 5
17.956499 1.1375 0.164 5
17.9555 1.1475 0.147 5
17.9555 1.1725 0.050000001 5
17.956499 1.1275001 0.156 5
17.9555 1.1675 0.164 5
17.9555 1.1635 0.191 5
17.9555 1.1745 0.061000001 5
17.9555 1.1765 0.071999997 5
17.956499 1.1165 0.15899999 5
17.9555 1.1625 0.056000002 5
17.9545 1.1955 0.050999999 5
17.9545 1.1795 0.111 5
17.9555 1.1454999 0.25799999 5
17.9545 1.1815 0.146 5
17.9545 1.1705 0.167 5
17.956499 1.1385 0.082999997 5
17.9545 1.1815 0.141 5
17.956499 1.1315 0.124 5
17.956499 1.1475 0.028999999 5
17.9555 1.1565 0.064999998 5
17.956499 1.1235 0.153 5
17.956499 1.1315 0.07 5
17.956499 1.1195 0.153 5
17.9545 1.1905 0.067000002 5
17.9545 1.1985 0.068999998 5
17.956499 1.1174999 0.034000002 5
17.9545 1.1835001 0.054000001 5
17.9555 1.1305 0.285 5
17.956499 1.1265 0.089000002 5
17.9555 1.1625 0.094999999 5
17.956499 1.1255 0.118 5
17.956499 1.1345 0.068999998 5
17.9555 1.1615 0.132 5
17.9545 1.1865 0.096000001 5
17.9555 1.1545 0.028999999 5
17.9545 1.1885 0.079000004 5
17.9555 1.1485 0.23899999 5
17.9555 1.1385 0.289 5
17.9545 1.1855 0.115 5
17.9555 1.1475 0.221 5
17.9555 1.1775 0.29899999 5
17.9555 1.2755001 0.26300001 5
17.9545 1.2205 0.17 5
17.9555 1.2474999 0.29100001 5
17.9545 1.2135 0.206 5
17.953501 1.2325 0.081 5
17.9545 1.2165 0.18000001 5
17.9545 1.1964999 0.176 5
17.9555 1.2365 0.29699999 5
17.9555 1.1515 0.26899999 5
17.9545 1.2165 0.197 5
17.9545 1.2625 0.20999999 5
17.9545 1.2135 0.16599999 5
17.9545 1.1775 0.182 5
17.9555 1.2525001 0.31200001 5
17.953501 1.2355 0.061999999 5
17.9545 1.2215 0.117 5
17.9545 1.2675 0.198 5
17.9545 1.2395 0.093999997 5
17.9555 1.1335 0.322 5
17.9545 1.1995 0.22499999 5
17.9545 1.2495 0.219 5
17.9545 1.2194999 0.178 5
17.9555 1.1365 0.34299999 5
17.9545 1.2155 0.153 5
17.9545 1.2194999 0.142 5
17.9545 1.1905 0.178 5
17.9545 1.2215 0.189 5
17.953501 1.2424999 0.079000004 5
17.9555 1.1675 0.27700001 5
17.9545 1.2115 0.192 5
17.9545 1.2525001 0.177 5
17.9555 1.1665 0.292 5
17.9555 1.1914999 0.26300001 5
17.9545 1.2825 0.257 5
17.9545 1.2085 0.113 5
17.9555 1.1745 0.31999999 5
17.9545 1.2025 0.125 5
17.9545 1.2285 0.112 5
17.9555 1.1565 0.324 5
17.9545 1.2595 0.15899999 5
17.9545 1.2505 0.111 5
17.9555 1.1964999 0.234 5
17.9545 1.2265 0.182 5
17.9555 1.1895 0.33399999 5
17.9555 1.1865 0.24600001 5
17.9555 1.2025 0.315 5
17.9555 1.2645 0.26899999 5
17.9555 1.2155 0.30700001 5
17.953501 1.2265 0.037 5
17.9555 1.1875 0.27399999 5
17.9555 1.2015001 0.25400001 5
17.9555 1.1935 0.33899999 5
17.9555 1.2695 0.29699999 5
17.9555 1.1675 0.294 5
17.9545 1.2265 0.14300001 5
17.9555 1.2185 0.28 5
17.9545 1.2295001 0.207 5
17.9555 1.2665 0.29100001 5
17.9555 1.1785001 0.242 5
17.9545 1.2365 0.223 5
17.9555 1.2845 0.28299999 5
17.9555 1.1935 0.26199999 5
17.9555 1.2085 0.249 5
17.9555 1.2565 0.26899999 5
17.9545 1.2445 0.186 5
17.9555 1.2165 0.31799999 5
17.9555 1.2695 0.26899999 5
17.9545 1.1775 0.18000001 5
17.9555 1.1645 0.27399999 5
17.9555 1.2085 0.25799999 5
17.9555 1.1985 0.271 5
17.9545 1.2025 0.15700001 5
17.9545 1.2115 0.133 5
17.9555 1.1755 0.32699999 5
17.9545 1.1845 0.198 5
17.9555 1.1415 0.303 5
17.9555 1.2845 0.26300001 5
17.9555 1.2575001 0.25400001 5
17.9545 1.1865 0.156 5
17.9545 1.2375 0.121 5
17.9555 1.1675 0.34799999 5
17.9555 1.1475 0.31600001 5
17.953501 1.2315 0.046999998 5
17.9545 1.2075 0.18799999 5
17.9555 1.2255 0.289 5
17.9545 1.1885 0.20999999 5
17.9545 1.2285 0.103 5
17.9555 1.2925 0.27399999 5
17.9555 1.1645 0.226 5
17.9555 1.2145 0.241 5
17.9545 1.2125 0.19 5
17.9545 1.1964999 0.19499999 5
17.9545 1.2495 0.22 5
17.9555 1.1835001 0.25099999 5
17.9545 1.2615 0.21799999 5
17.9555 1.2015001 0.24600001 5
17.9545 1.2225 0.14399999 5
17.9555 1.1645 0.30899999 5
17.9555 1.2595 0.27700001 5
17.9545 1.1785001 0.19400001 5
17.9555 1.2285 0.249 5
17.9555 1.2375 0.30500001 5
17.9555 1.1755 0.241 5
17.9555 1.1665 0.23999999 5
17.9555 1.1945 0.308 5
17.9555 1.2105 0.27000001 5
17.9545 1.2385 0.098999999 5
17.9545 1.2355 0.121 5
17.9545 1.2465 0.234 5
17.9545 1.2215 0.189 5
17.9555 1.2455 0.31600001 5
17.953501 1.2415 0.075000003 5
17.9545 1.2325 0.119 5
17.9555 1.2855 0.289 5
17.9555 1.2244999 0.278 5
17.9545 1.2275 0.097000003 5
17.9545 1.2625 0.241 5
17.9555 1.1925 0.31600001 5
17.9555 1.1375 0.31999999 5
17.9555 1.2185 0.236 5
17.9555 1.2555 0.28200001 5
17.9555 1.1585 0.31 5
17.9555 1.2765 0.294 5
17.9545 1.1725 0.208 5
17.9555 1.2645 0.26300001 5
17.9555 1.2745 0.28200001 5
17.9545 1.1955 0.13 5
17.9555 1.2605 0.303 5
17.9555 1.2205 0.32100001 5
17.9545 1.2465 0.121 5
17.9545 1.2555 0.154 5
17.9555 1.2155 0.23999999 5
17.9555 1.1975 0.294 5
17.9555 1.1684999 0.285 5
17.9555 1.2065001 0.241 5
17.9545 1.2535 0.229 5
17.9545 1.2474999 0.101 5
17.9555 1.1515 0.324 5
17.9545 1.2125 0.18000001 5
17.9555 1.1825 0.31299999 5
17.9545 1.2805001 0.237 5
17.9545 1.2535 0.244 5
17.9555 1.2975 0.285 5
17.9555 1.1535 0.347 5
17.9555 1.2845 0.26499999 5
17.9545 1.2485 0.243 5
17.9555 1.1454999 0.28799999 5
17.9545 1.2595 0.16599999 5
17.9555 1.2685 0.26800001 5
17.9555 1.1695 0.294 5
17.9555 1.1995 0.264 5
17.9555 1.2845 0.264 5
17.9545 1.2575001 0.185 5
17.9555 1.2865 0.28799999 5
17.9545 1.2275 0.093999997 5
17.9555 1.2835 0.287 5
17.9555 1.1995 0.32300001 5
17.9555 1.1765 0.28400001 5
17.9555 1.1845 0.26300001 5
17.9545 1.2215 0.115 5
17.9545 1.1975 0.212 5
17.9545 1.2785 0.221 5
17.953501 1.2415 0.086000003 5
17.9545 1.2585 0.245 5
17.9555 1.1785001 0.28200001 5
17.9545 1.2415 0.20900001 5
17.9555 1.2165 0.255 5
17.9555 1.1655 0.25400001 5
17.9555 1.2315 0.27900001 5
17.9555 1.2075 0.266 5
17.9555 1.2155 0.26899999 5
17.9545 1.2125 0.219 5
17.9555 1.2265 0.30000001 5
17.9545 1.2215 0.228 5
17.953501 1.2375 0.071000002 5
17.9545 1.2515 0.117 5
17.9545 1.2244999 0.197 5
17.9545 1.2194999 0.193 5
17.9545 1.2675 0.18099999 5
17.9545 1.2185 0.213 5
17.9545 1.2175 0.184 5
17.9555 1.2015001 0.228 5
17.9555 1.1805 0.303 5
17.9545 1.2015001 0.145 5
17.9555 1.1835001 0.34299999 5
17.9545 1.2505 0.164 5
17.9545 1.2455 0.169 5
17.9555 1.2175 0.29300001 5
17.9555 1.2325 0.257 5
17.9545 1.2625 0.237 5
17.9545 1.2645 0.252 5
17.9555 1.1375 0.30700001 5
17.9555 1.1665 0.34200001 5
17.9545 1.2315 0.23 5
17.9555 1.2105 0.27700001 5
17.9555 1.1575 0.25099999 5
17.9555 1.2934999 0.289 5
17.9555 1.2375 0.28799999 5
17.9555 1.2505 0.278 5
17.9555 1.2405 0.27900001 5
17.9555 1.2405 0.25799999 5
17.9555 1.1845 0.30199999 5
17.9555 1.1625 0.24699999 5
17.9545 1.2395 0.116 5
17.9555 1.1925 0.25400001 5
17.9545 1.2315 0.107 5
17.9545 1.2105 0.18099999 5
17.9545 1.2095 0.104 5
17.9555 1.2035 0.235 5
17.9555 1.2175 0.30000001 5
17.9555 1.1585 0.25799999 5
17.9555 1.1485 0.31900001 5
17.9545 1.2355 0.111 5
17.9545 1.2355 0.11 5
17.9555 1.2194999 0.27700001 5
17.9545 1.2255 0.115 5
17.9545 1.2065001 0.134 5
17.9545 1.2555 0.16 5
17.9555 1.2135 0.322 5
17.9545 1.2865 0.248 5
17.9545 1.2685 0.234 5
17.9555 1.1675 0.28799999 5
17.9545 1.2395 0.20999999 5
17.9555 1.1684999 0.27399999 5
17.9555 1.2065001 0.31 5
17.9555 1.1545 0.336 5
17.9545 1.2255 0.212 5
17.9545 1.2155 0.205 5
17.9545 1.2235 0.23199999 5
17.9555 1.1445 0.33899999 5
17.9545 1.2005 0.161 5
17.9555 1.1385 0.34400001 5
17.9545 1.2055 0.101 5
17.953501 1.2335 0.056000002 5
17.9545 1.2725 0.207 5
17.9555 1.1964999 0.27000001 5
17.9545 1.2465 0.098999999 5
17.9555 1.1305 0.32800001 5
17.9555 1.2555 0.30399999 5
17.9555 1.1955 0.23999999 5
17.9555 1.1605 0.257 5
17.9555 1.1865 0.32300001 5
17.953501 1.2255 0.048999999 5
17.9555 1.1635 0.29899999 5
17.9555 1.2015001 0.32499999 5
17.9555 1.2015001 0.33399999 5
17.9545 1.2435 0.241 5
17.9545 1.2005 0.17200001 5
17.9545 1.2165 0.11 5
17.9555 1.2405 0.317 5
17.9545 1.2265 0.102 5
17.9545 1.2255 0.142 5
17.9545 1.2675 0.25299999 5
17.9555 1.2095 0.266 5
17.9545 1.2335 0.12 5
17.9555 1.1555001 0.292 5
17.953501 1.2285 0.030999999 5
17.953501 1.2325 0.068999998 5
17.9545 1.2415 0.237 5
17.9555 1.1625 0.24699999 5
17.953501 1.2325 0.050000001 5
17.9555 1.1935 0.24600001 5
17.9555 1.1475 0.33500001 5
17.9555 1.2055 0.32499999 5
17.9555 1.2035 0.25099999 5
17.9555 1.1595 0.324 5
17.9555 1.2715 0.28299999 5
17.9545 1.2365 0.12899999 5
17.9555 1.2795 0.26499999 5
17.9555 1.1525 0.30199999 5
17.953501 1.2295001 0.041000001 5
17.9555 1.1855 0.30399999 5
17.9555 1.1695 0.255 5
17.9555 1.2095 0.29499999 5
17.9555 1.1505001 0.336 5
17.9585 1.2825 0.16 5
17.966499 1.2895 0.054000001 5
17.956499 1.2485 0.064999998 5
17.960501 1.2865 0.147 5
17.9555 1.2495 0.071000002 5
17.9545 1.2405 0.064000003 5
17.956499 1.2984999 0.25600001 5
17.9555 1.2415 0.055 5
17.956499 1.2435 0.037 5
17.959499 1.2865 0.164 5
17.9545 1.2474999 0.092 5
17.963499 1.2945 0.122 5
17.9545 1.2424999 0.075999998 5
17.9615 1.3015 0.197 5
17.970501 1.3075 0.061999999 5
17.9575 1.2525001 0.055 5
17.959499 1.2955 0.198 5
17.956499 1.2745 0.171 5
17.9655 1.2925 0.085000001 5
17.966499 1.3105 0.147 5
17.959499 1.3015 0.221 5
17.9695 1.3135 0.104 5
17.9555 1.2365 0.030999999 5
17.970501 1.2984999 0.033 5
17.9685 1.3135 0.119 5
17.9575 1.2665 0.106 5
17.9585 1.2675 0.097000003 5
17.960501 1.2895 0.167 5
17.956499 1.2955 0.257 5
17.9645 1.2855 0.075000003 5
17.9555 1.2895 0.234 5
17.9585 1.2934999 0.211 5
17.9545 1.2845 0.23100001 5
17.960501 1.2835 0.127 5
17.9615 1.2704999 0.061000001 5
17.967501 1.3115 0.124 5
17.9555 1.2605 0.121 5
17.956499 1.2535 0.079999998 5
17.973499 1.3105 0.033 5
17.970501 1.3005 0.041999999 5
17.970501 1.3105 0.085000001 5
17.9625 1.2875 0.114 5
17.960501 1.3015 0.211 5
17.966499 1.2905 0.063000001 5
17.9545 1.2725 0.18799999 5
17.9545 1.2345001 0.030999999 5
17.9585 1.2485 0.030999999 5
17.9695 1.3035001 0.057 5
17.9615 1.2654999 0.044 5
17.960501 1.2765 0.097999997 5
17.956499 1.2535 0.086999997 5
17.967501 1.2865 0.029999999 5
17.9685 1.3085001 0.097000003 5
17.9555 1.2625 0.124 5
17.956499 1.2875 0.22499999 5
17.9545 1.2555 0.118 5
17.967501 1.2895 0.035999998 5
17.960501 1.2715 0.082000002 5
17.959499 1.3035001 0.227 5
17.960501 1.2885 0.156 5
17.963499 1.2925 0.127 5
17.956499 1.2865 0.205 5
17.959499 1.2525001 0.034000002 5
17.9545 1.2805001 0.212 5
17.960501 1.3025 0.212 5
17.956499 1.2645 0.123 5
17.9575 1.2855 0.19499999 5
17.9555 1.2755001 0.192 5
17.967501 1.3025 0.098999999 5
17.9555 1.2775 0.189 5
17.9555 1.2455 0.061000001 5
17.963499 1.2775 0.064999998 5
17.959499 1.2625 0.067000002 5
17.9585 1.2665 0.098999999 5
17.963499 1.3085001 0.184 5
17.9615 1.2635 0.032000002 5
17.959499 1.3025 0.229 5
17.9645 1.2934999 0.103 5
17.9615 1.3005 0.19400001 5
17.9555 1.2445 0.054000001 5
17.956499 1.2925 0.237 5
17.9615 1.2615 0.028999999 5
17.963499 1.2925 0.112 5
17.9575 1.2565 0.072999999 5
17.9585 1.2685 0.109 5
17.956499 1.2925 0.229 5
17.959499 1.2565 0.039999999 5
17.9555 1.2835 0.21699999 5
17.970501 1.3105 0.079999998 5
17.966499 1.3035001 0.113 5
17.960501 1.2855 0.14 5
17.959499 1.2995 0.21799999 5
17.959499 1.2625 0.072999999 5
17.9575 1.3025 0.26300001 5
17.9645 1.2955 0.124 5
17.9715 1.3095 0.061000001 5
17.9585 1.2625 0.081 5
17.967501 1.3005 0.086999997 5
17.9655 1.3085001 0.15700001 5
17.966499 1.2995 0.1 5
17.963499 1.2855 0.093000002 5
17.956499 1.2424999 0.037999999 5
17.956499 1.2485 0.066 5
17.9575 1.2795 0.16599999 5
17.9725 1.3145 0.056000002 5
17.960501 1.2815 0.126 5
17.9645 1.2765 0.035 5
17.9555 1.2925 0.25400001 5
17.967501 1.3025 0.102 5
17.9555 1.2725 0.169 5
17.9695 1.2975 0.045000002 5
17.963499 1.3015 0.16 5
17.9655 1.2805001 0.030999999 5
17.9615 1.2825 0.108 5
17.9585 1.2704999 0.12 5
17.9585 1.2515 0.045000002 5
17.959499 1.2765 0.118 5
17.9545 1.2715 0.18099999 5
17.9625 1.3005 0.163 5
17.9555 1.2455 0.061000001 5
17.9575 1.2685 0.12899999 5
17.967501 1.2905 0.046999998 5
17.967501 1.3015 0.093000002 5
17.9655 1.3015 0.12899999 5
17.9545 1.2445 0.068999998 5
17.960501 1.2805001 0.119 5
17.9695 1.3075 0.085000001 5
17.9645 1.2855 0.071999997 5
17.977501 0.8175 0.421 5
17.974501 0.82349998 0.41800001 5
18.0075 0.8265 0.456 5
17.9935 0.8265 0.44 5
18.0005 0.81849998 0.449 5
18.0005 0.82950002 0.44800001 5
17.9755 0.8405 0.41800001 5
17.981501 0.82849997 0.426 5
17.988501 0.82550001 0.43399999 5
17.987499 0.83249998 0.433 5
17.9755 0.8355 0.41800001 5
17.981501 0.82749999 0.42500001 5
18.026501 0.81950003 0.479 5
18.0285 0.8175 0.616 5
18.025499 0.8175 0.51599997 5
18.0285 0.81849998 0.58200002 5
18.0275 0.81950003 0.54500002 5
18.0275 0.81849998 0.57499999 5
17.9545 1.1105 0.034000002 5
17.946501 1.1095001 0.045000002 5
17.956499 1.1105 0.075999998 5
17.9485 1.1105 0.07 5
17.956499 1.1105 0.075000003 5
17.949499 1.1105 0.068000004 5
17.9555 1.1105 0.064000003 5
17.9575 1.1105 0.048 5
17.9515 1.1105 0.045000002 5
17.953501 1.1105 0.071000002 5
17.9515 1.1095001 0.039000001 5
17.953501 1.1105 0.037999999 5
17.9485 1.1095001 0.046999998 5
17.949499 1.1105 0.055 5
17.9575 1.1105 0.064000003 5
19.5375 1.2035 0.662 5
19.539499 1.1995 0.667 5
19.532499 1.2105 0.65100002 5
19.5375 1.2325 0.66600001 5
19.5355 1.1975 0.65499997 5
19.5355 1.2285 0.65899998 5
19.539499 1.1995 0.66799998 5
19.539499 1.2105 0.66799998 5
19.536501 1.2424999 0.66399997 5
19.540501 1.2835 0.64999998 5
19.5345 1.2455 0.64899999 5
19.5315 1.2405 0.59500003 5
19.5315 1.2255 0.64200002 5
19.536501 1.2665 0.63700002 5
19.5345 1.2605 0.60000002 5
19.5305 1.2244999 0.61000001 5
19.539499 1.2825 0.64200002 5
19.5315 1.2325 0.61199999 5
19.532499 1.2515 0.59600002 5
19.5375 1.2765 0.62400001 5
19.5305 1.2345001 0.59600002 5
19.540501 1.2845 0.662 5
19.5315 1.2355 0.61299998 5
19.5305 1.2424999 0.58600003 5
19.5375 1.2675 0.639 5
19.532499 1.2415 0.61500001 5
19.5315 1.2485 0.57599998 5
19.533501 1.2315 0.653 5
19.5355 1.2555 0.63200003 5
19.5355 1.2645 0.62099999 5
19.532499 1.2445 0.611 5
19.536501 1.2675 0.62199998 5
19.533501 1.2565 0.60699999 5
19.5345 1.2625 0.60299999 5
19.532499 1.2415 0.60900003 5
19.5315 1.2185 0.64499998 5
19.5305 1.2305 0.59899998 5
19.539499 1.2765 0.65499997 5
19.5315 1.2485 0.58999997 5
19.5375 1.2695 0.63599998 5
19.5385 1.2765 0.63599998 5
19.539499 1.2795 0.64999998 5
19.5345 1.2645 0.59600002 5
19.5345 1.2645 0.59500003 5
19.533501 1.2595 0.58999997 5
19.539499 1.2815 0.64200002 5
19.5315 1.2515 0.57300001 5
19.536501 1.2625 0.64600003 5
19.540501 1.2915 0.65100002 5
19.5355 1.2665 0.61500001 5
19.5305 1.2465 0.56900001 5
19.5375 1.2605 0.65399998 5
19.539499 1.2815 0.63999999 5
19.532499 1.2515 0.59600002 5
19.5385 1.2645 0.662 5
19.5345 1.2445 0.64899999 5
19.533501 1.2465 0.616 5
19.532499 1.2435 0.60699999 5
19.539499 1.2805001 0.64700001 5
19.5315 1.2355 0.61400002 5
19.540501 1.2795 0.66299999 5
19.533501 1.2735 0.56999999 5
19.5355 1.2725 0.59299999 5
19.5345 1.2875 0.55900002 5
19.5385 1.2965 0.61000001 5
19.5355 1.2825 0.58700001 5
19.5305 1.2775 0.52499998 5
19.536501 1.2965 0.57800001 5
19.533501 1.2775 0.56 5
19.5355 1.3175 0.53200001 5
19.5315 1.2745 0.54000002 5
19.5375 1.2945 0.59100002 5
19.539499 1.3175 0.58899999 5
19.536501 1.3045 0.56400001 5
19.5355 1.2915 0.57300001 5
19.5355 1.2885 0.574 5
19.533501 1.3015 0.52600002 5
19.539499 1.2945 0.63099998 5
19.539499 1.2965 0.616 5
19.5305 1.2615 0.54900002 5
19.533501 1.3065 0.523 5
19.532499 1.2585 0.574 5
19.5375 1.3125 0.57200003 5
19.5415 1.3075 0.62800002 5
19.536501 1.2885 0.58200002 5
19.5355 1.3185 0.53600001 5
19.529499 1.2474999 0.551 5
19.540501 1.3055 0.61699998 5
19.532499 1.2715 0.55900002 5
19.5305 1.2765 0.52499998 5
19.533501 1.2885 0.54299998 5
19.5355 1.3175 0.53200001 5
19.5375 1.3055 0.58499998 5
19.532499 1.2915 0.52200001 5
19.539499 1.3085001 0.60399997 5
19.540501 1.3195 0.602 5
19.536501 1.2835 0.59600002 5
19.532499 1.2685 0.56099999 5
19.5375 1.2825 0.60799998 5
19.5345 1.2845 0.57200003 5
19.5355 1.2945 0.56800002 5
19.5385 1.2885 0.61699998 5
19.5345 1.3085001 0.528 5
19.533501 1.3015 0.52200001 5
19.539499 1.3085001 0.60399997 5
19.533501 1.2945 0.53399998 5
19.5425 1.3155 0.634 5
19.5345 1.3125 0.52600002 5
19.540501 1.3175 0.61000001 5
19.536501 1.3125 0.55599999 5
19.5315 1.2795 0.52999997 5
19.5425 1.3025 0.65200001 5
19.532499 1.3155 0.49599999 5
19.5345 1.3225 0.50700003 5
19.5375 1.2945 0.59500003 5
19.5385 1.3164999 0.57300001 5
19.5355 1.2825 0.58999997 5
19.539499 1.2905 0.62800002 5
19.5415 1.2945 0.64700001 5
19.536501 1.3005 0.57800001 5
19.533501 1.3055 0.51800001 5
19.5315 1.2765 0.52899998 5
19.5315 1.2745 0.53200001 5
19.5375 1.3185 0.56300002 5
19.539499 1.2995 0.62400001 5
19.5355 1.3145 0.52999997 5
19.532499 1.2895 0.52399999 5
19.5305 1.2625 0.54799998 5
19.536501 1.3155 0.55299997 5
19.536501 1.2965 0.57099998 5
19.5425 1.3105 0.63700002 5
19.539499 1.3195 0.58399999 5
19.5355 1.2875 0.58099997 5
19.5315 1.2565 0.55900002 5
19.5355 1.3025 0.55299997 5
19.5345 1.2675 0.588 5
19.539499 1.2895 0.63 5
19.5385 1.2855 0.62199998 5
19.532499 1.2885 0.53100002 5
19.526501 1.3045 0.49700001 5
19.518499 1.2585 0.52600002 5
19.5245 1.3095 0.491 5
19.5235 1.2704999 0.52200001 5
19.511499 1.2715 0.50700003 5
19.5205 1.3135 0.48300001 5
19.5205 1.3145 0.48199999 5
19.5245 1.3185 0.48300001 5
19.505501 1.2984999 0.479 5
19.5205 1.3135 0.48300001 5
19.491501 1.2995 0.463 5
19.501499 1.3035001 0.47 5
19.5305 1.2975 0.50700003 5
19.512501 1.2855 0.49700001 5
19.5205 1.2765 0.514 5
19.501499 1.3005 0.47400001 5
19.504499 1.2965 0.479 5
19.5205 1.2915 0.50099999 5
