# .PCD v0.7 - Point Cloud Data file format
VERSION 0.7
FIELDS x y z label
SIZE 4 4 4 4
TYPE F F F U
COUNT 1 1 1 1
WIDTH 1713
HEIGHT 1
VIEWPOINT 0 0 0 1 0 0 0
POINTS 1713
DATA ascii
15.9325 3.7585001 2.3069999 9
15.9685 3.7455001 2.3410001 9
16.009501 3.7444999 2.345 9
15.9135 3.7595 2.303 9
15.9515 3.7444999 2.3429999 9
15.9885 3.7514999 2.3269999 9
15.9675 3.7465 2.339 9
16.0525 3.7514999 2.329 9
16.161501 3.7614999 2.309 9
16.047501 3.7405 2.358 9
15.9935 3.7574999 2.313 9
16.011499 3.7414999 2.3529999 9
15.9025 3.7535 2.319 9
15.9605 3.7465 2.339 9
15.9595 3.7455001 2.3410001 9
15.9825 3.7455001 2.3410001 9
16.1255 3.7565 2.3210001 9
15.8835 3.7595 2.3010001 9
16.064501 3.7605 2.3069999 9
16.0035 3.7395 2.3570001 9
16.1415 3.7635 2.3050001 9
16.015499 3.7535 2.322 9
15.9935 3.7425001 2.349 9
15.9205 3.7544999 2.3169999 9
16.039499 3.7525001 2.3269999 9
15.9575 3.7585001 2.3080001 9
16.112499 3.7525001 2.3299999 9
16.0275 3.7375 2.365 9
16.0725 3.7505 2.3329999 9
16.0425 3.7605 2.3080001 9
15.9475 3.7505 2.3280001 9
15.9815 3.7565 2.3150001 9
16.067499 3.7465 2.3429999 9
15.9675 3.7495 2.3310001 9
16.040501 3.7555001 2.3210001 9
16.0895 3.7485001 2.339 9
16.105499 3.5014999 2.3069999 9
15.9545 3.5035 2.309 9
16.193501 3.5105 2.3329999 9
15.8945 3.4995 2.296 9
16.085501 3.5055001 2.316 9
16.136499 3.5135 2.3399999 9
16.359501 3.4995 2.3039999 9
16.1595 3.4995 2.3010001 9
16.1905 3.5085001 2.326 9
16.202499 3.5035 2.3139999 9
15.9725 3.5005 2.3010001 9
15.9035 3.4995 2.2980001 9
16.0895 3.5055001 2.3180001 9
16.026501 3.5095 2.3269999 9
16.1705 3.5085001 2.3269999 9
16.1085 3.5074999 2.323 9
16.206499 3.5095 2.3299999 9
16.3165 3.5025001 2.313 9
16.0165 3.5155001 2.345 9
16.286501 3.4985001 2.3010001 9
15.9585 3.5055001 2.3150001 9
16.202499 3.5055001 2.3180001 9
16.168501 3.5105 2.332 9
16.1045 3.5165 2.3469999 9
16.053499 3.5125 2.336 9
16.001499 3.5135 2.339 9
16.057501 3.5025001 2.309 9
16.2285 3.5074999 2.326 9
16.040501 3.4985001 2.2969999 9
16.254499 3.4995 2.303 9
16.165501 3.5095 2.3299999 9
16.119499 3.5144999 2.3440001 9
16.342501 3.5005 2.306 9
16.1875 3.5105 2.332 9
16.0655 3.5065 2.3199999 9
16.068501 3.5044999 2.3139999 9
16.0415 3.5105 2.3299999 9
16.022499 3.5155001 2.3440001 9
16.1635 3.5014999 2.306 9
16.237499 3.5014999 2.3080001 9
16.137501 3.5105 2.3329999 9
16.206499 3.5025001 2.309 9
16.033501 3.5014999 2.303 9
16.1805 3.5105 2.3329999 9
16.0555 3.5165 2.3469999 9
16.2145 3.5074999 2.3239999 9
16.1005 3.5055001 2.316 9
16.088499 3.5144999 2.3410001 9
16.0205 3.4995 2.2980001 9
16.0445 3.5125 2.335 9
16.1695 3.5065 2.3199999 9
16.1395 3.5074999 2.322 9
16.1145 3.5055001 2.3169999 9
16.0695 3.4995 2.299 9
16.2705 3.5044999 2.3169999 9
16.1555 3.5005 2.303 9
16.056499 3.5105 2.3310001 9
16.098499 3.5005 2.3039999 9
16.1115 3.5044999 2.3150001 9
16.068501 3.5125 2.335 9
16.0315 3.5185001 2.3510001 9
16.1915 3.5065 2.3199999 9
16.1075 3.5025001 2.309 9
16.2255 3.5065 2.322 9
16.144501 3.5085001 2.326 9
16.1845 3.5085001 2.3269999 9
16.2735 3.5044999 2.3169999 9
16.0205 3.5025001 2.309 9
16.1805 3.5025001 2.3110001 9
16.2425 3.5005 2.306 9
16.004499 3.5135 2.339 9
16.0945 3.5014999 2.3050001 9
16.164499 3.5044999 2.316 9
15.9835 3.5044999 2.3139999 9
16.1005 3.5095 2.3280001 9
16.387501 3.4985001 2.303 9
16.2325 3.5074999 2.326 9
16.056499 3.4995 2.3 9
16.061501 3.5005 2.303 9
16.0555 3.5044999 2.312 9
16.054501 3.5014999 2.3050001 9
16.224501 3.5055001 2.319 9
16.1845 3.5044999 2.3169999 9
15.9835 3.5025001 2.306 9
15.9725 3.5055001 2.316 9
16.172501 3.5035 2.312 9
15.9755 3.5035 2.309 9
16.026501 3.5044999 2.312 9
15.9195 3.5005 2.299 9
16.018499 3.5135 2.339 9
16.019501 3.5074999 2.3210001 9
16.0695 3.5105 2.3310001 9
16.1555 3.5105 2.332 9
16.0075 3.4995 2.2980001 9
16.1085 3.5065 2.3199999 9
16.116501 3.5144999 2.3429999 9
16.112499 3.5135 2.339 9
16.1635 3.5105 2.3310001 9
15.9745 3.5005 2.3 9
15.9845 3.5035 2.3110001 9
16.203501 3.5014999 2.3069999 9
16.106501 3.5144999 2.3410001 9
16.165501 3.5005 2.3050001 9
16.0695 3.4995 2.2980001 9
16.0005 3.5114999 2.332 9
16.2635 3.5025001 2.3099999 9
15.9015 3.4995 2.2969999 9
16.1845 3.5074999 2.3239999 9
16.195499 3.4995 2.3010001 9
16.011499 3.5144999 2.3399999 9
16.3155 3.4995 2.3039999 9
16.1525 3.5014999 2.3069999 9
15.9615 3.5005 2.302 9
15.9605 3.5065 2.3180001 9
16.0065 3.5155001 2.342 9
16.116501 3.5144999 2.342 9
16.061501 3.5055001 2.3169999 9
16.053499 3.5035 2.3110001 9
16.2255 3.4985001 2.3 9
16.1595 3.5005 2.3050001 9
16.1215 3.5085001 2.3269999 9
16.227501 3.5044999 2.3169999 9
16.3025 3.5005 2.3069999 9
15.9235 3.5005 2.3 9
16.029499 3.4995 2.2980001 9
16.085501 3.5155001 2.346 9
16.0795 3.5135 2.3399999 9
15.9435 3.5065 2.3180001 9
16.0315 3.5035 2.3110001 9
15.9825 3.5074999 2.3210001 9
16.1105 3.4995 2.3010001 9
16.276501 3.5035 2.3139999 9
15.9185 3.5025001 2.306 9
16.2145 3.5035 2.313 9
16.0975 3.5055001 2.3169999 9
16.1215 3.5114999 2.335 9
15.9985 3.5044999 2.313 9
16.188499 3.5085001 2.326 9
16.241501 3.4985001 2.3010001 9
16.064501 3.5065 2.3199999 9
15.9755 3.5055001 2.3150001 9
16.1175 3.5074999 2.3239999 9
16.0975 3.5005 2.3039999 9
16.238501 3.5005 2.306 9
15.9665 3.4995 2.2980001 9
16.165501 3.5055001 2.3180001 9
16.106501 3.5095 2.3269999 9
16.1455 3.5014999 2.306 9
16.209499 3.5074999 2.326 9
16.2185 3.5035 2.3139999 9
16.265499 3.4995 2.3039999 9
16.172501 3.5044999 2.316 9
16.0105 3.5114999 2.332 9
16.085501 3.5014999 2.3050001 9
15.9825 3.5044999 2.313 9
16.054501 3.5195 2.355 9
16.119499 3.5055001 2.3180001 9
16.0495 3.5074999 2.323 9
16.3435 3.5005 2.3069999 9
15.9985 3.5074999 2.322 9
16.043501 3.5044999 2.3139999 9
16.039499 3.5125 2.3340001 9
16.2425 3.5044999 2.316 9
16.193501 3.7585001 2.3169999 9
16.067499 3.7375 2.3640001 9
16.134501 3.7444999 2.3499999 9
16.0695 3.7375 2.3640001 9
16.1465 3.7525001 2.332 9
16.0625 3.7395 2.3599999 9
16.1675 3.7474999 2.342 9
16.161501 3.7435 2.352 9
16.185499 3.7365 2.368 9
16.1385 3.7495 2.3380001 9
16.0585 3.7405 2.358 9
16.165501 3.7535 2.3299999 9
16.136499 3.7385001 2.3629999 9
16.095501 3.7425001 2.352 9
16.2015 3.7595 2.3169999 9
16.136499 3.7444999 2.3499999 9
16.0765 3.7425001 2.3529999 9
16.1565 3.7375 2.365 9
16.0865 3.7355001 2.369 9
16.178499 3.7565 2.323 9
16.186501 3.7355001 2.3699999 9
16.147499 3.7535 2.329 9
16.105499 3.7435 2.3510001 9
16.158501 3.7425001 2.3540001 9
16.186501 3.7344999 2.372 9
16.129499 3.7505 2.336 9
16.154499 3.7474999 2.342 9
16.120501 3.7435 2.3510001 9
16.178499 3.7395 2.362 9
16.1145 3.7355001 2.369 9
16.181499 3.7455001 2.349 9
16.088499 3.7405 2.3570001 9
16.1875 3.7365 2.369 9
16.074499 3.7385001 2.362 9
16.098499 3.7405 2.359 9
16.095501 3.7395 2.3610001 9
16.0895 3.7444999 2.349 9
16.185499 3.7435 2.352 9
16.1985 3.7535 2.329 9
16.171499 3.7544999 2.326 9
16.192499 3.7514999 2.3340001 9
16.158501 3.7405 2.358 9
16.0975 3.7385001 2.362 9
16.0895 3.7435 2.3510001 9
16.1415 3.7344999 2.3710001 9
16.1565 3.7355001 2.3699999 9
16.0975 3.7465 2.3440001 9
16.1035 3.7355001 2.3699999 9
16.189501 3.7414999 2.358 9
16.192499 3.7365 2.368 9
16.1085 3.7385001 2.3629999 9
16.1985 3.7444999 2.3510001 9
16.182501 3.7535 2.329 9
16.127501 3.7465 2.3440001 9
16.172501 3.7455001 2.348 9
16.1905 3.7465 2.3440001 9
16.196501 3.7514999 2.3329999 9
16.060499 3.7395 2.3599999 9
16.202499 3.7385001 2.3640001 9
16.1495 3.7355001 2.369 9
16.1555 3.7455001 2.348 9
16.1915 3.7585001 2.319 9
16.1045 3.7405 2.358 9
16.112499 3.7474999 2.342 9
16.165501 3.7414999 2.3570001 9
16.1635 3.7525001 2.3310001 9
16.1255 3.6175001 2.405 9
16.1595 3.5955 2.3900001 9
16.1555 3.5994999 2.3940001 9
16.140499 3.6075001 2.3970001 9
16.1705 3.5834999 2.382 9
16.1425 3.6075001 2.398 9
16.1355 3.6224999 2.4100001 9
16.1395 3.6175001 2.4059999 9
16.1315 3.6064999 2.3959999 9
16.164499 3.5895 2.3859999 9
16.1455 3.6085 2.4000001 9
16.164499 3.6164999 2.4059999 9
16.1705 3.6175001 2.4059999 9
16.1625 3.6205001 2.4089999 9
16.165501 3.5964999 2.392 9
16.171499 3.6224999 2.4089999 9
16.179501 3.6094999 2.3989999 9
16.171499 3.6145 2.404 9
16.1945 3.6135001 2.401 9
16.1735 3.5905001 2.3859999 9
16.1875 3.6145 2.402 9
16.157499 3.6245 2.4119999 9
16.1845 3.6055 2.3959999 9
16.168501 3.5895 2.3859999 9
16.164499 3.5985 2.3929999 9
16.1745 3.5915 2.3870001 9
16.154499 3.6115 2.404 9
16.0735 3.5325 2.3629999 9
16.224501 3.5534999 2.3699999 9
16.1835 3.5425 2.3659999 9
16.203501 3.5604999 2.3729999 9
16.179501 3.5625 2.3740001 9
16.206499 3.5395 2.365 9
16.1595 3.5604999 2.3729999 9
16.2645 3.5574999 2.3710001 9
16.134501 3.5325 2.362 9
16.217501 3.5574999 2.372 9
16.1565 3.5595 2.3729999 9
16.238501 3.5474999 2.368 9
16.179501 3.5455 2.3670001 9
16.1015 3.5495 2.369 9
16.0825 3.5374999 2.3640001 9
16.150499 3.5555 2.3710001 9
16.224501 3.5534999 2.3699999 9
16.3055 3.5534999 2.3699999 9
16.1495 3.5495 2.369 9
16.1035 3.5434999 2.3670001 9
16.115499 3.5304999 2.362 9
16.0725 3.5244999 2.3599999 9
16.196501 3.5395 2.365 9
16.245501 3.5545001 2.3699999 9
16.234501 3.5465 2.3670001 9
16.1985 3.5515001 2.3699999 9
16.1465 3.5485001 2.368 9
16.1805 3.5565 2.3710001 9
16.068501 3.5255001 2.3599999 9
16.252501 3.5445001 2.3659999 9
16.2185 3.5515001 2.369 9
16.289499 3.5525 2.369 9
16.265499 3.5504999 2.368 9
16.203501 3.5425 2.3659999 9
16.127501 3.5374999 2.3640001 9
16.150499 3.5445001 2.3670001 9
16.216499 3.5434999 2.3659999 9
16.1415 3.5395 2.365 9
16.1045 3.5415001 2.3659999 9
16.276501 3.5485001 2.368 9
16.158501 3.5664999 2.375 9
16.182501 3.5385001 2.3640001 9
16.158501 3.5595 2.3729999 9
16.088499 3.5385001 2.365 9
16.157499 3.5365 2.3640001 9
16.2125 3.5595 2.372 9
16.283501 3.5525 2.369 9
16.123501 3.5434999 2.3670001 9
16.085501 3.5404999 2.3659999 9
16.276501 3.5555 2.3699999 9
16.1085 3.5344999 2.3629999 9
16.1285 3.5344999 2.3629999 9
16.1325 3.5474999 2.368 9
16.216499 3.5555 2.3710001 9
16.238501 3.5585001 2.372 9
16.1035 3.5295 2.3610001 9
16.247499 3.5445001 2.3659999 9
16.168501 3.5704999 2.3770001 9
16.2215 3.5664999 2.375 9
16.2395 3.5615001 2.3729999 9
16.2265 3.5634999 2.3740001 9
16.2325 3.5625 2.3729999 9
16.2215 3.5625 2.3740001 9
16.2335 3.5625 2.3729999 9
16.248501 3.5634999 2.3740001 9
16.2365 3.5634999 2.3740001 9
16.2265 3.5704999 2.3759999 9
16.2675 3.5615001 2.3729999 9
16.2785 3.5595 2.372 9
16.286501 3.5574999 2.3710001 9
16.220501 3.5675001 2.375 9
16.286501 3.5685 2.3789999 9
16.2915 3.5604999 2.3729999 9
16.2195 3.5785 2.382 9
16.188499 3.5804999 2.381 9
16.252501 3.5695 2.3770001 9
16.2715 3.5755 2.3840001 9
16.2705 3.5685 2.378 9
16.240499 3.5715001 2.378 9
16.181499 3.5804999 2.3800001 9
16.1985 3.5795 2.381 9
16.2775 3.5695 2.3789999 9
16.2885 3.5615001 2.3740001 9
16.2045 3.5804999 2.382 9
16.231501 3.5855 2.3870001 9
16.258499 3.5815001 2.3870001 9
16.220501 3.5975001 2.3929999 9
16.2185 3.5905001 2.3889999 9
16.223499 3.5955 2.392 9
16.2195 3.6055 2.3970001 9
16.209499 3.6115 2.4000001 9
16.2045 3.5815001 2.3829999 9
16.2265 3.5875001 2.388 9
16.206499 3.6045001 2.3959999 9
16.220501 3.6105001 2.4000001 9
16.195499 3.5955 2.3900001 9
16.185499 3.5864999 2.3840001 9
16.2055 3.6055 2.3959999 9
16.2435 3.5934999 2.392 9
16.2265 3.5975001 2.3929999 9
16.2055 3.5905001 2.388 9
16.258499 3.5834999 2.388 9
16.254499 3.5795 2.385 9
16.2225 3.5895 2.3889999 9
16.1945 3.5985 2.392 9
16.206499 3.5144999 2.3369999 9
16.1605 3.5135 2.3399999 9
16.3325 3.5174999 2.329 9
16.2575 3.5295 2.349 9
16.3715 3.5135 2.3210001 9
16.2675 3.5105 2.326 9
16.189501 3.5155001 2.339 9
16.1525 3.5274999 2.3559999 9
16.349501 3.5105 2.3199999 9
16.3585 3.5204999 2.3299999 9
16.2815 3.5144999 2.3299999 9
16.321501 3.5044999 2.3150001 9
16.3305 3.5105 2.322 9
16.216499 3.5105 2.3310001 9
16.317499 3.5225 2.336 9
16.2155 3.5105 2.3310001 9
16.220501 3.5235 2.345 9
16.2215 3.5385001 2.3629999 9
16.349501 3.5125 2.322 9
16.203501 3.5265 2.3510001 9
16.3645 3.5165 2.325 9
16.3585 3.5185001 2.3280001 9
16.348499 3.5074999 2.316 9
16.2255 3.5335 2.3570001 9
16.3475 3.5144999 2.3239999 9
16.318501 3.5374999 2.3529999 9
16.244499 3.5285001 2.349 9
16.348499 3.5074999 2.316 9
16.255501 3.5365 2.3570001 9
16.220501 3.5335 2.3559999 9
16.2225 3.5325 2.355 9
16.0875 3.5215001 2.355 9
16.3715 3.5185001 2.326 9
16.2845 3.5325 2.3499999 9
16.053499 3.5215001 2.358 9
16.289499 3.5304999 2.3469999 9
16.231501 3.5174999 2.3380001 9
16.2945 3.5114999 2.325 9
16.373501 3.5105 2.3169999 9
16.154499 3.5165 2.3429999 9
16.341499 3.5185001 2.329 9
16.2955 3.5335 2.3499999 9
16.259501 3.5425 2.3629999 9
16.178499 3.5255001 2.352 9
16.369499 3.5125 2.3199999 9
16.223499 3.5125 2.332 9
16.3235 3.5255001 2.339 9
16.098499 3.5185001 2.3510001 9
16.261499 3.5304999 2.3499999 9
16.137501 3.5295 2.3599999 9
16.369499 3.5105 2.3180001 9
16.3855 3.5044999 2.309 9
16.1415 3.5235 2.3529999 9
16.2395 3.5315001 2.3529999 9
16.306499 3.5085001 2.3210001 9
16.387501 3.4995 2.3039999 9
16.268499 3.5385001 2.359 9
16.2395 3.5404999 2.3629999 9
16.1905 3.5235 2.348 9
16.356501 3.5285001 2.339 9
16.1625 3.5165 2.3429999 9
16.2805 3.5474999 2.3670001 9
16.279499 3.5304999 2.348 9
16.2785 3.5225 2.339 9
16.258499 3.5235 2.3429999 9
16.193501 3.5174999 2.3410001 9
16.265499 3.5425 2.3629999 9
16.317499 3.5155001 2.3280001 9
16.2285 3.5155001 2.336 9
16.2715 3.5185001 2.336 9
16.300501 3.5404999 2.358 9
16.379499 3.5074999 2.3139999 9
16.2675 3.5074999 2.3239999 9
16.306499 3.5174999 2.332 9
16.2425 3.5125 2.3310001 9
16.2705 3.5065 2.322 9
16.0965 3.5225 2.355 9
16.2785 3.5434999 2.3629999 9
16.2435 3.5415001 2.3640001 9
16.2675 3.5225 2.3399999 9
16.2155 3.5125 2.3329999 9
16.213499 3.5165 2.3380001 9
16.2285 3.5295 2.352 9
16.2465 3.5135 2.332 9
16.206499 3.5335 2.358 9
16.328501 3.5255001 2.3380001 9
16.3365 3.5165 2.3280001 9
16.2085 3.5365 2.3610001 9
16.306499 3.5335 2.349 9
16.1905 3.5225 2.3469999 9
16.2075 3.5144999 2.3369999 9
16.338499 3.5274999 2.339 9
16.3325 3.5365 2.3510001 9
16.102501 3.5225 2.355 9
16.186501 3.5295 2.355 9
16.258499 3.5215001 2.3399999 9
16.247499 3.5274999 2.348 9
16.3575 3.5274999 2.3380001 9
16.2495 3.5344999 2.355 9
16.348499 3.5055001 2.3139999 9
16.2785 3.5295 2.3469999 9
16.2745 3.5235 2.3410001 9
16.144501 3.5155001 2.3429999 9
16.258499 3.5265 2.346 9
16.265499 3.5105 2.3269999 9
16.2435 3.5074999 2.326 9
16.1915 3.5195 2.3429999 9
16.2535 3.5114999 2.329 9
16.2705 3.5404999 2.3610001 9
16.134501 3.5165 2.345 9
16.268499 3.5215001 2.339 9
16.3515 3.5225 2.3329999 9
16.297501 3.5434999 2.362 9
16.268499 3.5304999 2.349 9
16.2045 3.5135 2.336 9
16.2985 3.5495 2.368 9
16.2225 3.5325 2.3559999 9
16.241501 3.5204999 2.3399999 9
16.1805 3.5195 2.345 9
16.137501 3.5255001 2.355 9
16.2805 3.5465 2.3659999 9
16.2995 3.5215001 2.336 9
16.2355 3.5165 2.3369999 9
16.2925 3.5044999 2.3180001 9
16.363501 3.5155001 2.3239999 9
16.3055 3.5225 2.3369999 9
16.2875 3.5085001 2.322 9
16.1745 3.5195 2.345 9
16.1325 3.5285001 2.358 9
16.320499 3.5385001 2.3540001 9
16.130501 3.5255001 2.355 9
16.0895 3.5255001 2.3599999 9
16.2985 3.5434999 2.3610001 9
16.335501 3.5455 2.3610001 9
16.2955 3.5404999 2.358 9
16.0875 3.5244999 2.358 9
16.3225 3.5604999 2.375 9
16.2775 3.5745001 2.3829999 9
16.297501 3.5664999 2.378 9
16.320499 3.5625 2.3770001 9
16.290501 3.5715001 2.382 9
16.3295 3.7485001 2.3399999 9
16.310499 3.7435 2.3510001 9
16.4825 3.7425001 2.352 9
16.248501 3.7595 2.316 9
16.252501 3.7375 2.3659999 9
16.3745 3.7505 2.3340001 9
16.4755 3.7344999 2.3699999 9
16.3375 3.7444999 2.348 9
16.349501 3.7355001 2.3699999 9
16.3615 3.7495 2.3369999 9
16.2735 3.7435 2.352 9
16.4475 3.7455001 2.3440001 9
16.352501 3.7505 2.335 9
16.4725 3.7425001 2.352 9
16.293501 3.7405 2.359 9
16.352501 3.7425001 2.352 9
16.2265 3.7395 2.362 9
16.2495 3.7555001 2.325 9
16.376499 3.7495 2.3369999 9
16.2815 3.7514999 2.3329999 9
16.3585 3.7444999 2.349 9
16.282499 3.7525001 2.3299999 9
16.2995 3.7505 2.336 9
16.306499 3.7514999 2.3329999 9
16.4655 3.7444999 2.3469999 9
16.2125 3.7535 2.329 9
16.2565 3.7485001 2.3399999 9
16.2295 3.7505 2.336 9
16.296499 3.7414999 2.355 9
16.2185 3.7375 2.365 9
16.5625 3.7355001 2.3659999 9
16.3755 3.7414999 2.355 9
16.2925 3.7344999 2.3710001 9
16.400499 3.7465 2.3429999 9
16.2395 3.7425001 2.355 9
16.2885 3.7414999 2.355 9
16.331499 3.7375 2.3640001 9
16.3165 3.7355001 2.3699999 9
16.498501 3.7405 2.355 9
16.355499 3.7455001 2.345 9
16.345501 3.7385001 2.3629999 9
16.449499 3.7365 2.3659999 9
16.4345 3.7344999 2.3699999 9
16.418501 3.7465 2.342 9
16.2805 3.7365 2.3670001 9
16.307501 3.7435 2.3510001 9
16.518499 3.7375 2.3629999 9
16.3675 3.7414999 2.355 9
16.206499 3.7614999 2.312 9
16.210501 3.7525001 2.332 9
16.356501 3.7365 2.3659999 9
16.467501 3.7355001 2.3670001 9
16.4275 3.7395 2.3599999 9
16.4655 3.7395 2.358 9
16.245501 3.7544999 2.3280001 9
16.4025 3.7385001 2.362 9
16.2735 3.7405 2.358 9
16.532499 3.7375 2.362 9
16.3545 3.7485001 2.3380001 9
16.3505 3.7355001 2.368 9
16.2145 3.7495 2.3399999 9
16.532499 3.7395 2.3570001 9
16.5205 3.7375 2.3610001 9
16.3235 3.7425001 2.3540001 9
16.2645 3.7444999 2.349 9
16.435499 3.7344999 2.3699999 9
16.2885 3.7485001 2.3410001 9
16.512501 3.7405 2.3559999 9
16.230499 3.7414999 2.358 9
16.362499 3.7365 2.3670001 9
16.4035 3.7444999 2.3469999 9
16.2995 3.7535 2.3299999 9
16.394501 3.7375 2.3629999 9
16.4055 3.7355001 2.3670001 9
16.2115 3.7385001 2.365 9
16.400499 3.7435 2.3510001 9
16.223499 3.7544999 2.3269999 9
16.248501 3.7565 2.323 9
16.5905 3.7355001 2.3659999 9
16.3435 3.7444999 2.348 9
16.2565 3.7414999 2.3570001 9
16.377501 3.7495 2.336 9
16.384501 3.7365 2.365 9
16.304501 3.7385001 2.3629999 9
16.3965 3.7465 2.3440001 9
16.400499 3.7385001 2.3610001 9
16.327499 3.7425001 2.3540001 9
16.252501 3.7385001 2.3629999 9
16.4345 3.7444999 2.348 9
16.3155 3.7365 2.368 9
16.494499 3.7395 2.358 9
16.2715 3.7405 2.358 9
16.2225 3.7485001 2.3410001 9
16.497499 3.7395 2.3570001 9
16.3515 3.7525001 2.3310001 9
16.3895 3.7505 2.335 9
16.2985 3.7385001 2.362 9
16.5215 3.7395 2.358 9
16.283501 3.7355001 2.3699999 9
16.452499 3.7385001 2.3599999 9
16.387501 3.7444999 2.3469999 9
16.362499 3.7405 2.3570001 9
16.2465 3.7474999 2.342 9
16.394501 3.7465 2.3429999 9
16.4685 3.7355001 2.368 9
16.237499 3.7385001 2.3640001 9
16.3605 3.7525001 2.3299999 9
16.223499 3.7614999 2.3099999 9
16.5235 3.7355001 2.3659999 9
16.2495 3.7474999 2.342 9
16.320499 3.7525001 2.3310001 9
16.363501 3.7425001 2.352 9
16.268499 3.7425001 2.3540001 9
16.4925 3.7365 2.3640001 9
16.2085 3.7525001 2.332 9
16.3745 3.7435 2.3499999 9
16.2735 3.7574999 2.319 9
16.560499 3.7375 2.3610001 9
16.390499 3.7425001 2.3529999 9
16.4335 3.7435 2.349 9
16.2575 3.7565 2.3210001 9
16.4835 3.7414999 2.3529999 9
16.2505 3.7455001 2.3469999 9
16.4585 3.7405 2.355 9
16.311501 3.7505 2.335 9
16.2225 3.7455001 2.3469999 9
16.2785 3.7385001 2.3640001 9
16.3125 3.7474999 2.3410001 9
16.209499 3.7495 2.3380001 9
16.3055 3.7525001 2.3299999 9
16.3955 3.7365 2.3670001 9
16.2535 3.7355001 2.3710001 9
16.2985 3.7405 2.358 9
16.296499 3.7525001 2.3299999 9
16.376499 3.7495 2.336 9
16.245501 3.7535 2.3299999 9
16.3675 3.7514999 2.3329999 9
16.3155 3.7485001 2.339 9
16.421499 3.7375 2.3640001 9
16.4135 3.7485001 2.339 9
16.2955 3.7485001 2.339 9
16.237499 3.7514999 2.3340001 9
16.429501 3.7375 2.3629999 9
16.220501 3.7414999 2.3559999 9
16.3325 3.7525001 2.3310001 9
16.5515 3.7375 2.362 9
16.237499 3.7525001 2.332 9
16.209499 3.7595 2.316 9
16.369499 3.7375 2.3629999 9
16.2335 3.7514999 2.3329999 9
16.3885 3.7344999 2.3699999 9
16.318501 3.7465 2.345 9
16.429501 3.7644999 2.3039999 9
16.4305 3.7644999 2.306 9
16.4205 3.7555001 2.323 9
16.4195 3.7485001 2.3380001 9
16.561501 3.7565 2.322 9
16.460501 3.7625 2.309 9
16.509501 3.7635 2.3080001 9
16.334499 3.7585001 2.3169999 9
16.217501 3.7635 2.306 9
16.5145 3.7544999 2.326 9
16.3895 3.7635 2.3080001 9
16.5145 3.7595 2.3169999 9
16.456499 3.7614999 2.3110001 9
16.3325 3.7625 2.3099999 9
16.577499 3.7474999 2.3410001 9
16.4715 3.7525001 2.3299999 9
16.4965 3.7465 2.342 9
16.438499 3.7574999 2.3199999 9
16.370501 3.7635 2.3069999 9
16.442499 3.7544999 2.326 9
16.436501 3.7555001 2.3239999 9
16.3155 3.7585001 2.3180001 9
16.504499 3.7614999 2.312 9
16.612499 3.7355001 2.3670001 9
16.4515 3.7635 2.3080001 9
16.432501 3.7635 2.306 9
16.418501 3.7635 2.3069999 9
16.415501 3.7614999 2.3110001 9
16.4545 3.7625 2.3099999 9
16.4645 3.7474999 2.3399999 9
16.408501 3.7505 2.335 9
16.556499 3.7455001 2.345 9
16.5215 3.7485001 2.339 9
16.4785 3.7574999 2.319 9
16.4475 3.7595 2.3150001 9
16.5285 3.7625 2.309 9
16.585501 3.7495 2.3369999 9
16.5865 3.7465 2.3429999 9
16.3465 3.7585001 2.3180001 9
16.5655 3.7435 2.3499999 9
16.5805 3.7405 2.355 9
16.4645 3.7585001 2.3180001 9
16.4375 3.7614999 2.312 9
16.5695 3.7455001 2.346 9
16.3365 3.7625 2.3099999 9
16.320499 3.7555001 2.323 9
16.550501 3.7644999 2.306 9
16.474501 3.7565 2.3210001 9
16.560499 3.7574999 2.3210001 9
16.345501 3.7614999 2.3110001 9
16.3235 3.7574999 2.3199999 9
16.452499 3.7555001 2.3239999 9
16.5315 3.7574999 2.3199999 9
16.5355 3.7425001 2.3510001 9
16.3955 3.7614999 2.3110001 9
16.525499 3.7614999 2.312 9
16.338499 3.7644999 2.3050001 9
16.3125 3.7585001 2.3180001 9
16.556499 3.7465 2.342 9
16.463499 3.7595 2.3150001 9
16.4655 3.7555001 2.3239999 9
16.356501 3.7635 2.3080001 9
16.5375 3.7614999 2.3110001 9
16.5415 3.7565 2.322 9
16.4405 3.7555001 2.325 9
16.421499 3.7585001 2.3180001 9
16.568501 3.7414999 2.3540001 9
16.3055 3.7644999 2.306 9
16.4695 3.7595 2.316 9
16.488501 3.7435 2.349 9
16.525499 3.7535 2.3280001 9
16.4505 3.7495 2.336 9
16.5205 3.7444999 2.3469999 9
16.5315 3.7565 2.323 9
16.4895 3.7625 2.3099999 9
16.477501 3.7574999 2.3199999 9
16.328501 3.7625 2.309 9
16.5215 3.7435 2.348 9
16.435499 3.7544999 2.325 9
16.355499 3.7625 2.309 9
16.501499 3.7574999 2.3199999 9
16.5355 3.7485001 2.3399999 9
16.574499 3.7544999 2.3269999 9
16.4415 3.7565 2.322 9
16.5075 3.7514999 2.332 9
16.4135 3.7505 2.3340001 9
16.5905 3.7385001 2.3599999 9
16.4405 3.7485001 2.339 9
16.4895 3.7574999 2.319 9
16.5805 3.7375 2.3610001 9
16.5285 3.7435 2.349 9
16.306499 3.7605 2.313 9
16.261499 3.7625 2.309 9
16.4035 3.7595 2.3169999 9
16.414499 3.7544999 2.326 9
16.5075 3.7595 2.316 9
16.3785 3.7555001 2.325 9
16.321501 3.7565 2.322 9
16.306499 3.7625 2.3080001 9
16.4645 3.7525001 2.3299999 9
16.591499 3.7395 2.358 9
16.491501 3.7535 2.3280001 9
16.4655 3.7544999 2.326 9
16.5375 3.7505 2.3340001 9
16.5795 3.7385001 2.359 9
16.497499 3.7625 2.3099999 9
16.446501 3.7644999 2.306 9
16.4165 3.7495 2.3369999 9
16.3585 3.7625 2.309 9
16.3985 3.7574999 2.319 9
16.328501 3.7595 2.3150001 9
16.5375 3.7505 2.335 9
16.554501 3.7614999 2.3110001 9
16.422501 3.7574999 2.3210001 9
16.439501 3.7474999 2.3399999 9
16.5725 3.7474999 2.342 9
16.4485 3.7644999 2.3050001 9
16.4765 3.7535 2.329 9
16.335501 3.7635 2.3080001 9
16.3965 3.7525001 2.3299999 9
16.5305 3.7614999 2.3110001 9
16.5415 3.7395 2.3559999 9
16.429501 3.7625 2.3099999 9
16.5835 3.7495 2.3369999 9
16.5135 3.7614999 2.312 9
16.497499 3.7605 2.3139999 9
16.435499 3.7625 2.309 9
16.5485 3.7565 2.323 9
16.4035 3.7644999 2.3050001 9
16.7155 3.7544999 2.3299999 9
16.800501 3.7665 2.3069999 9
16.6285 3.7474999 2.342 9
16.7565 3.7655001 2.3080001 9
16.723499 3.7585001 2.322 9
16.665501 3.7485001 2.3410001 9
16.7225 3.7574999 2.323 9
16.6465 3.7485001 2.3410001 9
16.634501 3.7505 2.336 9
16.615499 3.7375 2.3610001 9
16.7535 3.7565 2.3269999 9
16.570499 3.7605 2.3139999 9
16.745501 3.7574999 2.3239999 9
16.813499 3.7665 2.3080001 9
16.6145 3.7595 2.316 9
16.591499 3.7514999 2.3329999 9
16.6735 3.7465 2.346 9
16.622499 3.7644999 2.3069999 9
16.731501 3.7665 2.306 9
16.615499 3.7535 2.3280001 9
16.6915 3.7644999 2.309 9
16.6985 3.7555001 2.326 9
16.765499 3.7625 2.3139999 9
16.755501 3.7644999 2.309 9
16.5655 3.7644999 2.3050001 9
16.6555 3.7535 2.3299999 9
16.6395 3.7444999 2.348 9
16.640499 3.7385001 2.3599999 9
16.7745 3.7625 2.3139999 9
16.6005 3.7544999 2.326 9
16.6425 3.7514999 2.3340001 9
16.740499 3.7525001 2.3340001 9
16.6845 3.7555001 2.326 9
16.7395 3.7595 2.3199999 9
16.6395 3.7505 2.336 9
16.724501 3.7525001 2.335 9
16.740499 3.7535 2.332 9
16.6835 3.7644999 2.3080001 9
16.7055 3.7585001 2.3210001 9
16.633499 3.7474999 2.3410001 9
16.5835 3.7625 2.3099999 9
16.644501 3.7444999 2.349 9
16.644501 3.7574999 2.322 9
16.6625 3.7414999 2.3540001 9
16.615499 3.7385001 2.359 9
16.609501 3.7455001 2.346 9
16.709499 3.7655001 2.3080001 9
16.7265 3.7544999 2.3299999 9
16.7075 3.7544999 2.329 9
16.578501 3.7625 2.3099999 9
16.6185 3.7455001 2.346 9
16.693501 3.7585001 2.322 9
16.637501 3.7495 2.3369999 9
16.578501 3.7574999 2.319 9
16.6775 3.7625 2.312 9
16.7115 3.7505 2.3369999 9
16.651501 3.7465 2.345 9
16.6805 3.7535 2.3299999 9
16.6485 3.7505 2.336 9
16.654499 3.7495 2.3380001 9
16.695499 3.7514999 2.335 9
16.6395 3.7644999 2.3080001 9
16.6495 3.7414999 2.3540001 9
16.643499 3.7395 2.358 9
16.7005 3.7605 2.316 9
16.6415 3.7465 2.3429999 9
16.8085 3.7644999 2.3110001 9
16.6565 3.7655001 2.3050001 9
16.7085 3.7514999 2.335 9
16.616501 3.7425001 2.3510001 9
16.685499 3.7585001 2.3210001 9
16.605499 3.7485001 2.339 9
16.650499 3.7625 2.312 9
16.6835 3.7465 2.346 9
16.783501 3.7595 2.3210001 9
16.7335 3.7565 2.3269999 9
16.578501 3.7644999 2.3069999 9
16.776501 3.7625 2.316 9
16.6005 3.7605 2.316 9
16.7085 3.7474999 2.3429999 9
16.6535 3.7555001 2.326 9
16.6625 3.7605 2.316 9
16.6635 3.7495 2.339 9
16.7085 3.7585001 2.3210001 9
16.740499 3.7555001 2.329 9
16.664499 3.7574999 2.323 9
16.761499 3.7595 2.3199999 9
16.5835 3.7574999 2.3199999 9
16.8195 3.7665 2.3080001 9
16.6495 3.7414999 2.3540001 9
16.640499 3.7444999 2.349 9
16.6245 3.7455001 2.346 9
16.6705 3.7485001 2.3410001 9
16.748501 3.7595 2.3199999 9
16.7085 3.7574999 2.323 9
16.6665 3.7414999 2.355 9
16.651501 3.7455001 2.346 9
16.6525 3.7485001 2.3410001 9
16.612499 3.7474999 2.3410001 9
16.6015 3.7585001 2.319 9
16.654499 3.7395 2.359 9
16.4205 3.5355 2.346 9
16.4415 3.5204999 2.3280001 9
16.4765 3.5005 2.303 9
16.5345 3.5244999 2.3299999 9
16.497499 3.5335 2.342 9
16.547501 3.5055001 2.3069999 9
16.497499 3.5005 2.302 9
16.585501 3.5044999 2.3050001 9
16.349501 3.5465 2.3610001 9
16.6035 3.5074999 2.309 9
16.5935 3.5025001 2.302 9
16.421499 3.5225 2.3299999 9
16.4405 3.5135 2.319 9
16.4625 3.5174999 2.323 9
16.5415 3.5204999 2.326 9
16.609501 3.5055001 2.3050001 9
16.543501 3.5185001 2.323 9
16.383499 3.5315001 2.3429999 9
16.5515 3.5185001 2.323 9
16.5035 3.5225 2.329 9
16.5385 3.5095 2.312 9
16.4895 3.5315001 2.339 9
16.490499 3.5055001 2.309 9
16.3605 3.5344999 2.3469999 9
16.6255 3.5025001 2.302 9
16.445499 3.5185001 2.325 9
16.411501 3.5425 2.355 9
16.4265 3.5105 2.316 9
16.724501 3.5044999 2.302 9
16.4165 3.5235 2.3310001 9
16.4545 3.5235 2.3310001 9
16.5415 3.5044999 2.3069999 9
16.723499 3.5065 2.3050001 9
16.429501 3.5165 2.323 9
16.637501 3.5014999 2.3010001 9
16.5655 3.5155001 2.319 9
16.4345 3.5244999 2.3329999 9
16.539499 3.5165 2.3210001 9
16.623501 3.5135 2.316 9
16.4245 3.5265 2.335 9
16.612499 3.5144999 2.3169999 9
16.546499 3.5285001 2.335 9
16.4095 3.5365 2.348 9
16.515499 3.5095 2.313 9
16.438499 3.4995 2.303 9
16.619499 3.5065 2.3069999 9
16.4135 3.5285001 2.3369999 9
16.5665 3.5125 2.316 9
16.5415 3.5165 2.3210001 9
16.445499 3.5055001 2.309 9
16.636499 3.5105 2.312 9
16.509501 3.5195 2.325 9
16.4415 3.5055001 2.3099999 9
16.571501 3.5095 2.312 9
16.4065 3.5255001 2.3340001 9
16.474501 3.5135 2.3180001 9
16.4195 3.4995 2.302 9
16.4025 3.5344999 2.345 9
16.5415 3.5035 2.3050001 9
16.550501 3.5005 2.3010001 9
16.411501 3.5415001 2.3529999 9
16.5145 3.5174999 2.322 9
16.502501 3.5055001 2.3080001 9
16.4065 3.5235 2.3329999 9
16.4175 3.5374999 2.349 9
16.5895 3.5185001 2.322 9
16.4265 3.5385001 2.349 9
16.4065 3.5074999 2.312 9
16.467501 3.5095 2.3139999 9
16.5005 3.5125 2.3169999 9
16.501499 3.5114999 2.3150001 9
16.5725 3.5074999 2.309 9
16.4795 3.5035 2.306 9
16.438499 3.5105 2.316 9
16.408501 3.5325 2.3429999 9
16.366501 3.5474999 2.362 9
16.401501 3.5344999 2.345 9
16.428499 3.5265 2.336 9
16.664499 3.5125 2.313 9
16.5725 3.5165 2.3199999 9
16.515499 3.5255001 2.332 9
16.4505 3.5125 2.3180001 9
16.495501 3.5014999 2.303 9
16.6845 3.5014999 2.3 9
16.366501 3.5474999 2.362 9
16.4965 3.5044999 2.3069999 9
16.463499 3.5195 2.326 9
16.428499 3.5125 2.3180001 9
16.6085 3.5174999 2.3210001 9
16.5725 3.5235 2.329 9
16.445499 3.5374999 2.348 9
16.6775 3.5025001 2.3 9
16.495501 3.5185001 2.3239999 9
16.6635 3.5044999 2.3039999 9
16.363501 3.5425 2.3559999 9
16.681499 3.5065 2.3050001 9
16.481501 3.5125 2.3169999 9
16.4585 3.5074999 2.312 9
16.400499 3.5255001 2.3340001 9
16.4205 3.5095 2.3150001 9
16.4965 3.5335 2.342 9
16.5595 3.5085001 2.3110001 9
16.3825 3.5344999 2.346 9
16.519501 3.5114999 2.3150001 9
16.634501 3.5114999 2.313 9
16.386499 3.5244999 2.3340001 9
16.481501 3.5114999 2.316 9
16.502501 3.5065 2.3099999 9
16.505501 3.5125 2.316 9
16.689501 3.5035 2.3010001 9
16.4125 3.5434999 2.3559999 9
16.3955 3.5204999 2.329 9
16.4305 3.5085001 2.3139999 9
16.4025 3.5165 2.323 9
16.6675 3.5055001 2.3050001 9
16.4035 3.5165 2.323 9
16.634501 3.5014999 2.3010001 9
16.467501 3.5315001 2.3399999 9
16.3605 3.5485001 2.3629999 9
16.626499 3.5065 2.3069999 9
16.526501 3.5025001 2.3039999 9
16.487499 3.5135 2.3180001 9
16.5665 3.5005 2.3010001 9
16.401501 3.5204999 2.3280001 9
16.703501 3.5014999 2.299 9
16.6875 3.5125 2.313 9
16.512501 3.5044999 2.306 9
16.4475 3.5244999 2.332 9
16.5165 3.5044999 2.306 9
16.519501 3.5025001 2.3039999 9
16.487499 3.5044999 2.3069999 9
16.497499 3.5185001 2.3239999 9
16.644501 3.5155001 2.3180001 9
16.588499 3.5035 2.303 9
16.480499 3.5044999 2.3069999 9
16.4475 3.5255001 2.3329999 9
16.758499 3.5044999 2.3010001 9
16.4135 3.5295 2.3399999 9
16.6045 3.5074999 2.3080001 9
16.644501 3.5144999 2.316 9
16.4585 3.5295 2.3380001 9
16.525499 3.5055001 2.3080001 9
16.546499 3.5265 2.332 9
16.533501 3.5255001 2.332 9
16.491501 3.4995 2.3010001 9
16.466499 3.5095 2.3139999 9
16.4825 3.5144999 2.3199999 9
16.686501 3.5044999 2.303 9
16.466499 3.5304999 2.3399999 9
16.5105 3.5304999 2.3380001 9
16.5665 3.5174999 2.322 9
16.5485 3.5085001 2.3099999 9
16.5245 3.5114999 2.3150001 9
16.400499 3.5035 2.3080001 9
16.3985 3.5125 2.319 9
16.4415 3.5155001 2.322 9
16.473499 3.5325 2.3410001 9
16.4835 3.5274999 2.335 9
16.591499 3.5195 2.323 9
16.463499 3.4985001 2.3010001 9
16.585501 3.5225 2.3269999 9
16.453501 3.5114999 2.316 9
16.5905 3.5135 2.3150001 9
16.3785 3.5285001 2.339 9
16.591499 3.5215001 2.325 9
16.4935 3.5325 2.3410001 9
16.3645 3.5404999 2.3529999 9
16.3465 3.5425 2.3570001 9
16.477501 3.5085001 2.312 9
16.509501 3.5274999 2.3340001 9
16.8405 3.5335 2.3380001 9
16.6255 3.5415001 2.3510001 9
16.6985 3.5165 2.3180001 9
16.6425 3.5215001 2.325 9
16.5695 3.5355 2.3440001 9
16.702499 3.5344999 2.342 9
16.9305 3.5515001 2.3610001 9
16.6245 3.5455 2.3559999 9
16.827499 3.5474999 2.3570001 9
16.806499 3.5495 2.3599999 9
16.689501 3.5155001 2.316 9
16.8335 3.5525 2.3629999 9
16.7775 3.5395 2.3469999 9
16.634501 3.5515001 2.365 9
16.5485 3.5315001 2.339 9
16.8395 3.5204999 2.3210001 9
16.613501 3.5385001 2.3469999 9
16.7195 3.5534999 2.3659999 9
16.820499 3.5295 2.3340001 9
16.886499 3.5415001 2.348 9
16.7645 3.5114999 2.3110001 9
16.675501 3.5315001 2.3380001 9
16.6075 3.5515001 2.365 9
16.7335 3.5495 2.3599999 9
16.717501 3.5425 2.3510001 9
16.623501 3.5235 2.3269999 9
16.5795 3.5344999 2.342 9
16.578501 3.5465 2.358 9
16.657499 3.5265 2.3310001 9
16.900499 3.5545001 2.365 9
16.7075 3.5445001 2.355 9
16.6005 3.5434999 2.3540001 9
16.7075 3.5255001 2.3299999 9
16.5355 3.5295 2.3369999 9
16.7005 3.5235 2.3269999 9
16.842501 3.5374999 2.3429999 9
16.727501 3.5155001 2.316 9
16.8025 3.5295 2.3340001 9
16.821501 3.5274999 2.3310001 9
16.7645 3.5495 2.3599999 9
16.640499 3.5545001 2.3670001 9
16.7355 3.5174999 2.319 9
16.6835 3.5534999 2.3659999 9
16.918501 3.5465 2.3540001 9
16.866501 3.5445001 2.3529999 9
16.633499 3.5495 2.3610001 9
16.768499 3.5545001 2.3659999 9
16.8575 3.5374999 2.3429999 9
16.6005 3.5295 2.336 9
16.675501 3.5445001 2.355 9
16.786501 3.5295 2.3329999 9
16.7635 3.5485001 2.358 9
16.7285 3.5285001 2.3340001 9
16.7115 3.5274999 2.332 9
16.602501 3.5415001 2.3510001 9
16.7705 3.5455 2.355 9
16.793501 3.5135 2.312 9
16.9025 3.5485001 2.3570001 9
16.3465 3.5515001 2.3670001 9
16.560499 3.5445001 2.3559999 9
16.6255 3.5504999 2.362 9
16.6355 3.5374999 2.346 9
16.727501 3.5085001 2.3080001 9
16.724501 3.5465 2.3570001 9
16.5175 3.5355 2.3440001 9
16.4785 3.5365 2.3469999 9
16.8125 3.5344999 2.339 9
16.731501 3.5395 2.3469999 9
16.686501 3.5355 2.3429999 9
16.838499 3.5425 2.3499999 9
16.6765 3.5155001 2.3169999 9
16.5935 3.5355 2.3440001 9
16.473499 3.5465 2.359 9
16.6525 3.5304999 2.3369999 9
16.838499 3.5355 2.342 9
16.651501 3.5195 2.323 9
16.428499 3.5415001 2.3540001 9
16.657499 3.5185001 2.3210001 9
16.8585 3.5434999 2.3510001 9
16.8405 3.5425 2.3510001 9
16.740499 3.5465 2.3559999 9
16.6595 3.5404999 2.349 9
16.4335 3.5534999 2.369 9
16.658501 3.5195 2.322 9
16.6805 3.5515001 2.3640001 9
16.682501 3.5415001 2.3510001 9
16.699499 3.5265 2.3310001 9
16.620501 3.5295 2.336 9
16.672501 3.5455 2.3559999 9
16.6605 3.5315001 2.3369999 9
16.6915 3.5525 2.365 9
16.7815 3.5215001 2.3239999 9
16.581499 3.5344999 2.3429999 9
16.560499 3.5404999 2.3510001 9
16.7605 3.5295 2.3340001 9
16.8505 3.5374999 2.3440001 9
16.7185 3.5304999 2.335 9
16.481501 3.5385001 2.349 9
16.7705 3.5225 2.325 9
16.6145 3.5404999 2.3499999 9
16.6775 3.5255001 2.329 9
16.5695 3.5285001 2.335 9
16.852501 3.5445001 2.352 9
16.588499 3.5385001 2.3469999 9
16.803499 3.5125 2.3110001 9
16.8235 3.5395 2.346 9
16.8515 3.5425 2.3499999 9
16.9035 3.5385001 2.345 9
16.571501 3.5295 2.336 9
16.814501 3.5125 2.312 9
16.5065 3.5425 2.3540001 9
16.5035 3.5465 2.359 9
16.7355 3.5315001 2.3369999 9
16.422501 3.5504999 2.3659999 9
16.754499 3.5474999 2.3570001 9
16.6325 3.5344999 2.342 9
16.6605 3.5395 2.348 9
16.637501 3.5225 2.3269999 9
16.7885 3.5295 2.3340001 9
16.5895 3.5395 2.3499999 9
16.672501 3.5365 2.3440001 9
16.901501 3.5485001 2.3570001 9
16.8235 3.5255001 2.3280001 9
16.818501 3.5415001 2.349 9
16.782499 3.5474999 2.3570001 9
16.842501 3.5255001 2.3280001 9
16.3955 3.5525 2.368 9
16.748501 3.5455 2.355 9
16.4305 3.5515001 2.3659999 9
16.9445 3.5545001 2.3640001 9
16.6005 3.5504999 2.3629999 9
16.754499 3.5515001 2.362 9
16.8575 3.5515001 2.3610001 9
16.525499 3.5315001 2.339 9
16.4265 3.5525 2.368 9
16.752501 3.5285001 2.3329999 9
16.7145 3.5545001 2.3670001 9
16.651501 3.5265 2.3310001 9
16.7425 3.5465 2.3559999 9
16.6385 3.5534999 2.3659999 9
16.748501 3.5455 2.355 9
16.7015 3.5425 2.3510001 9
16.9175 3.5445001 2.352 9
16.7675 3.5385001 2.346 9
16.776501 3.5225 2.325 9
16.650499 3.5495 2.362 9
16.686501 3.5204999 2.323 9
16.4205 3.5474999 2.3610001 9
16.806499 3.5504999 2.3599999 9
16.6035 3.5515001 2.3640001 9
16.776501 3.5225 2.325 9
16.6705 3.5474999 2.358 9
16.634501 3.5525 2.3659999 9
16.6185 3.5274999 2.3329999 9
16.8085 3.5365 2.3429999 9
16.797501 3.5304999 2.335 9
16.4515 3.5495 2.3640001 9
16.6465 3.5285001 2.3340001 9
16.7005 3.5225 2.326 9
16.872499 3.5385001 2.3440001 9
16.553499 3.5374999 2.3469999 9
16.7715 3.5385001 2.345 9
16.4055 3.5465 2.3599999 9
16.5235 3.5455 2.358 9
16.6625 3.5304999 2.336 9
16.7995 3.5265 2.3299999 9
16.602501 3.5304999 2.3369999 9
16.8715 3.5344999 2.3399999 9
16.727501 3.5415001 2.3510001 9
16.7665 3.5374999 2.345 9
16.931499 3.5534999 2.3629999 9
16.7575 3.5434999 2.3529999 9
16.443501 3.5465 2.3599999 9
16.5895 3.5274999 2.3329999 9
16.623501 3.5415001 2.3510001 9
16.709499 3.5325 2.339 9
16.634501 3.5215001 2.325 9
16.693501 3.5395 2.3469999 9
16.6145 3.5225 2.3269999 9
16.692499 3.5445001 2.355 9
16.7645 3.5315001 2.336 9
16.6285 3.5474999 2.359 9
16.563499 3.5474999 2.359 9
16.8685 3.5295 2.3329999 9
16.7565 3.5355 2.342 9
16.814501 3.5474999 2.3570001 9
16.790501 3.5244999 2.3269999 9
16.713499 3.5235 2.3269999 9
16.6695 3.5235 2.3280001 9
16.713499 3.5105 2.3099999 9
16.786501 3.5144999 2.3139999 9
16.5425 3.5425 2.3529999 9
16.7075 3.5304999 2.336 9
16.737499 3.5515001 2.3629999 9
16.578501 3.5335 2.3410001 9
16.561501 3.5344999 2.342 9
16.643499 3.5445001 2.3540001 9
16.699499 3.5534999 2.3670001 9
16.9205 3.5545001 2.365 9
16.6595 3.5185001 2.3199999 9
16.7355 3.5304999 2.335 9
16.567499 3.5355 2.3440001 9
16.803499 3.5325 2.3380001 9
16.730499 3.5105 2.309 9
16.702499 3.5125 2.313 9
16.8605 3.5265 2.3280001 9
16.887501 3.5485001 2.3570001 9
16.8605 3.5415001 2.348 9
16.738501 3.5415001 2.349 9
16.7775 3.5335 2.339 9
16.550501 3.5355 2.3440001 9
16.820499 3.5144999 2.313 9
16.8405 3.5244999 2.3269999 9
16.6355 3.5525 2.365 9
16.8955 3.5474999 2.3559999 9
16.5455 3.5404999 2.3510001 9
16.623501 3.5355 2.3429999 9
16.634501 3.5195 2.322 9
16.629499 3.5365 2.345 9
16.8025 3.5265 2.329 9
16.932501 3.5565 2.3670001 9
16.8915 3.5434999 2.3499999 9
16.6765 3.5455 2.355 9
16.449499 3.5445001 2.3570001 9
16.702499 3.5135 2.3139999 9
16.7565 3.5474999 2.3570001 9
16.626499 3.5295 2.336 9
16.8535 3.5304999 2.3340001 9
16.8325 3.5555 2.368 9
16.7115 3.5295 2.335 9
16.595501 3.5404999 2.3510001 9
16.751499 3.5285001 2.3329999 9
16.709499 3.5365 2.3440001 9
16.9065 3.5534999 2.3640001 9
16.797501 3.5155001 2.3150001 9
16.504499 3.5335 2.3429999 9
16.8125 3.5495 2.3599999 9
16.4265 3.5485001 2.3629999 9
16.671499 3.5344999 2.342 9
16.922501 3.5565 2.368 9
16.821501 3.5534999 2.365 9
16.706499 3.5215001 2.3239999 9
16.7815 3.5555 2.3670001 9
16.752501 3.5285001 2.3329999 9
16.616501 3.5455 2.3559999 9
16.931499 3.5545001 2.3640001 9
16.380501 3.5515001 2.3670001 9
16.775499 3.5125 2.3110001 9
16.4655 3.5534999 2.368 9
16.6625 3.5404999 2.349 9
16.776501 3.5385001 2.345 9
16.8265 3.5244999 2.3269999 9
16.6915 3.5474999 2.358 9
16.8405 3.5545001 2.3659999 9
16.6775 3.5385001 2.3469999 9
16.560499 3.5515001 2.3640001 9
16.491501 3.5485001 2.362 9
16.5795 3.5474999 2.359 9
16.907499 3.5415001 2.348 9
16.546499 3.5465 2.359 9
16.8235 3.5355 2.3410001 9
16.3395 3.5525 2.369 9
16.852501 3.5534999 2.365 9
16.7875 3.5304999 2.336 9
16.8395 3.5415001 2.348 9
16.769501 3.5295 2.3340001 9
16.5245 3.5525 2.3670001 9
16.5555 3.5485001 2.362 9
16.880501 3.5325 2.3369999 9
16.657499 3.5315001 2.3369999 9
16.512501 3.5445001 2.3559999 9
16.752501 3.5155001 2.3150001 9
16.620501 3.5434999 2.3529999 9
16.598499 3.5325 2.339 9
16.8265 3.5144999 2.3139999 9
16.796499 3.5304999 2.3340001 9
16.7565 3.5335 2.339 9
16.877501 3.5555 2.3670001 9
16.622499 3.5355 2.3429999 9
16.431499 3.5485001 2.362 9
16.533501 3.5404999 2.3510001 9
16.8265 3.7485001 2.345 9
16.9065 3.7535 2.3380001 9
16.7005 3.7455001 2.348 9
16.8225 3.7535 2.3340001 9
16.9195 3.7514999 2.3429999 9
16.9165 3.7495 2.3469999 9
16.873501 3.7565 2.3299999 9
16.783501 3.7544999 2.3329999 9
16.8645 3.7605 2.323 9
16.7915 3.7544999 2.3310001 9
16.818501 3.7514999 2.339 9
16.872499 3.7505 2.3429999 9
16.783501 3.7514999 2.3380001 9
16.8125 3.7605 2.3199999 9
16.8155 3.7625 2.316 9
16.8445 3.7644999 2.313 9
16.7995 3.7525001 2.336 9
16.786501 3.7465 2.349 9
16.8535 3.7614999 2.319 9
16.7845 3.7574999 2.325 9
16.7435 3.7514999 2.336 9
16.7505 3.7505 2.3380001 9
16.7735 3.7495 2.342 9
16.744499 3.7405 2.359 9
16.8645 3.7614999 2.3199999 9
16.7815 3.7444999 2.3529999 9
16.772499 3.7425001 2.3559999 9
16.856501 3.7605 2.322 9
16.7915 3.7505 2.339 9
16.876499 3.7505 2.342 9
16.8055 3.7474999 2.3469999 9
16.8295 3.7465 2.3499999 9
16.782499 3.7444999 2.352 9
16.880501 3.7555001 2.332 9
16.842501 3.7655001 2.3099999 9
16.8125 3.7574999 2.326 9
16.7495 3.7505 2.3380001 9
16.6605 3.7375 2.362 9
16.6745 3.7414999 2.355 9
16.7435 3.7474999 2.3440001 9
16.782499 3.7435 2.3540001 9
16.7945 3.7525001 2.336 9
16.8505 3.7544999 2.3329999 9
16.7075 3.7435 2.3529999 9
16.720501 3.7405 2.359 9
16.841499 3.7605 2.322 9
16.7885 3.7474999 2.346 9
16.806499 3.7505 2.3399999 9
16.779499 3.7455001 2.349 9
16.790501 3.7465 2.349 9
16.8235 3.7465 2.3499999 9
16.8015 3.7605 2.319 9
16.716499 3.7444999 2.3510001 9
16.8745 3.7565 2.3299999 9
16.900499 3.7535 2.3380001 9
16.765499 3.7525001 2.335 9
16.7645 3.7414999 2.358 9
16.8535 3.7514999 2.3410001 9
16.8785 3.7585001 2.3269999 9
16.755501 3.7414999 2.358 9
16.7925 3.7525001 2.335 9
16.841499 3.7535 2.336 9
16.922501 3.7495 2.3469999 9
16.762501 3.7514999 2.3380001 9
16.731501 3.7405 2.3599999 9
16.8025 3.7455001 2.3510001 9
16.768499 3.7544999 2.3310001 9
16.762501 3.7414999 2.358 9
16.872499 3.7525001 2.3380001 9
16.8615 3.7585001 2.326 9
16.765499 3.7435 2.3540001 9
16.872499 3.7574999 2.3280001 9
16.7945 3.7455001 2.352 9
16.7945 3.7585001 2.323 9
16.8995 3.7495 2.346 9
16.883499 3.7474999 2.3499999 9
16.7945 3.7525001 2.335 9
16.7945 3.7585001 2.323 9
16.9235 3.7495 2.346 9
16.7425 3.7425001 2.355 9
16.8335 3.7485001 2.3469999 9
16.747499 3.7344999 2.3670001 9
16.828501 3.7375 2.362 9
16.8965 3.7405 2.358 9
16.7665 3.7405 2.3599999 9
16.7505 3.7344999 2.3670001 9
16.724501 3.7344999 2.3670001 9
16.7335 3.7355001 2.3670001 9
16.7805 3.7395 2.3610001 9
16.8155 3.7414999 2.358 9
16.887501 3.7455001 2.352 9
16.842501 3.7385001 2.3610001 9
16.7675 3.7375 2.3640001 9
16.8015 3.7395 2.3599999 9
16.7355 3.7335 2.369 9
16.9265 3.7365 2.3629999 9
16.706499 3.7355001 2.3670001 9
16.866501 3.7444999 2.3529999 9
16.7985 3.7335 2.368 9
16.821501 3.7355001 2.3659999 9
16.8505 3.7335 2.368 9
16.897499 3.7465 2.3510001 9
16.9055 3.7344999 2.3659999 9
16.8405 3.7395 2.3599999 9
16.879499 3.7444999 2.3529999 9
16.9055 3.7365 2.3629999 9
16.870501 3.7395 2.3599999 9
16.796499 3.7355001 2.3659999 9
16.7575 3.7375 2.3640001 9
16.9105 3.7465 2.3499999 9
16.8265 3.7405 2.359 9
16.782499 3.7385001 2.362 9
16.800501 3.7395 2.3599999 9
16.8505 3.7335 2.368 9
16.855499 3.7344999 2.3659999 9
16.9245 3.7455001 2.3510001 9
16.7785 3.7375 2.3640001 9
16.921499 3.7414999 2.3559999 9
16.675501 3.7344999 2.368 9
16.8965 3.7414999 2.358 9
16.8235 3.7344999 2.3659999 9
16.8825 3.7335 2.3670001 9
16.9125 3.7474999 2.349 9
16.7925 3.7395 2.3610001 9
16.8535 3.7355001 2.365 9
16.922501 3.7535 2.3380001 9
16.908501 3.7555001 2.3329999 9
16.991501 3.7474999 2.3540001 9
16.8715 3.7614999 2.319 9
16.963499 3.7495 2.348 9
16.9755 3.7485001 2.3510001 9
17.008499 3.7444999 2.3610001 9
16.949499 3.7505 2.346 9
16.938499 3.7535 2.339 9
16.9645 3.7485001 2.3510001 9
16.9785 3.7474999 2.3529999 9
16.863501 3.7625 2.3169999 9
17.0245 3.5385001 2.346 9
17.047501 3.5304999 2.335 9
17.092501 3.5135 2.3150001 9
17.050501 3.5215001 2.3239999 9
16.9515 3.5295 2.3329999 9
16.988501 3.5325 2.3369999 9
17.106501 3.5165 2.3180001 9
16.8305 3.5035 2.3010001 9
16.834499 3.5135 2.312 9
16.936501 3.5404999 2.3469999 9
16.900499 3.5225 2.325 9
17.1035 3.5174999 2.3199999 9
17.084499 3.5225 2.325 9
16.990499 3.5315001 2.336 9
16.9725 3.5035 2.302 9
17.116501 3.5174999 2.319 9
17.115499 3.5095 2.3099999 9
16.9555 3.5295 2.3329999 9
17.095501 3.5114999 2.312 9
16.963499 3.5235 2.326 9
16.8585 3.5165 2.3169999 9
16.8745 3.5195 2.3210001 9
16.959499 3.5285001 2.332 9
17.025499 3.5344999 2.3399999 9
16.928499 3.5195 2.3199999 9
17.1185 3.5135 2.3150001 9
16.977501 3.5415001 2.349 9
16.977501 3.5335 2.339 9
16.897499 3.5295 2.3329999 9
16.9515 3.5315001 2.336 9
17.115499 3.5125 2.3139999 9
16.981501 3.5445001 2.3529999 9
17.0215 3.5335 2.339 9
16.9275 3.5265 2.329 9
17.0285 3.5315001 2.3369999 9
16.984501 3.5395 2.3469999 9
17.127501 3.5035 2.303 9
16.952499 3.5385001 2.345 9
16.943501 3.5055001 2.3039999 9
17.068501 3.5035 2.302 9
17.0315 3.5085001 2.3069999 9
17.0175 3.5404999 2.348 9
16.904499 3.5244999 2.326 9
16.949499 3.5135 2.3139999 9
17.0665 3.5095 2.3099999 9
17.036501 3.5114999 2.312 9
16.880501 3.5235 2.325 9
17.0595 3.5074999 2.3069999 9
16.970501 3.5215001 2.323 9
16.9615 3.5565 2.368 9
16.911501 3.5235 2.326 9
17.0275 3.5395 2.346 9
17.040501 3.5105 2.3099999 9
16.8755 3.5225 2.3239999 9
16.9855 3.5204999 2.322 9
16.960501 3.5485001 2.3570001 9
17.043501 3.5165 2.3180001 9
16.974501 3.5044999 2.303 9
16.870501 3.5044999 2.3010001 9
16.870501 3.5204999 2.322 9
16.818501 3.5065 2.3039999 9
16.8925 3.5074999 2.306 9
16.9785 3.5114999 2.312 9
17.0315 3.5225 2.325 9
16.9755 3.5355 2.3410001 9
16.803499 3.5044999 2.3010001 9
16.959499 3.5325 2.3369999 9
16.8405 3.5165 2.3169999 9
17.0105 3.5344999 2.3399999 9
16.9505 3.5265 2.3299999 9
16.9685 3.5195 2.3210001 9
16.841499 3.5055001 2.303 9
16.8575 3.5215001 2.322 9
17.1105 3.5174999 2.3199999 9
17.102501 3.5055001 2.3039999 9
17.0145 3.5404999 2.348 9
17.0375 3.5065 2.306 9
17.0825 3.5235 2.3269999 9
16.915501 3.5374999 2.342 9
16.953501 3.5335 2.339 9
17.040501 3.5325 2.3369999 9
16.9405 3.5385001 2.345 9
17.012501 3.5374999 2.3440001 9
17.0075 3.5315001 2.336 9
17.085501 3.5135 2.3150001 9
17.0035 3.5114999 2.312 9
17.1045 3.5074999 2.3069999 9
16.9765 3.5355 2.3410001 9
17.008499 3.5235 2.3269999 9
16.9835 3.5485001 2.358 9
16.977501 3.5295 2.3329999 9
16.9035 3.5204999 2.3210001 9
17.0285 3.5204999 2.323 9
17.1385 3.5105 2.3110001 9
16.845501 3.5125 2.312 9
16.9345 3.5404999 2.3469999 9
16.931499 3.5155001 2.3150001 9
17.095501 3.5125 2.313 9
17.088499 3.5235 2.3269999 9
16.915501 3.5204999 2.322 9
16.824499 3.5114999 2.3099999 9
17.0595 3.5044999 2.3039999 9
16.9125 3.5074999 2.306 9
16.973499 3.5244999 2.3269999 9
17.004499 3.5105 2.3099999 9
16.894501 3.5185001 2.3199999 9
16.8435 3.5095 2.3080001 9
16.956499 3.5185001 2.3199999 9
16.974501 3.5065 2.3050001 9
16.872499 3.5165 2.3169999 9
16.953501 3.5445001 2.3510001 9
16.9505 3.5355 2.3410001 9
16.9505 3.5074999 2.306 9
16.956499 3.5525 2.362 9
16.879499 3.5295 2.332 9
17.0275 3.5235 2.3269999 9
16.9645 3.5474999 2.3559999 9
16.9555 3.5434999 2.3510001 9
16.9725 3.5395 2.346 9
17.018499 3.5165 2.3169999 9
16.8615 3.5155001 2.3150001 9
16.8585 3.5055001 2.303 9
16.9135 3.5385001 2.3440001 9
17.115499 3.5125 2.3139999 9
16.8545 3.5174999 2.3180001 9
16.9865 3.5085001 2.3080001 9
16.9655 3.5095 2.309 9
16.9765 3.5434999 2.3510001 9
16.893499 3.5174999 2.3180001 9
17.0105 3.5114999 2.312 9
16.859501 3.5125 2.3110001 9
16.873501 3.5114999 2.3110001 9
16.872499 3.5074999 2.3050001 9
16.928499 3.5074999 2.3050001 9
16.9265 3.5295 2.3340001 9
16.9415 3.5434999 2.3510001 9
16.9785 3.5335 2.3380001 9
16.880501 3.5244999 2.3269999 9
17.043501 3.5095 2.309 9
16.855499 3.5195 2.3199999 9
17.164499 3.5044999 2.3039999 9
17.0895 3.5135 2.3139999 9
17.078501 3.5125 2.313 9
16.908501 3.5225 2.3239999 9
17.0215 3.5295 2.3340001 9
17.077499 3.5235 2.3269999 9
17.0005 3.5085001 2.3080001 9
16.9265 3.5114999 2.3110001 9
17.0065 3.5235 2.326 9
16.862499 3.5204999 2.3210001 9
17.0235 3.5365 2.342 9
16.925501 3.5095 2.309 9
16.8235 3.5095 2.3069999 9
16.838499 3.5135 2.312 9
16.9935 3.5225 2.325 9
16.8375 3.5125 2.3110001 9
16.9765 3.5355 2.342 9
16.883499 3.5165 2.3169999 9
16.987499 3.5395 2.346 9
16.943501 3.5195 2.3199999 9
17.0905 3.5125 2.313 9
16.9685 3.5515001 2.3599999 9
17.0585 3.5155001 2.316 9
16.9265 3.5344999 2.339 9
16.977501 3.5265 2.3299999 9
16.8825 3.5225 2.3239999 9
16.894501 3.5085001 2.3069999 9
17.0935 3.5235 2.3280001 9
17.1765 3.5055001 2.3239999 9
17.1695 3.5074999 2.325 9
17.157499 3.5105 2.3329999 9
17.1115 3.5225 2.3440001 9
16.9935 3.5495 2.3629999 9
17.0285 3.5404999 2.348 9
17.1535 3.5125 2.3369999 9
17.0795 3.5285001 2.342 9
17.1045 3.5225 2.3329999 9
17.092501 3.5265 2.346 9
17.0375 3.5395 2.3559999 9
17.109501 3.5215001 2.336 9
17.165501 3.5105 2.339 9
17.1255 3.5174999 2.3310001 9
17.056499 3.5335 2.3399999 9
17.0865 3.5265 2.3410001 9
17.171499 3.5074999 2.3269999 9
17.063499 3.5335 2.349 9
17.1635 3.5065 2.3099999 9
17.0795 3.5285001 2.3410001 9
17.053499 3.5365 2.355 9
17.151501 3.5105 2.3239999 9
17.011499 3.5455 2.3599999 9
16.980499 3.5525 2.3629999 9
17.0315 3.5404999 2.352 9
17.1015 3.5235 2.3369999 9
17.129499 3.5155001 2.325 9
17.067499 3.5325 2.349 9
17.098499 3.5225 2.329 9
17.1145 3.5204999 2.3399999 9
17.1695 3.5044999 2.3039999 9
17.0165 3.5445001 2.3570001 9
17.172501 3.5055001 2.3210001 9
17.147499 3.5114999 2.3239999 9
17.0175 3.5434999 2.352 9
17.1465 3.5105 2.313 9
17.0755 3.5304999 2.346 9
