# .PCD v0.7 - Point Cloud Data file format
VERSION 0.7
FIELDS x y z label
SIZE 4 4 4 4
TYPE F F F U
COUNT 1 1 1 1
WIDTH 1656
HEIGHT 1
VIEWPOINT 0 0 0 1 0 0 0
POINTS 1656
DATA ascii
16.5445 0.75849998 0.73199999 6
16.547501 0.74550003 0.77200001 6
16.547501 0.7475 0.74599999 6
16.5515 0.73549998 0.73299998 6
16.543501 0.76450002 0.69300002 6
16.543501 0.7705 0.58899999 6
16.553499 0.7245 0.773 6
16.550501 0.73650002 0.75800002 6
16.5375 0.79650003 0.47499999 6
16.539499 0.7845 0.611 6
16.5485 0.74550003 0.70599997 6
16.550501 0.73750001 0.78200001 6
16.536501 0.7985 0.52600002 6
16.5375 0.79750001 0.50800002 6
16.5385 0.78149998 0.69400001 6
16.5495 0.74349999 0.713 6
16.540501 0.7705 0.79100001 6
16.5525 0.73250002 0.75300002 6
16.539499 0.78850001 0.52600002 6
16.5485 0.7475 0.67699999 6
16.539499 0.78250003 0.63700002 6
16.5455 0.75650001 0.76499999 6
16.5425 0.77749997 0.56599998 6
16.543501 0.76950002 0.60799998 6
16.5375 0.79549998 0.55900002 6
16.5455 0.75849998 0.69599998 6
16.5375 0.78350002 0.77899998 6
16.543501 0.76749998 0.64600003 6
16.540501 0.7755 0.72000003 6
16.5495 0.74049997 0.787 6
16.540501 0.78250003 0.59100002 6
16.5425 0.77749997 0.55400002 6
16.5445 0.7665 0.61400002 6
16.546499 0.75050002 0.792 6
16.543501 0.77149999 0.59299999 6
16.5375 0.79650003 0.51599997 6
16.539499 0.77850002 0.69999999 6
16.5375 0.79750001 0.498 6
16.553499 0.72649997 0.77700001 6
16.5375 0.77950001 0.79900002 6
16.5485 0.7475 0.68900001 6
16.5375 0.80049998 0.454 6
16.539499 0.78649998 0.54299998 6
16.5445 0.7615 0.66799998 6
16.5445 0.7665 0.61400002 6
16.540501 0.78350002 0.53100002 6
16.5385 0.7845 0.639 6
16.5495 0.74150002 0.75300002 6
16.543501 0.76550001 0.72799999 6
16.539499 0.7755 0.79000002 6
16.539499 0.7845 0.61699998 6
16.543501 0.7665 0.67900002 6
16.5375 0.78149998 0.79400003 6
16.543501 0.76950002 0.60500002 6
16.5415 0.77149999 0.73699999 6
16.5415 0.7665 0.79900002 6
16.5385 0.78350002 0.71100003 6
16.5455 0.7615 0.667 6
16.540501 0.78049999 0.59799999 6
16.5385 0.77950001 0.74699998 6
16.536501 0.80449998 0.43799999 6
16.5445 0.76249999 0.67900002 6
16.5375 0.79350001 0.54000002 6
16.5415 0.77649999 0.63499999 6
16.5495 0.74250001 0.759 6
16.5415 0.77350003 0.65700001 6
16.5415 0.76849997 0.75999999 6
16.536501 0.8035 0.46599999 6
16.5375 0.78049999 0.80800003 6
16.5375 0.78049999 0.80500001 6
16.5385 0.78350002 0.69800001 6
16.543501 0.76849997 0.63700002 6
16.5385 0.78149998 0.73000002 6
16.539499 0.78350002 0.58600003 6
16.543501 0.76849997 0.62900001 6
16.5385 0.79250002 0.48699999 6
16.5455 0.7615 0.63099998 6
16.539499 0.77450001 0.80000001 6
16.543501 0.76550001 0.69499999 6
16.540501 0.78549999 0.53200001 6
16.5375 0.78649998 0.72000003 6
16.543501 0.76050001 0.78799999 6
16.5485 0.74550003 0.75800002 6
16.539499 0.7755 0.79900002 6
16.543501 0.76950002 0.59399998 6
16.5375 0.79250002 0.55900002 6
16.5375 0.79750001 0.52100003 6
16.536501 0.79449999 0.60399997 6
16.543501 0.77149999 0.57599998 6
16.5375 0.80150002 0.447 6
16.540501 0.77249998 0.75999999 6
16.5415 0.7705 0.69999999 6
16.5375 0.79750001 0.49599999 6
16.5385 0.78250003 0.71799999 6
16.5495 0.74049997 0.755 6
16.5415 0.77749997 0.56599998 6
16.5455 0.75749999 0.70999998 6
16.550501 0.7385 0.71399999 6
16.550501 0.72350001 1.405 6
16.547501 0.74949998 1.26 6
16.5445 0.75449997 1.582 6
16.5445 0.75449997 1.603 6
16.5415 0.7845 1.455 6
16.5525 0.72250003 1.206 6
16.5525 0.71450001 1.387 6
16.5485 0.73949999 1.4630001 6
16.553499 0.70749998 1.369 6
16.540501 0.77950001 1.729 6
16.543501 0.77350003 1.364 6
16.5445 0.76050001 1.454 6
16.546499 0.75650001 1.347 6
16.550501 0.7245 1.42 6
16.554501 0.70749998 1.26 6
16.5455 0.75550002 1.4450001 6
16.546499 0.74949998 1.485 6
16.5425 0.77850002 1.386 6
16.543501 0.7705 1.408 6
16.5445 0.76950002 1.3099999 6
16.554501 0.70550001 1.288 6
16.5425 0.76950002 1.5880001 6
16.5445 0.76950002 1.2539999 6
16.5445 0.77149999 1.215 6
16.5425 0.77749997 1.369 6
16.5515 0.72350001 1.35 6
16.554501 0.70249999 1.285 6
16.5455 0.75849998 1.396 6
16.5415 0.77450001 1.599 6
16.547501 0.74449998 1.411 6
16.5495 0.74150002 1.244 6
16.550501 0.73049998 1.327 6
16.540501 0.79449999 1.2819999 6
16.540501 0.79250002 1.447 6
16.5515 0.72149998 1.3 6
16.540501 0.78850001 1.543 6
16.5445 0.77149999 1.3049999 6
16.5455 0.75849998 1.376 6
16.5495 0.73250002 1.4119999 6
16.546499 0.75650001 1.3609999 6
16.5425 0.77149999 1.5549999 6
16.5445 0.76349998 1.431 6
16.5425 0.78850001 1.2079999 6
16.5415 0.79350001 1.2589999 6
16.5415 0.79049999 1.249 6
16.5425 0.76950002 1.584 6
16.5445 0.75849998 1.495 6
16.5525 0.72049999 1.237 6
16.5455 0.76050001 1.375 6
16.5455 0.75349998 1.568 6
16.5485 0.73750001 1.462 6
16.5415 0.77350003 1.614 6
16.5515 0.72750002 1.2359999 6
16.550501 0.7295 1.281 6
16.543501 0.7705 1.4119999 6
16.5445 0.75849998 1.609 6
16.5415 0.77950001 1.581 6
16.547501 0.74849999 1.373 6
16.5415 0.78750002 1.351 6
16.5515 0.71749997 1.374 6
16.5455 0.75650001 1.398 6
16.540501 0.78149998 1.587 6
16.5495 0.73049998 1.423 6
16.554501 0.70450002 1.261 6
16.5515 0.72850001 1.239 6
16.540501 0.79549998 1.286 6
16.5425 0.77850002 1.35 6
16.5415 0.78049999 1.448 6
16.5485 0.74449998 1.3380001 6
16.5525 0.71850002 1.2920001 6
16.543501 0.77450001 1.433 6
16.5515 0.72549999 1.266 6
16.5425 0.7755 1.558 6
16.554501 0.70349997 1.3049999 6
16.546499 0.7475 1.505 6
16.5445 0.7705 1.263 6
16.5415 0.78350002 1.401 6
16.5455 0.76349998 1.303 6
16.546499 0.7615 1.26 6
16.5415 0.78750002 1.335 6
16.5425 0.78750002 1.279 6
16.5425 0.78649998 1.25 6
16.5485 0.74449998 1.27 6
16.5555 0.69849998 1.2410001 6
16.5445 0.76050001 1.469 6
16.5495 0.7335 1.332 6
16.5415 0.78750002 1.312 6
16.540501 0.78850001 1.4680001 6
16.5425 0.78850001 1.224 6
16.550501 0.72750002 1.391 6
16.5485 0.73549998 1.457 6
16.5425 0.76950002 1.554 6
16.5415 0.79350001 1.284 6
16.5495 0.7335 1.399 6
16.5495 0.7385 1.2690001 6
16.5495 0.73650002 1.3049999 6
16.5555 0.69849998 1.267 6
16.547501 0.74849999 1.348 6
16.554501 0.70749998 1.262 6
16.5525 0.71350002 1.323 6
16.5425 0.77749997 1.408 6
16.5495 0.73250002 1.321 6
16.546499 0.75349998 1.3099999 6
16.547501 0.74449998 1.392 6
16.5515 0.72049999 1.388 6
16.5415 0.79250002 1.2 6
16.546499 0.74849999 1.4450001 6
16.546499 0.74349999 1.541 6
16.5495 0.73150003 1.404 6
16.543501 0.76450002 1.6 6
16.543501 0.78149998 1.177 6
16.553499 0.7105 1.234 6
16.5495 0.72850001 1.457 6
16.546499 0.7525 1.3789999 6
16.543501 0.76749998 1.539 6
16.5515 0.72850001 1.2589999 6
16.5455 0.7615 1.36 6
16.5445 0.76050001 1.559 6
16.5485 0.73449999 1.47 6
16.553499 0.70850003 1.348 6
16.543501 0.78250003 1.163 6
16.540501 0.78250003 1.592 6
16.5515 0.72649997 1.2819999 6
16.5425 0.77749997 1.431 6
16.547501 0.74550003 1.346 6
16.5525 0.71649998 1.365 6
16.5425 0.77850002 1.4119999 6
16.5495 0.73549998 1.279 6
16.5495 0.73750001 1.278 6
16.547501 0.75150001 1.2410001 6
16.5425 0.77350003 1.5319999 6
16.554501 0.70450002 1.266 6
16.5495 0.73650002 1.274 6
16.5425 0.76950002 1.587 6
16.5415 0.79049999 1.233 6
16.5515 0.72250003 1.279 6
16.5425 0.77649999 1.517 6
16.5455 0.76749998 1.192 6
16.5425 0.78850001 1.25 6
16.5495 0.73449999 1.307 6
16.547501 0.75449997 1.207 6
16.547501 0.75749999 1.2130001 6
16.5525 0.71749997 1.303 6
16.5425 0.7665 1.642 6
16.5415 0.78250003 1.4680001 6
16.5415 0.79049999 1.229 6
16.540501 0.77749997 1.689 6
16.543501 0.78549999 1.186 6
16.540501 0.79149997 1.479 6
16.5485 0.74550003 1.2309999 6
16.5495 0.73750001 1.247 6
16.547501 0.7475 1.336 6
16.5455 0.7665 1.192 6
16.5415 0.78750002 1.4069999 6
16.5425 0.76849997 1.595 6
16.5425 0.77350003 1.512 6
16.5425 0.7705 1.561 6
16.5415 0.78549999 1.438 6
16.5445 0.76550001 1.377 6
16.5455 0.75150001 1.574 6
16.539499 0.7845 1.665 6
16.5555 0.69849998 1.262 6
16.5445 0.76050001 1.501 6
16.5495 0.73449999 1.36 6
16.5485 0.7385 1.4960001 6
16.5525 0.71850002 1.274 6
16.540501 0.79449999 1.308 6
16.543501 0.78250003 1.24 6
16.5445 0.76950002 1.331 6
16.553499 0.7105 1.304 6
16.5555 0.70050001 1.245 6
16.5415 0.79049999 1.249 6
16.5415 0.78750002 1.411 6
16.5515 0.72350001 1.307 6
16.5445 0.75650001 1.6059999 6
16.546499 0.76249999 1.2130001 6
16.550501 0.7245 1.456 6
16.5415 0.77749997 1.559 6
16.540501 0.78250003 1.635 6
16.5425 0.77450001 1.4910001 6
16.5415 0.79750001 1.2 6
16.546499 0.74650002 1.464 6
16.5485 0.74250001 1.277 6
16.5415 0.78350002 1.382 6
16.5425 0.77249998 1.581 6
16.5415 0.78250003 1.451 6
16.5445 0.76050001 1.47 6
16.553499 0.71149999 1.293 6
16.5495 0.7295 1.434 6
16.540501 0.80049998 1.161 6
16.5425 0.77649999 1.477 6
16.540501 0.78750002 1.455 6
16.5555 0.69749999 1.226 6
16.547501 0.7475 1.322 6
16.5515 0.72049999 1.416 6
16.5485 0.73650002 1.499 6
16.5515 0.71850002 1.365 6
16.540501 0.78049999 1.647 6
16.540501 0.78049999 1.632 6
16.5415 0.77249998 1.669 6
16.5425 0.7755 1.55 6
16.5525 0.72049999 1.23 6
16.5555 0.69749999 1.256 6
16.547501 0.74949998 1.2920001 6
16.543501 0.78149998 1.227 6
16.5425 0.7755 1.4910001 6
16.5425 0.76749998 1.656 6
16.5415 0.78350002 1.5 6
16.5445 0.75950003 1.601 6
16.5525 0.71649998 1.3559999 6
16.5425 0.7665 1.648 6
16.5445 0.76349998 1.4349999 6
16.550501 0.72649997 1.414 6
16.5445 0.76050001 1.4910001 6
16.540501 0.79650003 1.288 6
16.550501 0.72350001 1.452 6
16.5415 0.79250002 1.193 6
16.5485 0.74849999 1.204 6
16.546499 0.75150001 1.398 6
16.547501 0.74650002 1.367 6
16.543501 0.76249999 1.5700001 6
16.547501 0.74650002 1.4529999 6
16.550501 0.72549999 1.39 6
16.5485 0.74949998 1.222 6
16.5485 0.74849999 1.245 6
16.5445 0.76249999 1.4910001 6
16.5415 0.79049999 1.261 6
16.546499 0.75050002 1.522 6
16.553499 0.71149999 1.332 6
16.540501 0.7895 1.4630001 6
16.5495 0.74250001 1.21 6
16.5515 0.72350001 1.353 6
16.5455 0.7665 1.265 6
16.5515 0.72850001 1.235 6
16.5525 0.72149998 1.227 6
16.5515 0.72549999 1.336 6
16.543501 0.76749998 1.507 6
16.5445 0.77149999 1.222 6
16.5455 0.76450002 1.221 6
16.5455 0.7665 1.256 6
16.5425 0.78049999 1.335 6
16.543501 0.77149999 1.36 6
16.546499 0.76249999 1.245 6
16.5425 0.78850001 1.183 6
16.5415 0.78350002 1.465 6
16.540501 0.78649998 1.521 6
16.5425 0.78350002 1.376 6
16.5455 0.75349998 1.5829999 6
16.5415 0.79250002 1.312 6
16.547501 0.74449998 1.415 6
16.5455 0.75849998 1.383 6
16.5515 0.72750002 1.25 6
16.550501 0.73150003 1.248 6
16.539499 0.78649998 1.652 6
16.543501 0.77850002 1.318 6
16.5485 0.74150002 1.3 6
16.547501 0.74449998 1.427 6
16.547501 0.74550003 1.375 6
16.540501 0.78350002 1.594 6
16.5515 0.71850002 1.3710001 6
16.553499 0.71149999 1.331 6
16.546499 0.76050001 1.286 6
16.5485 0.74349999 1.248 6
16.5415 0.78850001 1.418 6
16.550501 0.73049998 1.276 6
16.5555 0.7015 1.225 6
16.554501 0.70649999 1.285 6
16.5425 0.77950001 1.441 6
16.5485 0.74150002 1.313 6
16.5415 0.77649999 1.562 6
16.5485 0.7385 1.37 6
16.554501 0.70850003 1.215 6
16.540501 0.78649998 1.53 6
16.543501 0.76450002 1.592 6
16.550501 0.72850001 1.377 6
16.553499 0.71649998 1.21 6
16.546499 0.75050002 1.409 6
16.5425 0.77450001 1.428 6
16.540501 0.78350002 1.628 6
16.5445 0.77450001 1.188 6
16.547501 0.7525 1.251 6
16.554501 0.70050001 1.324 6
16.5485 0.73650002 1.5140001 6
16.550501 0.73449999 1.2359999 6
16.5525 0.7105 1.364 6
16.540501 0.79350001 1.431 6
16.5415 0.7895 1.293 6
16.550501 0.72750002 1.306 6
16.5495 0.72649997 1.456 6
16.543501 0.76450002 1.6210001 6
16.5415 0.77950001 1.568 6
16.5415 0.79350001 1.256 6
16.5415 0.77649999 1.564 6
16.5415 0.7895 1.273 6
16.546499 0.75749999 1.209 6
16.546499 0.75050002 1.38 6
16.5445 0.77350003 1.199 6
16.540501 0.79750001 1.27 6
16.543501 0.77950001 1.256 6
16.547501 0.75150001 1.263 6
16.546499 0.75849998 1.28 6
16.550501 0.72350001 1.39 6
16.556499 0.69349998 1.277 6
16.550501 0.73750001 1.205 6
16.5525 0.7155 1.332 6
16.5425 0.7705 1.535 6
16.5415 0.79350001 1.189 6
16.5485 0.7335 1.476 6
16.547501 0.73949999 1.533 6
16.5515 0.71950001 1.386 6
16.550501 0.7245 1.446 6
16.5515 0.72049999 1.398 6
16.543501 0.76349998 1.553 6
16.5455 0.76349998 1.313 6
16.5425 0.78549999 1.212 6
16.543501 0.76849997 1.474 6
16.5485 0.74849999 1.266 6
16.5455 0.75849998 1.439 6
16.5495 0.73650002 1.243 6
16.5485 0.73650002 1.506 6
16.540501 0.78549999 1.594 6
16.5455 0.76550001 1.1849999 6
16.546499 0.75749999 1.261 6
16.5415 0.77749997 1.648 6
16.5485 0.74650002 1.204 6
16.5445 0.76450002 1.484 6
16.5445 0.76450002 1.382 6
16.5425 0.77649999 1.3940001 6
16.5515 0.7245 1.301 6
16.5485 0.74150002 1.36 6
16.547501 0.75050002 1.339 6
16.5455 0.7665 1.211 6
16.5425 0.77149999 1.613 6
16.546499 0.76050001 1.248 6
16.5445 0.76550001 1.372 6
16.5485 0.73549998 1.421 6
16.5485 0.74650002 1.221 6
16.540501 0.78149998 1.603 6
16.547501 0.7475 1.325 6
16.5455 0.76249999 1.396 6
16.547501 0.74650002 1.456 6
16.5515 0.71950001 1.408 6
16.5425 0.78350002 1.306 6
16.540501 0.79949999 1.17 6
16.5415 0.78049999 1.474 6
16.5425 0.77850002 1.418 6
16.5515 0.72549999 1.226 6
16.554501 0.70749998 1.293 6
16.553499 0.7105 1.24 6
16.540501 0.80049998 1.164 6
16.553499 0.70850003 1.301 6
16.5445 0.7615 1.5549999 6
16.553499 0.70550001 1.358 6
16.540501 0.78049999 1.655 6
16.5425 0.77850002 1.3660001 6
16.5415 0.79449999 1.166 6
16.546499 0.7615 1.248 6
16.539499 0.78149998 1.737 6
16.5415 0.77350003 1.674 6
16.5445 0.76249999 1.416 6
16.5425 0.77950001 1.428 6
16.543501 0.76450002 1.601 6
16.5455 0.76050001 1.3559999 6
16.546499 0.7475 1.569 6
16.5555 0.69749999 1.229 6
16.5425 0.77450001 1.558 6
16.5485 0.7385 1.469 6
16.5375 0.82950002 0.101 6
16.5355 0.81349999 0.064999998 6
16.540501 0.8635 0.117 6
16.5375 0.82950002 0.086999997 6
16.5385 0.83950001 0.125 6
16.539499 0.84149998 0.15700001 6
16.539499 0.83350003 0.175 6
16.539499 0.84750003 0.163 6
16.539499 0.83749998 0.177 6
16.5375 0.82950002 0.12800001 6
16.536501 0.82249999 0.105 6
16.5375 0.83950001 0.082000002 6
16.539499 0.85149997 0.092 6
16.5425 0.86049998 0.25099999 6
16.540501 0.8495 0.177 6
16.540501 0.85149997 0.197 6
16.540501 0.86650002 0.098999999 6
16.539499 0.84850001 0.123 6
16.539499 0.84850001 0.153 6
16.5375 0.83450001 0.071999997 6
16.536501 0.8265 0.085000001 6
16.543501 0.87650001 0.223 6
16.540501 0.85650003 0.12800001 6
16.5375 0.82749999 0.101 6
16.540501 0.87150002 0.057 6
16.536501 0.81950003 0.081 6
16.539499 0.84750003 0.14 6
16.540501 0.86150002 0.124 6
16.5415 0.85350001 0.249 6
16.5355 0.80849999 0.074000001 6
16.5385 0.8405 0.097999997 6
16.536501 0.83149999 0.054000001 6
16.5375 0.83149999 0.071999997 6
16.540501 0.86549997 0.103 6
16.5385 0.8545 0.039000001 6
16.5445 0.87849998 0.29699999 6
16.539499 0.8585 0.089000002 6
16.543501 0.8775 0.228 6
16.5375 0.83850002 0.083999999 6
16.5385 0.85350001 0.066 6
16.5385 0.83450001 0.168 6
16.5375 0.84350002 0.043000001 6
16.539499 0.84149998 0.171 6
16.5415 0.85650003 0.23199999 6
16.536501 0.81449997 0.1 6
16.539499 0.8635 0.061000001 6
16.5375 0.82550001 0.126 6
16.543501 0.87550002 0.205 6
16.540501 0.85250002 0.185 6
16.5415 0.85350001 0.24600001 6
16.5415 0.86750001 0.133 6
16.5355 0.81449997 0.064999998 6
16.5385 0.8495 0.061000001 6
16.540501 0.8495 0.168 6
16.540501 0.86250001 0.094999999 6
16.5375 0.82450002 0.125 6
16.5415 0.86949998 0.15800001 6
16.5455 0.8775 0.336 6
16.5415 0.86849999 0.164 6
16.5385 0.83050001 0.164 6
16.5425 0.87449998 0.191 6
16.543501 0.87449998 0.213 6
16.5385 0.84549999 0.107 6
16.5385 0.83649999 0.122 6
16.5415 0.86949998 0.138 6
16.539499 0.85650003 0.077 6
16.5415 0.85049999 0.211 6
16.539499 0.86150002 0.059999999 6
16.5385 0.83050001 0.133 6
16.5415 0.86949998 0.138 6
16.540501 0.85149997 0.177 6
16.539499 0.8495 0.12800001 6
16.539499 0.86849999 0.043000001 6
16.539499 0.84249997 0.133 6
16.5415 0.85949999 0.19599999 6
16.539499 0.84549999 0.124 6
16.536501 0.83050001 0.063000001 6
16.5375 0.82950002 0.113 6
16.5425 0.86250001 0.222 6
16.539499 0.8585 0.078000002 6
16.540501 0.8725 0.050000001 6
16.5375 0.82450002 0.115 6
16.5355 0.81349999 0.085000001 6
16.5415 0.86449999 0.148 6
16.5415 0.87150002 0.109 6
16.539499 0.87349999 0.035 6
16.5375 0.82550001 0.133 6
16.543501 0.86849999 0.248 6
16.5415 0.86250001 0.167 6
16.539499 0.85350001 0.133 6
16.5385 0.83950001 0.098999999 6
16.539499 0.86250001 0.071999997 6
16.5375 0.82550001 0.116 6
16.543501 0.87050003 0.23800001 6
16.5415 0.87050003 0.16599999 6
16.543501 0.86750001 0.29899999 6
16.5425 0.86449999 0.24600001 6
16.5425 0.86250001 0.242 6
16.5375 0.8355 0.089000002 6
16.5415 0.8585 0.20999999 6
16.5375 0.8265 0.101 6
16.543501 0.87650001 0.229 6
16.5375 0.83649999 0.045000002 6
16.5425 0.86549997 0.25 6
16.5425 0.87550002 0.17399999 6
16.540501 0.87449998 0.081 6
16.5425 0.87449998 0.211 6
16.539499 0.84750003 0.162 6
16.5385 0.85350001 0.061999999 6
16.5415 0.8545 0.23999999 6
16.539499 0.8635 0.046 6
16.5355 0.81650001 0.054000001 6
16.5385 0.84249997 0.122 6
16.5385 0.83850002 0.12800001 6
16.5375 0.8265 0.097999997 6
16.540501 0.86449999 0.141 6
16.5425 0.86849999 0.19 6
16.5415 0.85350001 0.214 6
16.5425 0.86549997 0.20999999 6
16.5385 0.85250002 0.045000002 6
16.5415 0.87050003 0.124 6
16.5355 0.80949998 0.101 6
16.540501 0.84549999 0.25299999 6
16.540501 0.84149998 0.222 6
16.5375 0.8175 0.31299999 6
16.5415 0.84649998 0.26699999 6
16.536501 0.81449997 0.114 6
16.5375 0.82050002 0.139 6
16.539499 0.83350003 0.222 6
16.536501 0.81349999 0.16599999 6
16.5385 0.82950002 0.19400001 6
16.5355 0.80949998 0.169 6
16.5385 0.82849997 0.221 6
16.5375 0.81449997 0.34099999 6
16.5375 0.81950003 0.167 6
16.5355 0.80549997 0.236 6
16.536501 0.81550002 0.17299999 6
16.536501 0.81150001 0.34400001 6
16.5355 0.80949998 0.22 6
16.539499 0.83649999 0.28799999 6
16.540501 0.84149998 0.294 6
16.536501 0.80949998 0.26800001 6
16.5415 0.8495 0.331 6
16.5415 0.84649998 0.273 6
16.540501 0.8405 0.315 6
16.5385 0.8265 0.19400001 6
16.536501 0.81650001 0.236 6
16.5445 0.86549997 0.36500001 6
16.5375 0.81550002 0.36199999 6
16.5375 0.81950003 0.39700001 6
16.536501 0.8125 0.204 6
16.5355 0.80449998 0.234 6
16.540501 0.83850002 0.366 6
16.5375 0.81950003 0.384 6
16.5375 0.81650001 0.289 6
16.5355 0.80849999 0.20900001 6
16.5385 0.82550001 0.329 6
16.5375 0.8175 0.289 6
16.5355 0.8035 0.235 6
16.5375 0.8175 0.31900001 6
16.536501 0.81550002 0.134 6
16.536501 0.81150001 0.198 6
16.5355 0.80949998 0.19400001 6
16.540501 0.84450001 0.266 6
16.536501 0.81050003 0.29300001 6
16.536501 0.81449997 0.30899999 6
16.5375 0.82450002 0.204 6
16.540501 0.8405 0.287 6
16.540501 0.83950001 0.23100001 6
16.540501 0.83850002 0.38299999 6
16.5415 0.84750003 0.25099999 6
16.539499 0.8355 0.329 6
16.536501 0.81550002 0.126 6
16.5445 0.86949998 0.33500001 6
16.5375 0.8175 0.223 6
16.5415 0.84750003 0.241 6
16.5375 0.8175 0.338 6
16.5375 0.82249999 0.285 6
16.5385 0.83149999 0.206 6
16.540501 0.83850002 0.38299999 6
16.540501 0.8405 0.36899999 6
16.536501 0.81349999 0.219 6
16.543501 0.8585 0.37 6
16.5375 0.82050002 0.182 6
16.536501 0.81449997 0.14 6
16.5445 0.86650002 0.32100001 6
16.5415 0.84649998 0.26300001 6
16.5345 0.80449998 0.072999999 6
16.5415 0.84549999 0.259 6
16.5375 0.82550001 0.153 6
16.5375 0.81349999 0.40700001 6
16.536501 0.81550002 0.257 6
16.540501 0.83950001 0.255 6
16.5385 0.82550001 0.38600001 6
16.5385 0.8265 0.229 6
16.5375 0.82450002 0.214 6
16.5385 0.8265 0.30000001 6
16.5385 0.8265 0.366 6
16.5415 0.84750003 0.28 6
16.539499 0.83249998 0.36899999 6
16.5385 0.82450002 0.34 6
16.5375 0.81950003 0.32300001 6
16.543501 0.86150002 0.336 6
16.5355 0.80650002 0.352 6
16.5385 0.8265 0.333 6
16.5375 0.81550002 0.32300001 6
16.5375 0.82050002 0.2 6
16.539499 0.83649999 0.287 6
16.5425 0.8545 0.35800001 6
16.540501 0.84450001 0.23 6
16.539499 0.83350003 0.28799999 6
16.5425 0.85650003 0.347 6
16.5355 0.80449998 0.285 6
16.5425 0.85350001 0.34099999 6
16.5425 0.85750002 0.36700001 6
16.5415 0.84750003 0.303 6
16.540501 0.8405 0.38299999 6
16.5375 0.82050002 0.331 6
16.5425 0.85949999 0.294 6
16.536501 0.81349999 0.30199999 6
16.5385 0.82349998 0.29899999 6
16.536501 0.81150001 0.31299999 6
16.543501 0.8635 0.336 6
16.5375 0.81650001 0.34 6
16.5375 0.81849998 0.41 6
16.5385 0.82950002 0.17299999 6
16.540501 0.83950001 0.252 6
16.5375 0.82249999 0.27200001 6
16.5355 0.80449998 0.15000001 6
16.5355 0.80449998 0.241 6
16.536501 0.81349999 0.29100001 6
16.5355 0.80549997 0.249 6
16.5415 0.85049999 0.296 6
16.540501 0.84149998 0.38600001 6
16.536501 0.81150001 0.189 6
16.536501 0.81349999 0.28799999 6
16.5345 0.80449998 0.118 6
16.5385 0.82950002 0.228 6
16.5425 0.85650003 0.317 6
16.5425 0.8545 0.336 6
16.5415 0.85149997 0.31999999 6
16.543501 0.8635 0.33399999 6
16.5385 0.82950002 0.28299999 6
16.5375 0.82050002 0.38 6
16.540501 0.84350002 0.223 6
16.5375 0.82349998 0.15800001 6
16.5415 0.8495 0.28799999 6
16.536501 0.81349999 0.27500001 6
16.5355 0.80849999 0.13 6
16.5385 0.82849997 0.278 6
16.5355 0.81050003 0.093000002 6
16.539499 0.83149999 0.32100001 6
16.540501 0.83749998 0.30500001 6
16.5425 0.85350001 0.28600001 6
16.5445 0.86750001 0.33000001 6
16.5375 0.82050002 0.38100001 6
16.5415 0.84750003 0.243 6
16.5445 0.86849999 0.34599999 6
16.5375 0.82849997 0.48199999 6
16.5375 0.81650001 0.639 6
16.539499 0.83249998 0.65600002 6
16.5375 0.8075 0.67299998 6
16.539499 0.84149998 0.64499998 6
16.5375 0.79650003 0.72500002 6
16.5385 0.82349998 0.67500001 6
16.5385 0.82950002 0.63599998 6
16.5375 0.8075 0.69499999 6
16.5385 0.82550001 0.63999999 6
16.536501 0.78350002 0.81400001 6
16.5385 0.81650001 0.67699999 6
16.5385 0.82050002 0.73100001 6
16.5375 0.81449997 0.551 6
16.5375 0.7985 0.75 6
16.540501 0.85049999 0.64999998 6
16.536501 0.80250001 0.60500002 6
16.5375 0.80250001 0.68400002 6
16.539499 0.8405 0.671 6
16.540501 0.86849999 0.57300001 6
16.5415 0.86849999 0.579 6
16.5385 0.82749999 0.64200002 6
16.5375 0.81650001 0.495 6
16.539499 0.83950001 0.65100002 6
16.539499 0.84850001 0.59500003 6
16.5375 0.81650001 0.493 6
16.5375 0.82349998 0.509 6
16.5385 0.82950002 0.50400001 6
16.5375 0.80650002 0.65799999 6
16.5385 0.83850002 0.55500001 6
16.539499 0.84549999 0.61400002 6
16.540501 0.8585 0.57700002 6
16.536501 0.79250002 0.71600002 6
16.5385 0.8355 0.51300001 6
16.539499 0.84649998 0.64600003 6
16.5385 0.8175 0.65100002 6
16.540501 0.85350001 0.63300002 6
16.536501 0.8035 0.53200001 6
16.540501 0.85549998 0.648 6
16.539499 0.83850002 0.639 6
16.5385 0.80650002 0.76200002 6
16.5375 0.80849999 0.72000003 6
16.5385 0.8265 0.69800001 6
16.5375 0.81849998 0.45699999 6
16.5375 0.8035 0.699 6
16.536501 0.79650003 0.59799999 6
16.539499 0.83450001 0.68000001 6
16.539499 0.83749998 0.63200003 6
16.536501 0.80949998 0.53799999 6
16.5385 0.8215 0.71499997 6
16.5375 0.79650003 0.75800002 6
16.5385 0.82050002 0.61000001 6
16.5375 0.79549998 0.727 6
16.539499 0.83749998 0.63499999 6
16.5385 0.82349998 0.57300001 6
16.5375 0.81550002 0.61900002 6
16.540501 0.85549998 0.616 6
16.5385 0.82849997 0.66000003 6
16.540501 0.86650002 0.565 6
16.5375 0.8075 0.59299999 6
16.536501 0.79650003 0.67900002 6
16.5375 0.8075 0.58200002 6
16.539499 0.83749998 0.65799999 6
16.5375 0.82550001 0.491 6
16.5415 0.87150002 0.60100001 6
16.5375 0.81550002 0.52499998 6
16.536501 0.80250001 0.59899998 6
16.5375 0.80949998 0.648 6
16.5375 0.81550002 0.65100002 6
16.5385 0.8265 0.60900003 6
16.536501 0.80849999 0.51499999 6
16.5385 0.8265 0.65700001 6
16.5385 0.83149999 0.55400002 6
16.5385 0.81449997 0.67900002 6
16.536501 0.8035 0.53799999 6
16.536501 0.8075 0.52399999 6
16.5375 0.82749999 0.47799999 6
16.536501 0.78750002 0.778 6
16.5385 0.81050003 0.713 6
16.5375 0.8075 0.65200001 6
16.5385 0.81349999 0.74900001 6
16.5385 0.82849997 0.61500001 6
16.5385 0.83249998 0.546 6
16.536501 0.79449999 0.634 6
16.5385 0.8215 0.71899998 6
16.536501 0.80949998 0.52399999 6
16.539499 0.84549999 0.542 6
16.5385 0.82749999 0.52499998 6
16.5385 0.8265 0.57099998 6
16.536501 0.79650003 0.61699998 6
16.539499 0.84549999 0.60799998 6
16.540501 0.85949999 0.63200003 6
16.5375 0.79149997 0.75800002 6
16.5375 0.8035 0.71600002 6
16.540501 0.85750002 0.59600002 6
16.539499 0.84750003 0.56400001 6
16.536501 0.79650003 0.67199999 6
16.5415 0.87050003 0.61900002 6
16.5375 0.8175 0.49200001 6
16.5385 0.82249999 0.63499999 6
16.5385 0.8355 0.51800001 6
16.536501 0.81150001 0.51800001 6
16.539499 0.85250002 0.53299999 6
16.5385 0.8125 0.71700001 6
16.540501 0.84750003 0.63700002 6
16.5385 0.82749999 0.64200002 6
16.540501 0.8545 0.63300002 6
16.536501 0.79449999 0.62400001 6
16.5375 0.80150002 0.69400001 6
16.5375 0.80150002 0.708 6
16.539499 0.8355 0.66399997 6
16.5375 0.79650003 0.70200002 6
16.5375 0.8125 0.62300003 6
16.536501 0.79949999 0.54799998 6
16.536501 0.80049998 0.53299999 6
16.539499 0.8355 0.69599998 6
16.5385 0.83350003 0.55299997 6
16.5385 0.81849998 0.662 6
16.5375 0.79250002 0.75099999 6
16.539499 0.84450001 0.65700001 6
16.536501 0.80949998 0.45500001 6
16.539499 0.83450001 0.611 6
16.5385 0.8405 0.52700001 6
16.5375 0.81650001 0.537 6
16.5385 0.82550001 0.63099998 6
16.539499 0.8405 0.634 6
16.5375 0.79750001 0.74699998 6
16.5375 0.82349998 0.56 6
16.5375 0.80150002 0.71100003 6
16.539499 0.84450001 0.597 6
16.5375 0.82849997 0.479 6
16.5385 0.81950003 0.71899998 6
16.5415 0.88050002 0.59299999 6
16.5385 0.82749999 0.588 6
16.536501 0.81050003 0.49599999 6
16.5385 0.83649999 0.58200002 6
16.540501 0.8545 0.56900001 6
16.536501 0.80549997 0.56699997 6
16.539499 0.84850001 0.55400002 6
16.5385 0.82749999 0.59200001 6
16.5385 0.83850002 0.56 6
16.5385 0.82950002 0.514 6
16.5375 0.79350001 0.74000001 6
16.536501 0.8125 0.491 6
16.5385 0.82450002 0.61699998 6
16.5375 0.80949998 0.57700002 6
16.540501 0.86150002 0.55400002 6
16.5375 0.81349999 0.57200003 6
16.536501 0.7985 0.565 6
16.5385 0.83249998 0.59399998 6
16.5375 0.79750001 0.70099998 6
16.5385 0.81550002 0.72000003 6
16.539499 0.83649999 0.69099998 6
16.5385 0.8355 0.52700001 6
16.536501 0.80549997 0.43399999 6
16.5375 0.79149997 0.80199999 6
16.5385 0.8355 0.57999998 6
16.5375 0.82749999 0.49700001 6
16.536501 0.79449999 0.66399997 6
16.539499 0.8495 0.52899998 6
16.5375 0.79149997 0.79000002 6
16.539499 0.84249997 0.64700001 6
16.5375 0.79449999 0.727 6
16.539499 0.83350003 0.64399999 6
16.5375 0.8175 0.528 6
16.539499 0.85350001 0.54500002 6
16.536501 0.81150001 0.449 6
16.5375 0.81550002 0.55900002 6
16.540501 0.79549998 1.38 6
16.539499 0.7895 1.619 6
16.5415 0.80549997 1.441 6
16.5455 0.8265 1.477 6
16.5445 0.8265 1.288 6
16.5445 0.8215 1.4069999 6
16.546499 0.83249998 1.409 6
16.543501 0.81550002 1.442 6
16.546499 0.83649999 1.405 6
16.540501 0.79949999 1.239 6
16.5425 0.8075 1.329 6
16.5415 0.8035 1.358 6
16.5455 0.82749999 1.26 6
16.5415 0.80150002 1.651 6
16.546499 0.83450001 1.403 6
16.550501 0.85750002 1.438 6
16.547501 0.83950001 1.499 6
16.5425 0.80949998 1.239 6
16.540501 0.79750001 1.376 6
16.543501 0.81449997 1.487 6
16.546499 0.8355 1.319 6
16.5455 0.82950002 1.353 6
16.540501 0.79750001 1.694 6
16.546499 0.83749998 1.378 6
16.5415 0.8035 1.311 6
16.5425 0.81150001 1.278 6
16.543501 0.81650001 1.515 6
16.5415 0.8035 1.566 6
16.547501 0.84149998 1.447 6
16.5485 0.84750003 1.4 6
16.5485 0.8495 1.35 6
16.540501 0.79750001 1.4809999 6
16.546499 0.83249998 1.456 6
16.5445 0.82349998 1.49 6
16.543501 0.81650001 1.4529999 6
16.547501 0.83950001 1.393 6
16.5425 0.80949998 1.22 6
16.543501 0.8175 1.447 6
16.546499 0.83249998 1.329 6
16.543501 0.81550002 1.472 6
16.5455 0.8265 1.321 6
16.540501 0.79650003 1.6720001 6
16.543501 0.81349999 1.425 6
16.5425 0.80949998 1.633 6
16.5415 0.79949999 1.5599999 6
16.5455 0.82550001 1.515 6
16.5415 0.8035 1.283 6
16.5445 0.8215 1.2690001 6
16.5455 0.82550001 1.541 6
16.5425 0.81150001 1.3890001 6
16.5425 0.8075 1.432 6
16.543501 0.81349999 1.436 6
16.5415 0.80049998 1.289 6
16.546499 0.83149999 1.439 6
16.5455 0.8265 1.545 6
16.546499 0.83749998 1.38 6
16.543501 0.81950003 1.277 6
16.5445 0.82349998 1.383 6
16.5495 0.8545 1.386 6
16.540501 0.79750001 1.372 6
16.540501 0.79350001 1.586 6
16.540501 0.79250002 1.482 6
16.5415 0.80549997 1.2359999 6
16.5425 0.80650002 1.416 6
16.543501 0.81550002 1.374 6
16.5455 0.83149999 1.421 6
16.5415 0.8035 1.275 6
16.5445 0.81849998 1.545 6
16.5415 0.80150002 1.511 6
16.5425 0.80849999 1.6390001 6
16.543501 0.8125 1.632 6
16.5455 0.83050001 1.415 6
16.5425 0.8075 1.289 6
16.543501 0.81550002 1.427 6
16.546499 0.83749998 1.443 6
16.543501 0.8175 1.331 6
16.5425 0.8075 1.285 6
16.5445 0.82550001 1.272 6
16.540501 0.79750001 1.281 6
16.547501 0.84149998 1.392 6
16.546499 0.83350003 1.418 6
16.546499 0.83749998 1.398 6
16.5455 0.8265 1.388 6
16.5445 0.82050002 1.344 6
16.5415 0.80150002 1.388 6
16.546499 0.83450001 1.402 6
16.5445 0.82249999 1.365 6
16.5425 0.81050003 1.489 6
16.5425 0.8125 1.219 6
16.5415 0.80449998 1.527 6
16.5425 0.81349999 1.311 6
16.540501 0.7985 1.432 6
16.547501 0.8405 1.376 6
16.5495 0.85149997 1.38 6
16.547501 0.84450001 1.36 6
16.540501 0.79949999 1.291 6
16.543501 0.81650001 1.534 6
16.5425 0.80949998 1.329 6
16.550501 0.86150002 1.4 6
16.5445 0.82450002 1.498 6
16.5425 0.80650002 1.455 6
16.546499 0.83350003 1.513 6
16.543501 0.81449997 1.2359999 6
16.540501 0.79350001 1.451 6
16.5455 0.82749999 1.424 6
16.5495 0.85250002 1.447 6
16.5425 0.80549997 1.669 6
16.5415 0.80449998 1.372 6
16.539499 0.78850001 1.697 6
16.5455 0.82950002 1.271 6
16.547501 0.84350002 1.37 6
16.5415 0.79949999 1.544 6
16.540501 0.79549998 1.52 6
16.546499 0.83249998 1.307 6
16.543501 0.8175 1.314 6
16.5415 0.80449998 1.273 6
16.5455 0.82849997 1.429 6
16.5415 0.80549997 1.3049999 6
16.543501 0.81550002 1.521 6
16.550501 0.86150002 1.404 6
16.5445 0.82550001 1.311 6
16.5425 0.80849999 1.3200001 6
16.5425 0.8075 1.364 6
16.543501 0.81550002 1.483 6
16.5415 0.80549997 1.318 6
16.543501 0.81449997 1.581 6
16.540501 0.79650003 1.6289999 6
16.5415 0.80049998 1.682 6
16.540501 0.79650003 1.462 6
16.543501 0.81349999 1.429 6
16.5425 0.81050003 1.446 6
16.5485 0.84450001 1.38 6
16.5425 0.81050003 1.523 6
16.5445 0.82450002 1.368 6
16.5425 0.80849999 1.631 6
16.543501 0.81650001 1.53 6
16.5495 0.85650003 1.398 6
16.5495 0.85049999 1.4119999 6
16.5425 0.81050003 1.6289999 6
16.539499 0.79049999 1.733 6
16.543501 0.81550002 1.567 6
16.5485 0.84549999 1.431 6
16.546499 0.83649999 1.311 6
16.5455 0.82550001 1.443 6
16.5425 0.8075 1.459 6
16.5415 0.80449998 1.368 6
16.5425 0.80650002 1.6569999 6
16.546499 0.83749998 1.329 6
16.5425 0.80949998 1.6289999 6
16.543501 0.8175 1.291 6
16.543501 0.81449997 1.582 6
16.5455 0.82950002 1.455 6
16.547501 0.84149998 1.41 6
16.5455 0.83050001 1.399 6
16.543501 0.81550002 1.25 6
16.5425 0.81150001 1.513 6
16.550501 0.86150002 1.406 6
16.5415 0.80049998 1.5470001 6
16.543501 0.81849998 1.304 6
16.5425 0.81050003 1.482 6
16.5425 0.80849999 1.223 6
16.540501 0.79350001 1.6670001 6
16.5495 0.85350001 1.414 6
16.5445 0.81950003 1.563 6
16.543501 0.81550002 1.335 6
16.5415 0.80150002 1.308 6
16.540501 0.79250002 1.651 6
16.543501 0.81550002 1.3609999 6
16.5485 0.84450001 1.494 6
16.5495 0.85350001 1.455 6
16.540501 0.79949999 1.23 6
16.540501 0.79650003 1.383 6
16.5445 0.81950003 1.428 6
16.5425 0.8125 1.325 6
16.543501 0.81550002 1.211 6
16.5415 0.80049998 1.475 6
16.5445 0.82450002 1.267 6
16.5485 0.84549999 1.437 6
16.5425 0.81150001 1.405 6
16.540501 0.79750001 1.5779999 6
16.5415 0.80250001 1.296 6
16.546499 0.83749998 1.423 6
16.5425 0.81050003 1.4220001 6
16.543501 0.8175 1.34 6
16.5425 0.81050003 1.367 6
16.5425 0.80650002 1.5470001 6
16.543501 0.81349999 1.405 6
16.543501 0.81349999 1.515 6
16.543501 0.8175 1.506 6
16.540501 0.79350001 1.474 6
16.5425 0.8075 1.368 6
16.543501 0.81449997 1.4 6
16.546499 0.83450001 1.405 6
16.543501 0.81650001 1.455 6
16.5455 0.83149999 1.362 6
16.5415 0.8075 1.191 6
16.5445 0.8215 1.2410001 6
16.5445 0.82349998 1.258 6
16.546499 0.83350003 1.363 6
16.543501 0.81650001 1.467 6
16.5415 0.8035 1.221 6
16.546499 0.83149999 1.499 6
16.543501 0.8175 1.401 6
16.5455 0.82950002 1.277 6
16.540501 0.80049998 1.288 6
16.5445 0.82249999 1.351 6
16.5455 0.8265 1.437 6
16.5425 0.8075 1.25 6
16.540501 0.79449999 1.518 6
16.5425 0.81050003 1.63 6
16.5425 0.80849999 1.649 6
16.547501 0.84450001 1.348 6
16.539499 0.78750002 1.748 6
16.5425 0.81150001 1.33 6
16.5485 0.84549999 1.4630001 6
16.5425 0.81050003 1.29 6
16.540501 0.79250002 1.732 6
16.547501 0.85549998 1.689 6
16.5455 0.82550001 1.586 6
16.546499 0.85049999 1.707 6
16.547501 0.85549998 1.689 6
16.5415 0.80949998 1.751 6
16.546499 0.83649999 1.569 6
16.547501 0.84549999 1.598 6
16.547501 0.84850001 1.562 6
16.5445 0.82450002 1.653 6
16.543501 0.81349999 1.641 6
16.5455 0.83749998 1.692 6
16.5495 0.85549998 1.487 6
16.547501 0.84649998 1.624 6
16.5445 0.8215 1.615 6
16.550501 0.86449999 1.5089999 6
16.543501 0.82249999 1.684 6
16.5485 0.86449999 1.689 6
16.5455 0.83149999 1.6569999 6
16.5485 0.8545 1.577 6
16.5425 0.81349999 1.714 6
16.5455 0.83350003 1.698 6
16.5455 0.82950002 1.6440001 6
16.547501 0.84850001 1.604 6
16.5495 0.85350001 1.487 6
16.546499 0.83749998 1.631 6
16.5485 0.8545 1.574 6
16.540501 0.79250002 1.753 6
16.5495 0.85650003 1.543 6
16.5485 0.8585 1.617 6
16.543501 0.82450002 1.742 6
16.546499 0.8355 1.586 6
16.5455 0.83249998 1.625 6
16.550501 0.86449999 1.51 6
16.5495 0.85750002 1.495 6
16.547501 0.84850001 1.562 6
16.5445 0.82550001 1.653 6
16.547501 0.85049999 1.6 6
16.5455 0.83249998 1.596 6
16.5485 0.85149997 1.492 6
16.550501 0.8635 1.479 6
16.5485 0.84850001 1.497 6
16.546499 0.83249998 1.559 6
16.543501 0.82450002 1.712 6
16.547501 0.86049998 1.701 6
16.547501 0.85149997 1.645 6
16.547501 0.84350002 1.541 6
16.543501 0.82050002 1.6720001 6
16.5495 0.85650003 1.457 6
16.543501 0.81950003 1.7079999 6
16.5455 0.83950001 1.701 6
16.546499 0.84249997 1.694 6
16.5495 0.8545 1.457 6
16.547501 0.84149998 1.576 6
16.540501 0.7985 1.734 6
16.546499 0.83350003 1.581 6
16.5485 0.85350001 1.573 6
16.550501 0.86449999 1.457 6
16.540501 0.7985 1.7309999 6
16.5445 0.8215 1.643 6
16.5455 0.84249997 1.719 6
16.5425 0.81349999 1.73 6
16.5455 0.8265 1.6 6
16.5455 0.83749998 1.719 6
16.5415 0.81050003 1.751 6
16.543501 0.81150001 1.651 6
16.546499 0.84750003 1.675 6
16.5445 0.8215 1.613 6
16.5455 0.83149999 1.663 6
16.5415 0.80250001 1.707 6
16.5425 0.81449997 1.74 6
16.546499 0.84450001 1.669 6
16.5485 0.85650003 1.59 6
16.547501 0.85949999 1.721 6
16.5415 0.80449998 1.705 6
16.543501 0.82349998 1.742 6
16.5455 0.83050001 1.6210001 6
16.543501 0.81849998 1.714 6
16.5455 0.83149999 1.595 6
16.5455 0.83350003 1.614 6
16.546499 0.84850001 1.677 6
16.546499 0.85049999 1.742 6
16.543501 0.82050002 1.73 6
16.546499 0.83749998 1.623 6
16.5485 0.85949999 1.579 6
16.550501 0.86049998 1.442 6
16.547501 0.85350001 1.67 6
16.547501 0.84750003 1.6109999 6
16.5425 0.8125 1.7410001 6
16.5485 0.86449999 1.6440001 6
16.547501 0.85650003 1.692 6
16.543501 0.81550002 1.649 6
16.5415 0.80250001 1.742 6
16.550501 0.8635 1.512 6
16.5455 0.83749998 1.701 6
16.546499 0.84350002 1.636 6
16.543501 0.81449997 1.6619999 6
16.543501 0.81950003 1.7 6
16.540501 0.79650003 1.727 6
16.5485 0.86449999 1.722 6
16.543501 0.81449997 1.693 6
16.547501 0.8405 1.5599999 6
16.547501 0.85549998 1.677 6
16.5445 0.8215 1.618 6
16.5485 0.85149997 1.503 6
16.5485 0.84750003 1.543 6
16.5445 0.82550001 1.65 6
16.5415 0.8035 1.725 6
16.5445 0.82550001 1.646 6
16.546499 0.84850001 1.747 6
16.5485 0.84750003 1.501 6
16.5425 0.8125 1.739 6
16.5485 0.85549998 1.55 6
16.5485 0.86449999 1.682 6
16.547501 0.84850001 1.592 6
16.547501 0.84549999 1.572 6
16.5495 0.85250002 1.489 6
16.543501 0.82050002 1.669 6
16.543501 0.82349998 1.714 6
16.5485 0.8495 1.55 6
16.543501 0.81849998 1.723 6
16.547501 0.83950001 1.522 6
16.5485 0.85250002 1.516 6
16.543501 0.82249999 1.6900001 6
16.547501 0.85149997 1.614 6
16.539499 0.79049999 1.76 6
16.547501 0.84549999 1.607 6
16.540501 0.79549998 1.734 6
16.5415 0.80250001 1.729 6
16.543501 0.82249999 1.7539999 6
16.546499 0.84450001 1.71 6
16.547501 0.84649998 1.604 6
16.5495 0.85149997 1.473 6
16.543501 0.82249999 1.727 6
16.540501 0.7985 1.758 6
16.5455 0.86250001 1.977 6
16.5445 0.83350003 1.76 6
16.5415 0.82249999 1.897 6
16.5425 0.82349998 1.794 6
16.543501 0.83950001 1.858 6
16.543501 0.82749999 1.806 6
16.5455 0.85049999 1.8150001 6
16.547501 0.86250001 1.774 6
16.546499 0.86549997 1.888 6
16.5445 0.84249997 1.807 6
16.543501 0.84249997 1.911 6
16.546499 0.84850001 1.753 6
16.5445 0.85549998 1.947 6
16.543501 0.83649999 1.9119999 6
16.540501 0.80949998 1.848 6
16.5425 0.81550002 1.7589999 6
16.547501 0.86150002 1.801 6
16.539499 0.7895 1.777 6
16.546499 0.86150002 1.895 6
16.5425 0.83249998 1.9400001 6
16.5445 0.84350002 1.881 6
16.5455 0.83950001 1.768 6
16.5445 0.83649999 1.77 6
16.543501 0.82749999 1.768 6
16.5445 0.85650003 1.937 6
16.543501 0.82749999 1.806 6
16.5445 0.84649998 1.86 6
16.543501 0.85549998 2.0380001 6
16.546499 0.86650002 1.927 6
16.543501 0.84249997 1.952 6
16.546499 0.85949999 1.8559999 6
16.546499 0.85949999 1.859 6
16.546499 0.85750002 1.85 6
16.5455 0.85149997 1.8839999 6
16.5415 0.82849997 1.937 6
16.5415 0.82849997 1.934 6
16.5445 0.84149998 1.867 6
16.5455 0.84549999 1.793 6
16.5445 0.85949999 2.0109999 6
16.5415 0.8175 1.862 6
16.5445 0.84549999 1.869 6
16.5425 0.82050002 1.85 6
16.546499 0.86650002 1.8839999 6
16.5415 0.82550001 1.919 6
16.543501 0.8495 1.971 6
16.5445 0.84549999 1.909 6
16.5425 0.83450001 1.9 6
16.5455 0.84549999 1.758 6
16.543501 0.83950001 1.875 6
16.5425 0.81950003 1.821 6
16.5445 0.85350001 1.938 6
16.5425 0.83249998 1.887 6
16.5425 0.83249998 1.931 6
16.543501 0.82950002 1.76 6
16.539499 0.79549998 1.798 6
16.5425 0.82749999 1.904 6
16.5445 0.86449999 2.0680001 6
16.5455 0.85049999 1.8279999 6
16.546499 0.85350001 1.801 6
16.547501 0.8635 1.778 6
16.540501 0.79949999 1.818 6
16.5415 0.80849999 1.819 6
16.5425 0.83350003 1.895 6
16.5425 0.82050002 1.832 6
16.547501 0.86250001 1.8150001 6
16.543501 0.8545 2.0209999 6
16.5425 0.82849997 1.847 6
16.539499 0.79149997 1.777 6
16.540501 0.8035 1.791 6
16.543501 0.82749999 1.755 6
16.546499 0.85949999 1.817 6
16.546499 0.86650002 1.9349999 6
16.5445 0.85149997 1.892 6
16.546499 0.85350001 1.817 6
16.5415 0.80949998 1.816 6
16.5455 0.86150002 1.916 6
16.543501 0.83950001 1.947 6
16.540501 0.80150002 1.784 6
16.5425 0.82349998 1.8710001 6
16.5415 0.81050003 1.8380001 6
16.5425 0.8355 1.938 6
16.5425 0.83450001 1.906 6
16.5455 0.86650002 2.0350001 6
16.5445 0.83749998 1.835 6
16.5425 0.82749999 1.839 6
16.5445 0.84149998 1.824 6
16.546499 0.86150002 1.8559999 6
16.543501 0.82950002 1.848 6
16.5455 0.8495 1.789 6
16.5445 0.8545 1.998 6
16.5425 0.81849998 1.824 6
16.5455 0.84649998 1.816 6
16.543501 0.82349998 1.7819999 6
16.543501 0.84850001 1.951 6
16.543501 0.84149998 1.901 6
16.543501 0.84750003 1.957 6
16.5425 0.83249998 1.921 6
16.5455 0.86750001 2.017 6
16.540501 0.80250001 1.83 6
16.547501 0.86150002 1.757 6
16.546499 0.8495 1.7589999 6
16.546499 0.8585 1.803 6
16.547501 0.86250001 1.794 6
16.5445 0.8585 2.016 6
16.5425 0.83649999 1.964 6
16.5455 0.84350002 1.779 6
16.5425 0.82050002 1.834 6
16.543501 0.82450002 1.781 6
16.547501 0.85949999 1.772 6
16.5445 0.84850001 1.899 6
16.5455 0.86949998 2.053 6
16.5455 0.84450001 1.809 6
16.5415 0.8175 1.845 6
16.5455 0.86150002 1.943 6
16.5415 0.81550002 1.835 6
16.543501 0.83749998 1.892 6
16.547501 0.86449999 1.824 6
16.5445 0.83850002 1.762 6
16.5455 0.86449999 1.927 6
16.543501 0.84450001 1.911 6
16.5455 0.85250002 1.839 6
16.543501 0.85549998 2.0280001 6
16.5455 0.84649998 1.775 6
16.546499 0.8585 1.803 6
16.5455 0.86049998 1.933 6
16.5425 0.81150001 1.763 6
16.5415 0.80849999 1.814 6
16.543501 0.83149999 1.788 6
16.5425 0.8265 1.8789999 6
16.5445 0.85149997 1.897 6
16.5445 0.86849999 2.079 6
16.5445 0.85149997 1.9220001 6
16.5425 0.82450002 1.813 6
16.543501 0.83850002 1.929 6
16.5445 0.83350003 1.795 6
16.5445 0.86449999 2.082 6
16.543501 0.84649998 1.993 6
16.547501 0.86150002 1.785 6
16.543501 0.83749998 1.897 6
16.5445 0.85750002 2.0339999 6
16.540501 0.7985 1.773 6
16.5445 0.83149999 1.765 6
16.543501 0.84149998 1.92 6
16.5425 0.8265 1.853 6
16.539499 0.79250002 1.85 6
16.539499 0.79449999 1.823 6
16.543501 0.8495 2.1029999 6
16.540501 0.81150001 2.0469999 6
16.540501 0.80449998 1.99 6
16.5425 0.83450001 2.0190001 6
16.540501 0.8035 2.1129999 6
16.5415 0.81849998 1.9579999 6
16.539499 0.79549998 1.858 6
16.540501 0.8075 1.942 6
16.540501 0.80549997 1.895 6
16.5415 0.81950003 1.929 6
16.539499 0.79549998 2.0829999 6
16.539499 0.78750002 1.783 6
16.539499 0.80150002 2.082 6
16.539499 0.80049998 1.962 6
16.543501 0.86049998 2.066 6
16.540501 0.8075 1.973 6
16.540501 0.81449997 1.938 6
16.5425 0.83749998 2.006 6
16.539499 0.7895 1.8049999 6
16.5415 0.82050002 2.1040001 6
16.5415 0.82950002 2.0539999 6
16.540501 0.81550002 1.992 6
16.5445 0.86750001 2.0969999 6
16.5415 0.82550001 2.1070001 6
16.539499 0.79149997 1.8099999 6
16.5425 0.83350003 2.026 6
16.540501 0.80949998 1.906 6
16.5425 0.83350003 2.0639999 6
16.539499 0.7985 1.944 6
16.540501 0.8075 1.964 6
16.5425 0.83749998 2 6
16.539499 0.79549998 2.1340001 6
16.539499 0.79149997 1.849 6
16.540501 0.80849999 2.1300001 6
16.543501 0.85049999 2.0580001 6
16.539499 0.79750001 2.108 6
16.540501 0.80449998 1.9680001 6
16.5425 0.83649999 2.016 6
16.543501 0.8495 2.0250001 6
16.5415 0.8175 1.975 6
16.539499 0.79650003 1.9680001 6
16.539499 0.79750001 1.892 6
16.5425 0.83850002 2.075 6
16.5425 0.83649999 2.0810001 6
16.5415 0.82550001 2.1140001 6
16.5425 0.83749998 2.1199999 6
16.540501 0.81349999 2.053 6
16.539499 0.79549998 2.027 6
16.539499 0.80150002 2.0840001 6
16.540501 0.80849999 2.0929999 6
16.5415 0.81849998 2.092 6
16.5415 0.83050001 2.007 6
16.543501 0.85149997 2.0840001 6
16.540501 0.8125 1.979 6
16.5415 0.81650001 1.988 6
16.5415 0.82749999 2.017 6
16.539499 0.79549998 1.819 6
16.539499 0.79449999 2.0539999 6
16.5445 0.86150002 2.0929999 6
16.543501 0.85949999 2.096 6
16.5425 0.83450001 2.0090001 6
16.539499 0.79149997 1.83 6
16.539499 0.79250002 2.039 6
16.5415 0.8175 1.972 6
16.540501 0.81349999 2.043 6
16.540501 0.80250001 2.017 6
16.540501 0.81449997 2.0109999 6
16.539499 0.79449999 1.878 6
16.540501 0.81349999 2.056 6
16.543501 0.85049999 2.039 6
16.539499 0.7985 1.891 6
16.5415 0.81950003 1.9680001 6
16.5415 0.82550001 1.943 6
16.540501 0.81050003 2.122 6
16.540501 0.8125 1.985 6
16.5425 0.83450001 1.992 6
16.540501 0.8125 2.0450001 6
16.540501 0.81449997 2.0139999 6
16.540501 0.80549997 2.0550001 6
16.540501 0.80650002 1.967 6
16.539499 0.7985 1.941 6
16.5425 0.84649998 2.095 6
16.539499 0.80150002 2.0569999 6
16.540501 0.8075 1.8789999 6
16.5415 0.8265 1.9859999 6
16.5415 0.82050002 1.951 6
16.5415 0.82950002 2.0769999 6
16.539499 0.79549998 2.1289999 6
16.540501 0.8125 2.1170001 6
16.540501 0.80650002 1.972 6
16.539499 0.7985 2.082 6
16.5425 0.84350002 2.0510001 6
16.543501 0.85549998 2.1059999 6
16.5425 0.83450001 2.02 6
16.539499 0.79449999 1.924 6
16.5415 0.82950002 2.0739999 6
16.543501 0.85149997 2.0769999 6
16.540501 0.81449997 2.073 6
16.540501 0.80549997 1.988 6
16.5415 0.81650001 2.036 6
16.5415 0.8265 1.931 6
16.540501 0.8035 1.99 6
16.5425 0.84450001 2.0380001 6
16.539499 0.80049998 1.9960001 6
16.543501 0.84750003 2.0869999 6
16.5415 0.82849997 2.0209999 6
16.540501 0.8125 1.959 6
16.543501 0.8545 2.0569999 6
16.540501 0.8075 1.864 6
16.5425 0.84549999 2.079 6
16.5425 0.83149999 2.0280001 6
16.5415 0.82749999 1.952 6
16.539499 0.7895 1.807 6
16.540501 0.80849999 1.971 6
16.5415 0.82349998 2.007 6
16.540501 0.8125 1.902 6
16.5415 0.8265 2.053 6
16.540501 0.8035 2.1400001 6
16.5415 0.82249999 1.914 6
16.539499 0.78750002 1.8430001 6
16.539499 0.79750001 1.865 6
16.540501 0.80250001 1.8940001 6
16.5415 0.81849998 1.992 6
16.5415 0.8215 2.026 6
16.539499 0.79350001 1.938 6
16.543501 0.85049999 2.0569999 6
16.5415 0.81950003 2.095 6
16.5415 0.8265 2.0309999 6
16.539499 0.79949999 2.0710001 6
16.5415 0.83050001 2.023 6
16.539499 0.79549998 2.039 6
16.5415 0.8215 1.939 6
16.5415 0.81950003 1.943 6
16.539499 0.7985 2.072 6
16.5415 0.82450002 2.0250001 6
16.539499 0.79149997 1.829 6
16.540501 0.80949998 1.9809999 6
16.543501 0.85350001 2.082 6
16.540501 0.80849999 1.946 6
16.5425 0.83350003 2.112 6
16.5425 0.84549999 2.0090001 6
16.540501 0.81449997 2.056 6
16.543501 0.84850001 2.082 6
16.543501 0.85350001 2.0910001 6
16.5415 0.82050002 1.956 6
16.539499 0.7985 1.865 6
16.539499 0.8405 0.456 6
16.5425 0.86250001 0.42899999 6
16.543501 0.86949998 0.40400001 6
16.540501 0.86250001 0.53899997 6
16.539499 0.84149998 0.465 6
16.540501 0.85650003 0.54000002 6
16.5385 0.8265 0.44 6
16.540501 0.85149997 0.493 6
16.5375 0.81449997 0.42899999 6
16.540501 0.85549998 0.53200001 6
16.543501 0.86150002 0.375 6
16.540501 0.84249997 0.412 6
16.539499 0.85049999 0.50800002 6
16.540501 0.84149998 0.421 6
16.539499 0.8355 0.426 6
16.5425 0.86549997 0.43399999 6
16.5425 0.87550002 0.53600001 6
16.5425 0.86650002 0.456 6
16.540501 0.8585 0.53200001 6
16.543501 0.87150002 0.41600001 6
16.539499 0.84350002 0.49200001 6
16.5445 0.87050003 0.37400001 6
16.543501 0.86250001 0.38299999 6
16.539499 0.83950001 0.46399999 6
16.5385 0.83749998 0.49599999 6
16.540501 0.8405 0.398 6
16.5445 0.86949998 0.39500001 6
16.5425 0.85650003 0.41999999 6
16.5425 0.86150002 0.44499999 6
16.539499 0.84149998 0.46900001 6
16.5445 0.87550002 0.42199999 6
16.5425 0.86849999 0.45199999 6
16.543501 0.86150002 0.38 6
16.5415 0.8585 0.479 6
16.540501 0.86549997 0.55599999 6
16.5415 0.8545 0.461 6
16.5415 0.84750003 0.39199999 6
16.539499 0.8405 0.47799999 6
16.5425 0.86750001 0.46700001 6
16.5385 0.82550001 0.42699999 6
16.5385 0.8265 0.41800001 6
16.540501 0.85250002 0.50999999 6
16.540501 0.84850001 0.48199999 6
16.543501 0.86650002 0.43099999 6
16.5425 0.87849998 0.57200003 6
16.5385 0.83850002 0.495 6
16.5425 0.87150002 0.5 6
16.5415 0.85049999 0.419 6
16.5425 0.86949998 0.48100001 6
16.543501 0.8775 0.49399999 6
16.5415 0.87550002 0.56999999 6
16.543501 0.86449999 0.38499999 6
16.543501 0.86650002 0.41800001 6
16.540501 0.85149997 0.45500001 6
16.540501 0.84649998 0.419 6
16.5415 0.86049998 0.46700001 6
16.540501 0.84149998 0.39399999 6
16.5375 0.81449997 0.42300001 6
16.5425 0.87050003 0.479 6
16.5425 0.86549997 0.46799999 6
16.5425 0.85750002 0.40700001 6
16.5425 0.86650002 0.48300001 6
16.540501 0.83749998 0.403 6
16.540501 0.85949999 0.54400003 6
16.5415 0.8585 0.45500001 6
16.540501 0.84249997 0.40599999 6
16.540501 0.83950001 0.398 6
16.5415 0.84450001 0.39300001 6
16.540501 0.86549997 0.55299997 6
16.5425 0.87949997 0.56800002 6
16.540501 0.8585 0.53100002 6
16.539499 0.83450001 0.43599999 6
16.5425 0.86449999 0.43900001 6
16.5415 0.84850001 0.38800001 6
16.5425 0.87050003 0.51200002 6
16.5425 0.86750001 0.48100001 6
16.540501 0.84350002 0.41600001 6
16.5425 0.88050002 0.57800001 6
16.5385 0.82749999 0.43799999 6
16.540501 0.84249997 0.42699999 6
16.540501 0.84149998 0.40400001 6
16.5415 0.85650003 0.458 6
16.543501 0.8775 0.458 6
16.5425 0.86650002 0.48699999 6
16.5455 0.87949997 0.38 6
16.5385 0.82849997 0.41999999 6
16.540501 0.8585 0.50700003 6
16.543501 0.87550002 0.477 6
16.5445 0.86049998 0.87400001 6
16.540501 0.84549999 0.70099998 6
16.5425 0.84350002 0.87400001 6
16.5455 0.87050003 0.88 6
16.5425 0.86849999 0.68800002 6
16.539499 0.83749998 0.71100003 6
16.543501 0.8635 0.78600001 6
16.5415 0.84450001 0.778 6
16.543501 0.86250001 0.84399998 6
16.5385 0.81849998 0.741 6
16.5425 0.84850001 0.82200003 6
16.5445 0.87349999 0.80599999 6
16.539499 0.81950003 0.81099999 6
16.5415 0.85750002 0.71600002 6
16.5385 0.81550002 0.75199997 6
16.5445 0.86750001 0.83600003 6
16.539499 0.81150001 0.83600003 6
16.5415 0.83050001 0.87400001 6
16.539499 0.82749999 0.71899998 6
16.539499 0.82050002 0.79900002 6
16.540501 0.83950001 0.75 6
16.543501 0.87050003 0.76800001 6
16.5415 0.84149998 0.77999997 6
16.5425 0.84750003 0.82200003 6
16.540501 0.8355 0.75700003 6
16.5385 0.80250001 0.83200002 6
16.5415 0.86849999 0.63800001 6
16.540501 0.82050002 0.861 6
16.5385 0.81150001 0.76499999 6
16.5415 0.84750003 0.801 6
16.5375 0.79949999 0.79299998 6
16.5415 0.87050003 0.63300002 6
16.5425 0.84850001 0.81099999 6
16.5415 0.84649998 0.80599999 6
