# .PCD v0.7 - Point Cloud Data file format
VERSION 0.7
FIELDS x y z label
SIZE 4 4 4 4
TYPE F F F U
COUNT 1 1 1 1
WIDTH 1677
HEIGHT 1
VIEWPOINT 0 0 0 1 0 0 0
POINTS 1677
DATA ascii
17.244499 3.7525001 0.75700003 3
17.525499 4.0725002 0.75800002 3
17.3165 3.7625 0.75800002 3
17.1985 3.7574999 0.75700003 3
17.276501 3.8575001 0.75700003 3
17.3645 3.9395001 0.75700003 3
17.435499 3.9475 0.75800002 3
17.348499 3.8824999 0.75800002 3
17.407499 3.8724999 0.75800002 3
17.3585 3.9305 0.75700003 3
17.4275 3.9985001 0.75800002 3
17.3745 3.9695001 0.75700003 3
17.2015 3.7525001 0.75700003 3
17.3305 3.8195 0.75800002 3
17.252501 3.8715 0.75700003 3
17.2465 3.8625 0.75700003 3
17.2125 3.8434999 0.75700003 3
17.2635 3.7744999 0.75700003 3
17.365499 3.9265001 0.75700003 3
17.290501 3.8285 0.75700003 3
17.4035 3.9465001 0.75800002 3
17.206499 3.8295 0.75700003 3
17.112499 3.7765 0.75700003 3
17.165501 3.7725 0.75700003 3
17.3955 3.9224999 0.75800002 3
17.1105 3.7995 0.75700003 3
17.286501 3.8164999 0.75700003 3
17.3545 3.9024999 0.75700003 3
17.2285 3.8195 0.75700003 3
17.234501 3.8505001 0.75700003 3
17.1915 3.7895 0.75700003 3
17.2125 3.7535 0.75700003 3
17.3985 3.8794999 0.75800002 3
17.269501 3.8785 0.75700003 3
17.5145 4.0355 0.75800002 3
17.4685 3.9795001 0.75800002 3
17.2425 3.8145001 0.75700003 3
17.377501 3.9614999 0.75700003 3
17.2915 3.8794999 0.75700003 3
17.341499 3.7685001 0.75800002 3
17.3195 3.7795 0.75800002 3
17.181499 3.8425 0.75700003 3
17.3155 3.7795 0.75800002 3
17.3645 3.9595001 0.75700003 3
17.262501 3.8555 0.75700003 3
17.3085 3.9354999 0.75700003 3
17.293501 3.9085 0.75700003 3
17.3545 3.8755 0.75800002 3
17.4765 3.9784999 0.75800002 3
17.2955 3.8694999 0.75700003 3
17.445499 3.9755001 0.75800002 3
17.1695 3.8345001 0.75700003 3
17.304501 3.8455 0.75700003 3
17.2855 3.8685 0.75700003 3
17.4375 3.9744999 0.75800002 3
17.2915 3.8475001 0.75700003 3
17.4965 4.0124998 0.75800002 3
17.2675 3.9115 0.75700003 3
17.349501 3.9335001 0.75700003 3
17.2145 3.7744999 0.75700003 3
17.473499 3.9914999 0.75800002 3
17.1775 3.7715001 0.75700003 3
17.2955 3.9235001 0.75700003 3
17.4265 3.9284999 0.75800002 3
17.2665 3.7685001 0.75700003 3
17.3475 3.8724999 0.75800002 3
17.365499 3.8264999 0.75800002 3
17.168501 3.8425 0.75700003 3
17.2945 3.8965001 0.75700003 3
17.272499 3.8264999 0.75700003 3
17.393499 3.9655001 0.75700003 3
17.3745 3.9235001 0.75800002 3
17.365499 3.9484999 0.75700003 3
17.2325 3.8115001 0.75700003 3
17.3885 3.8585 0.75800002 3
17.508499 4.0254998 0.75800002 3
17.428499 2.9525001 0.74000001 3
17.452499 2.9484999 0.73900002 3
17.532499 2.9375 0.73400003 3
17.570499 2.9675 0.75099999 3
17.561501 2.9695001 0.75199997 3
17.4515 2.9535 0.741 3
17.4615 2.9535 0.741 3
17.570499 2.9475 0.741 3
17.5875 2.9665 0.75099999 3
17.5555 2.9575 0.745 3
17.477501 2.9514999 0.741 3
17.473499 2.9535 0.74199998 3
17.550501 2.9484999 0.74000001 3
17.498501 2.9514999 0.741 3
17.522499 2.9565001 0.74400002 3
17.5965 2.9645 0.75 3
17.5245 2.9495001 0.741 3
17.490499 2.9375 0.73400003 3
17.598499 2.9614999 0.74900001 3
17.5895 2.9684999 0.75199997 3
17.4785 2.9375 0.73299998 3
17.6105 2.9684999 0.75199997 3
17.6325 2.9775 0.75800002 3
17.411501 2.9454999 0.736 3
17.5695 2.9554999 0.745 3
17.4685 2.9575 0.74400002 3
17.5625 2.9695001 0.75199997 3
17.491501 2.9514999 0.741 3
17.460501 2.9445 0.73699999 3
17.502501 2.9465001 0.73900002 3
17.4795 2.9405 0.73500001 3
17.515499 2.9465001 0.73900002 3
17.5145 2.9384999 0.73500001 3
17.511499 2.9454999 0.73799998 3
17.376499 2.9435 0.73500001 3
17.504499 2.9554999 0.74299997 3
17.5765 2.9655001 0.75 3
17.4935 2.9375 0.73400003 3
17.439501 2.9425001 0.73500001 3
17.4795 2.9395001 0.73400003 3
17.546499 2.9505 0.74199998 3
17.529499 2.9635 0.74800003 3
17.574499 2.9554999 0.745 3
17.508499 2.9595001 0.745 3
17.3825 2.9465001 0.736 3
17.5755 2.9635 0.74900001 3
17.5165 2.9414999 0.736 3
17.5945 2.9595001 0.74699998 3
17.599501 2.9705 0.75300002 3
17.5375 2.9535 0.74299997 3
17.567499 2.9655001 0.75 3
17.4175 2.9484999 0.73799998 3
17.432501 2.9514999 0.74000001 3
17.5445 2.9435 0.73799998 3
17.466499 2.9495001 0.74000001 3
17.550501 2.9575 0.745 3
17.526501 2.9565001 0.74400002 3
17.546499 2.9545 0.74400002 3
17.3965 3.3705001 0.77499998 3
17.3755 3.4085 0.76599997 3
17.438499 3.3415 0.76599997 3
17.384501 3.3915 0.77100003 3
17.394501 3.3805001 0.76999998 3
17.4035 3.3694999 0.77200001 3
17.4175 3.3675001 0.764 3
17.3925 3.3985 0.76200002 3
17.377501 3.4094999 0.764 3
17.4505 3.3345001 0.76300001 3
17.3895 3.3975 0.764 3
17.4405 3.3395 0.76700002 3
17.4055 3.3505001 0.78100002 3
17.3985 3.3785 0.76899999 3
17.431499 3.3585 0.76099998 3
17.384501 3.3755 0.77899998 3
17.3675 3.4165001 0.76700002 3
17.397499 3.3805001 0.76899999 3
17.408501 3.3594999 0.77399999 3
17.369499 3.4124999 0.76800001 3
17.377501 3.4075 0.76499999 3
17.3915 3.3705001 0.778 3
17.3895 3.3845 0.77100003 3
17.4065 3.3694999 0.76899999 3
17.390499 3.4015 0.76099998 3
17.3785 3.3905001 0.77499998 3
17.3745 3.3915 0.77600002 3
17.3715 3.3815 0.78399998 3
17.4025 3.3794999 0.76599997 3
17.3785 3.4065001 0.76599997 3
17.4415 3.3415 0.76499999 3
17.4505 3.3315001 0.764 3
17.3685 3.3615 0.79699999 3
17.4205 3.3515 0.77100003 3
17.439501 3.3455 0.76300001 3
17.3965 3.3935001 0.76200002 3
17.377501 3.3885 0.77600002 3
17.4035 3.3564999 0.77899998 3
17.415501 3.3434999 0.77899998 3
17.4265 3.3575001 0.764 3
17.4035 3.3664999 0.773 3
17.4125 3.3534999 0.77499998 3
17.4335 3.3415 0.76999998 3
17.4135 3.3615 0.76999998 3
17.3995 3.3845 0.76499999 3
17.3995 3.2425001 0.79000002 3
17.432501 3.3295 0.773 3
17.387501 3.2244999 0.796 3
17.370501 3.2825 0.80000001 3
17.432501 3.3234999 0.77399999 3
17.4105 3.3345001 0.78200001 3
17.376499 3.2595 0.79799998 3
17.4065 3.3125 0.78399998 3
17.383499 3.2175 0.79799998 3
17.3925 3.2295001 0.79400003 3
17.3955 3.2225001 0.79299998 3
17.384501 3.2214999 0.79699999 3
17.4095 3.2685001 0.78500003 3
17.401501 3.2625 0.78799999 3
17.463499 3.3215001 0.76099998 3
17.4125 3.3434999 0.78100002 3
17.429501 3.3325 0.77399999 3
17.4025 3.2314999 0.79000002 3
17.3925 3.3505001 0.78799999 3
17.379499 3.3505001 0.79299998 3
17.3915 3.2135 0.79500002 3
17.421499 3.3145001 0.778 3
17.372499 3.2674999 0.80000001 3
17.411501 3.2595 0.78500003 3
17.435499 3.3334999 0.77200001 3
17.432501 3.2695 0.77600002 3
17.442499 3.2874999 0.77100003 3
17.3895 3.2974999 0.792 3
17.393499 3.2755001 0.79100001 3
17.379499 3.2105 0.79900002 3
17.3755 3.1905 0.80199999 3
17.3885 3.2785001 0.79299998 3
17.3785 3.2555001 0.79799998 3
17.3745 3.2795 0.79799998 3
17.393499 3.3475001 0.78799999 3
17.408501 3.2785001 0.78500003 3
17.4445 3.2934999 0.76999998 3
17.377501 3.3415 0.79400003 3
17.414499 3.2915001 0.78200001 3
17.3895 3.2885001 0.792 3
17.3855 3.2095001 0.79699999 3
17.3925 3.3385 0.78799999 3
17.453501 3.3104999 0.76599997 3
17.459499 3.3134999 0.76300001 3
17.387501 3.2025001 0.79699999 3
17.376499 3.2774999 0.79799998 3
17.379499 3.1935 0.801 3
17.442499 3.2874999 0.77100003 3
17.3815 3.2145 0.79900002 3
17.379499 3.2075 0.80000001 3
17.443501 3.3045001 0.76999998 3
17.3815 3.2585001 0.79699999 3
17.377501 3.2114999 0.801 3
17.4235 3.3155 0.77700001 3
17.390499 3.3515 0.78899997 3
17.383499 3.3415 0.792 3
17.383499 3.3385 0.792 3
17.3895 3.2425001 0.79400003 3
17.445499 3.2934999 0.76999998 3
17.3925 3.3455 0.78799999 3
17.3825 3.2605 0.796 3
17.432501 3.3215001 0.77399999 3
17.380501 3.3375001 0.79299998 3
17.3925 3.3364999 0.78899997 3
17.390499 3.3405001 0.78899997 3
17.425501 3.3304999 0.77600002 3
17.390499 3.3325 0.79000002 3
17.414499 3.3215001 0.78100002 3
17.442499 3.2855 0.77100003 3
17.3855 3.2815001 0.79400003 3
17.4375 3.2895 0.773 3
17.384501 3.2195001 0.79699999 3
17.394501 3.3015001 0.78899997 3
17.4195 3.3334999 0.778 3
17.384501 3.2635 0.79500002 3
17.3825 3.2455001 0.79699999 3
17.4175 3.3405001 0.77899998 3
17.394501 3.2344999 0.792 3
17.3675 3.3004999 0.80000001 3
17.4445 3.3134999 0.76899999 3
17.372499 3.2514999 0.80000001 3
17.3815 3.3534999 0.792 3
17.4235 3.3325 0.77700001 3
17.3785 3.2555001 0.79799998 3
17.3955 3.3045001 0.78899997 3
17.383499 3.2135 0.79799998 3
17.386499 3.2704999 0.79400003 3
17.404499 3.3434999 0.78299999 3
17.4205 3.3215001 0.778 3
17.390499 3.3415 0.78899997 3
17.431499 3.3045001 0.77499998 3
17.377501 3.3255 0.79500002 3
17.3785 3.2715001 0.79699999 3
17.3965 3.3295 0.787 3
17.397499 3.2574999 0.79000002 3
17.4195 3.3275001 0.778 3
17.3925 3.3515 0.78799999 3
17.435499 3.2774999 0.77399999 3
17.4125 3.3074999 0.78200001 3
17.4095 3.2785001 0.78500003 3
17.4205 3.2985001 0.77899998 3
17.415501 3.3125 0.78100002 3
17.3915 3.3134999 0.79000002 3
17.442499 3.2065001 0.76700002 3
17.3895 3.1645 0.79400003 3
17.442499 3.2184999 0.76800001 3
17.431499 3.2335 0.77499998 3
17.4555 3.2135 0.75999999 3
17.4515 3.2045 0.76200002 3
17.4545 3.2774999 0.764 3
17.4195 3.1895001 0.77899998 3
17.4205 3.2335 0.78100002 3
17.438499 3.2255001 0.76999998 3
17.4265 3.2505 0.778 3
17.4095 3.2255001 0.78600001 3
17.453501 3.2514999 0.76300001 3
17.438499 3.1435001 0.76599997 3
17.4275 3.1594999 0.773 3
17.422501 3.1865001 0.77700001 3
17.4235 3.2045 0.77700001 3
17.442499 3.1585 0.764 3
17.4265 3.1675 0.77399999 3
17.446501 3.1895001 0.764 3
17.435499 3.1705 0.76899999 3
17.439501 3.2685001 0.77200001 3
17.4345 3.2555001 0.77399999 3
17.452499 3.2735 0.76599997 3
17.3815 3.1805 0.79900002 3
17.438499 3.1735001 0.76800001 3
17.428499 3.1515 0.77200001 3
17.4375 3.2695 0.77399999 3
17.4245 3.2395 0.77899998 3
17.4515 3.1684999 0.75999999 3
17.4265 3.2555001 0.77899998 3
17.432501 3.2605 0.77499998 3
17.422501 3.1554999 0.77600002 3
17.4235 3.2255001 0.77899998 3
17.3995 3.1815 0.79000002 3
17.4055 3.2275 0.78799999 3
17.4475 3.1415 0.76099998 3
17.445499 3.1394999 0.76200002 3
17.443501 3.2644999 0.76999998 3
17.390499 3.1845 0.79400003 3
17.438499 3.1654999 0.76700002 3
17.463499 3.2985001 0.76099998 3
17.4175 3.1535001 0.778 3
17.431499 3.2344999 0.77499998 3
17.4415 3.2005 0.76700002 3
17.438499 3.1494999 0.76599997 3
17.4345 3.1494999 0.76899999 3
17.4475 3.2265 0.76599997 3
17.431499 3.1535001 0.76999998 3
17.4445 3.2244999 0.76700002 3
17.4505 3.2265 0.764 3
17.446501 3.2145 0.76499999 3
17.4105 3.1745 0.78299999 3
17.4305 3.1884999 0.773 3
17.404499 3.2065001 0.78799999 3
17.401501 3.1684999 0.78799999 3
17.439501 3.2175 0.76899999 3
17.415501 3.1914999 0.78100002 3
17.4375 3.1925001 0.76899999 3
17.449499 3.2514999 0.76599997 3
17.4205 3.1905 0.77899998 3
17.4095 3.2255001 0.787 3
17.4545 3.3004999 0.76599997 3
17.453501 3.2985001 0.76599997 3
17.452499 3.2595 0.76499999 3
17.4515 3.2855 0.76700002 3
17.445499 3.1465001 0.76200002 3
17.4445 3.2175 0.76700002 3
17.4415 3.1424999 0.764 3
17.442499 3.2525001 0.76999998 3
17.4515 3.2284999 0.76300001 3
17.445499 3.2284999 0.76700002 3
17.4245 3.1535001 0.77399999 3
17.449499 3.1494999 0.75999999 3
17.435499 3.2405 0.773 3
17.401501 3.2135 0.79000002 3
17.4615 3.2605 0.75999999 3
17.4235 3.1935 0.77700001 3
17.452499 3.2795 0.76599997 3
17.418501 3.1954999 0.77999997 3
17.432501 3.1884999 0.77200001 3
17.386499 3.1724999 0.796 3
17.432501 3.2644999 0.77600002 3
17.4505 3.2205 0.76300001 3
17.422501 3.1754999 0.77600002 3
17.3965 3.1854999 0.79100001 3
17.414499 3.1815 0.78100002 3
17.4585 3.2395 0.75999999 3
17.373501 3.5604999 0.759 3
17.672501 3.6324999 0.75999999 3
17.5945 3.7155001 0.759 3
17.8515 3.7485001 0.75999999 3
17.776501 3.7395 0.75999999 3
17.7605 3.6925001 0.75999999 3
17.557501 3.6485 0.759 3
17.4035 3.5734999 0.759 3
17.436501 3.5964999 0.759 3
17.3885 3.6355 0.75800002 3
17.4375 3.6545 0.759 3
17.3955 3.7355001 0.75800002 3
17.511499 3.6294999 0.759 3
17.8055 3.7344999 0.75999999 3
17.574499 3.6895001 0.759 3
17.775499 3.7495 0.75999999 3
17.745501 3.7544999 0.75999999 3
17.668501 3.7255001 0.759 3
17.477501 3.5555 0.759 3
17.7635 3.6865001 0.75999999 3
17.4055 3.5395 0.759 3
17.4585 3.5445001 0.759 3
17.8605 3.7625 0.75999999 3
17.498501 3.7065001 0.759 3
17.5165 3.6075001 0.759 3
17.519501 3.7155001 0.759 3
17.7195 3.6775 0.75999999 3
17.414499 3.5905001 0.759 3
17.561501 3.7514999 0.759 3
17.629499 3.6594999 0.759 3
17.3755 3.6754999 0.75800002 3
17.4055 3.4614999 0.759 3
17.4895 3.6705 0.759 3
17.4965 3.7435 0.75800002 3
17.4275 3.6415 0.759 3
17.536501 3.7465 0.759 3
17.5695 3.5634999 0.75999999 3
17.372499 3.6654999 0.75800002 3
17.4135 3.5785 0.759 3
17.539499 3.5415001 0.75999999 3
17.411501 3.6554999 0.759 3
17.394501 3.6015 0.759 3
17.4165 3.6115 0.759 3
17.348499 3.5875001 0.759 3
17.369499 3.5695 0.759 3
17.8915 3.7665 0.75999999 3
17.734501 3.7075 0.75999999 3
17.439501 3.7375 0.75800002 3
17.4125 3.6835001 0.75800002 3
17.373501 3.5945001 0.759 3
17.362499 3.6565001 0.75800002 3
17.570499 3.5864999 0.75999999 3
17.563499 3.5964999 0.759 3
17.487499 3.7095001 0.759 3
17.6975 3.6554999 0.75999999 3
17.390499 3.5845001 0.759 3
17.411501 3.5755 0.759 3
17.644501 3.6515 0.75999999 3
17.505501 3.6215 0.759 3
17.4715 3.5565 0.759 3
17.6175 3.5955 0.75999999 3
17.362499 3.5055001 0.759 3
17.807501 3.7595 0.75999999 3
17.4265 3.5545001 0.759 3
17.466499 3.7444999 0.75800002 3
17.407499 3.5185001 0.759 3
17.745501 3.6925001 0.75999999 3
17.4895 3.6545 0.759 3
17.7395 3.7035 0.75999999 3
17.688499 3.6954999 0.75999999 3
17.5415 3.6405001 0.759 3
17.431499 3.6865001 0.75800002 3
17.3825 3.7035 0.75800002 3
17.540501 3.6415 0.759 3
17.699499 3.7255001 0.759 3
17.4035 3.5525 0.759 3
17.3685 3.5055001 0.759 3
17.5655 3.7425001 0.759 3
17.737499 3.7165 0.75999999 3
17.4825 3.5775001 0.759 3
17.4125 3.5265 0.759 3
17.626499 3.7135 0.759 3
17.4025 3.5525 0.759 3
17.4415 3.4825001 0.759 3
17.460501 3.6675 0.759 3
17.727501 3.6824999 0.75999999 3
17.5005 3.6335001 0.759 3
17.5515 3.5634999 0.75999999 3
17.5805 3.7075 0.759 3
17.3995 3.4925001 0.759 3
17.7505 3.7514999 0.75999999 3
17.3855 3.4805 0.759 3
17.4065 3.5634999 0.759 3
17.5105 3.5285001 0.75999999 3
17.384501 3.7135 0.75800002 3
17.5825 3.7465 0.759 3
17.372499 3.5625 0.759 3
17.362499 3.5415001 0.759 3
17.467501 3.5385001 0.759 3
17.640499 3.7244999 0.759 3
17.436501 3.6475 0.759 3
17.408501 3.6335001 0.759 3
17.647499 3.6615 0.75999999 3
17.4695 3.6715 0.759 3
17.5135 3.7175 0.759 3
17.5485 3.7395 0.759 3
17.352501 3.6645 0.75800002 3
17.6975 3.7184999 0.759 3
17.4375 3.5395 0.759 3
17.425501 3.5255001 0.759 3
17.418501 3.4855001 0.759 3
17.5825 3.6015 0.75999999 3
17.560499 3.6784999 0.759 3
17.411501 3.5864999 0.759 3
17.473499 3.6015 0.759 3
17.4835 3.6465001 0.759 3
17.5875 3.7165 0.759 3
17.8645 3.7595 0.75999999 3
17.442499 3.6865001 0.75800002 3
17.4855 3.7385001 0.75800002 3
17.560499 3.6724999 0.759 3
17.6485 3.6294999 0.75999999 3
17.435499 3.7095001 0.75800002 3
17.7145 3.6505001 0.75999999 3
17.7325 3.7275 0.75999999 3
17.4555 3.5415001 0.759 3
17.481501 3.5764999 0.759 3
17.693501 3.7255001 0.759 3
17.724501 3.7045 0.75999999 3
17.460501 3.5155001 0.759 3
17.7435 3.7444999 0.75999999 3
17.349501 3.6884999 0.75800002 3
17.6675 3.6454999 0.75999999 3
17.4615 3.7135 0.75800002 3
17.473499 3.7054999 0.759 3
17.758499 3.7005 0.75999999 3
17.380501 3.6475 0.75800002 3
17.4345 3.5574999 0.759 3
17.3545 3.6905 0.75800002 3
17.449499 3.5255001 0.759 3
17.5205 3.6194999 0.759 3
17.577499 3.6424999 0.759 3
17.376499 3.7145 0.75800002 3
17.349501 3.6824999 0.75800002 3
17.5215 3.5764999 0.759 3
17.370501 3.6965001 0.75800002 3
17.6565 3.6385 0.75999999 3
17.383499 3.6215 0.759 3
17.671499 3.7054999 0.759 3
17.4795 3.5144999 0.759 3
17.7125 3.6515 0.75999999 3
17.414499 3.6335001 0.759 3
17.7535 3.6754999 0.75999999 3
17.761499 3.7084999 0.75999999 3
17.5795 3.6845 0.759 3
17.459499 3.7275 0.75800002 3
17.5595 3.5985 0.759 3
17.4725 3.6485 0.759 3
17.862499 3.7625 0.75999999 3
17.533501 3.5704999 0.759 3
17.709499 3.7485001 0.759 3
17.4475 3.6105001 0.759 3
17.5275 3.6724999 0.759 3
17.709499 3.7585001 0.759 3
17.422501 3.7195001 0.75800002 3
17.459499 3.5985 0.759 3
17.4895 3.7035 0.759 3
17.647499 3.6765001 0.759 3
17.376499 3.5355 0.759 3
17.377501 3.5135 0.759 3
17.421499 3.6245 0.759 3
17.616501 3.6355 0.75999999 3
17.696501 3.6624999 0.75999999 3
17.393499 3.5244999 0.759 3
17.4405 3.5625 0.759 3
17.5695 3.5695 0.75999999 3
17.3825 3.4805 0.759 3
17.6325 3.7535 0.759 3
17.783501 3.7495 0.75999999 3
17.6595 3.7095001 0.759 3
17.5765 3.6294999 0.759 3
17.5975 3.5885 0.75999999 3
17.3715 3.7145 0.75800002 3
17.5725 3.6975 0.759 3
17.4235 3.7084999 0.75800002 3
17.495501 3.7235 0.759 3
17.727501 3.6954999 0.75999999 3
17.429501 3.4825001 0.759 3
17.7295 3.6624999 0.75999999 3
17.3755 3.4885001 0.759 3
17.668501 3.6824999 0.75999999 3
17.4405 3.4875 0.759 3
17.622499 3.7135 0.759 3
17.5375 3.7214999 0.759 3
17.425501 3.5485001 0.759 3
17.4175 3.4965 0.759 3
17.5655 3.6105001 0.759 3
17.570499 3.6135001 0.759 3
17.568501 3.7054999 0.759 3
17.626499 3.7165 0.759 3
17.4865 3.6025 0.759 3
17.4165 3.6424999 0.759 3
17.803499 3.7305 0.75999999 3
17.488501 3.6914999 0.759 3
17.5215 3.5555 0.759 3
17.681499 3.6615 0.75999999 3
17.411501 3.5955 0.759 3
17.629499 3.6034999 0.75999999 3
17.561501 3.6045001 0.759 3
17.526501 3.6984999 0.759 3
17.3815 3.7105 0.75800002 3
17.3605 3.5325 0.759 3
17.4445 3.6364999 0.759 3
17.5875 3.6684999 0.759 3
17.554501 3.6155 0.759 3
17.363501 3.6194999 0.75800002 3
17.5835 3.6995001 0.759 3
17.512501 3.7335 0.759 3
17.688499 3.7105 0.759 3
17.657499 3.6705 0.75999999 3
17.4305 3.7295001 0.75800002 3
17.474501 3.5964999 0.759 3
17.7785 3.7465 0.75999999 3
17.7005 3.6865001 0.75999999 3
17.4825 3.7135 0.759 3
17.4925 3.7025001 0.759 3
17.445499 3.7205 0.75800002 3
17.4065 3.6055 0.759 3
17.615499 3.7355001 0.759 3
17.5105 3.5525 0.759 3
17.6015 3.6115 0.75999999 3
17.623501 3.7525001 0.759 3
17.490499 3.5174999 0.759 3
17.630501 3.6805 0.759 3
17.4515 3.6954999 0.75800002 3
17.4515 3.6865001 0.759 3
17.383499 3.7084999 0.75800002 3
17.4645 3.6245 0.759 3
17.4515 3.6125 0.759 3
17.467501 3.5335 0.759 3
17.5205 3.7075 0.759 3
17.5165 3.7065001 0.759 3
17.699499 3.6995001 0.75999999 3
17.4265 3.5085001 0.759 3
17.3675 3.6435001 0.75800002 3
17.404499 3.5634999 0.759 3
17.7875 3.7605 0.75999999 3
17.456499 3.5955 0.759 3
17.4965 3.6394999 0.759 3
17.6045 3.7284999 0.759 3
17.588499 3.7095001 0.759 3
17.366501 3.4695001 0.759 3
17.6105 3.6015 0.75999999 3
17.369499 3.5615001 0.759 3
17.5875 3.7184999 0.759 3
17.7845 3.7205 0.75999999 3
17.3995 3.6905 0.75800002 3
17.504499 3.6385 0.759 3
17.5585 3.7425001 0.759 3
17.5735 3.6485 0.759 3
17.5665 3.7005 0.759 3
17.3605 3.5925 0.759 3
17.811501 3.7305 0.75999999 3
17.6915 3.6375 0.75999999 3
17.4275 3.6454999 0.759 3
17.790501 3.7405 0.75999999 3
17.706499 3.6865001 0.75999999 3
17.5005 3.6135001 0.759 3
17.4375 3.5455 0.759 3
17.3645 3.5455 0.759 3
17.6325 3.7314999 0.759 3
17.6905 3.7114999 0.759 3
17.879499 3.7565 0.75999999 3
17.4865 3.6935 0.759 3
17.6635 3.7105 0.759 3
17.502501 3.6935 0.759 3
17.4235 3.7225001 0.75800002 3
17.5835 3.7305 0.759 3
17.7855 3.7265 0.75999999 3
17.502501 3.7045 0.759 3
17.5655 3.7335 0.759 3
17.699499 3.6424999 0.75999999 3
17.737499 3.7375 0.75999999 3
17.380501 3.6315 0.75800002 3
17.431499 3.5804999 0.759 3
17.7265 3.6654999 0.75999999 3
17.348499 3.6415 0.75800002 3
17.5075 3.5565 0.759 3
17.643499 3.7275 0.759 3
17.540501 3.5595 0.75999999 3
17.599501 3.6984999 0.759 3
17.511499 3.5515001 0.759 3
17.3375 3.7065001 0.75800002 3
17.620501 3.6034999 0.75999999 3
17.686501 3.6784999 0.75999999 3
17.365499 3.7005 0.75800002 3
17.494499 3.7165 0.759 3
17.5385 3.6865001 0.759 3
17.561501 3.5725 0.75999999 3
17.6115 3.6215 0.75999999 3
17.4135 3.6025 0.759 3
17.387501 3.4825001 0.759 3
17.588499 3.6715 0.759 3
17.3885 3.4775 0.759 3
17.436501 3.5804999 0.759 3
17.369499 3.4435 0.759 3
17.3885 3.6795001 0.75800002 3
17.651501 3.6445 0.75999999 3
17.5355 3.7195001 0.759 3
17.400499 3.6684999 0.75800002 3
17.7055 3.7284999 0.759 3
17.438499 3.6645 0.759 3
17.6635 3.6954999 0.759 3
17.460501 3.5014999 0.759 3
17.4405 3.7305 0.75800002 3
17.418501 3.6245 0.759 3
17.6285 3.7065001 0.759 3
17.470501 3.7395 0.75800002 3
17.4135 3.4744999 0.759 3
17.567499 3.5655 0.75999999 3
17.3435 3.6914999 0.75800002 3
17.4485 3.6995001 0.75800002 3
17.804501 3.7395 0.75999999 3
17.436501 3.7195001 0.75800002 3
17.3825 3.6715 0.75800002 3
17.511499 3.5645001 0.759 3
17.390499 3.6914999 0.75800002 3
17.526501 3.6615 0.759 3
17.571501 3.6175001 0.759 3
17.359501 3.5864999 0.759 3
17.5355 3.7095001 0.759 3
17.7775 3.7045 0.75999999 3
17.3675 3.5105 0.759 3
17.439501 3.6845 0.75800002 3
17.473499 3.5055001 0.759 3
17.487499 3.5125 0.759 3
17.501499 3.6345 0.759 3
17.7195 3.7585001 0.759 3
17.814501 3.7275 0.75999999 3
17.723499 3.6784999 0.75999999 3
17.532499 3.6235001 0.759 3
17.4715 3.6494999 0.759 3
17.7745 3.7275 0.75999999 3
17.474501 3.5155001 0.759 3
17.616501 3.6995001 0.759 3
17.584499 3.6575 0.759 3
17.4615 3.5834999 0.759 3
17.5065 3.6565001 0.759 3
17.8255 3.7544999 0.75999999 3
17.511499 3.6724999 0.759 3
17.400499 3.5525 0.759 3
17.431499 3.6264999 0.759 3
17.3505 3.6945 0.75800002 3
17.7885 3.7535 0.75999999 3
17.481501 3.6115 0.759 3
17.6665 3.7255001 0.759 3
17.4345 3.6954999 0.75800002 3
17.5595 3.5975001 0.759 3
17.629499 3.6085 0.75999999 3
17.383499 3.6575 0.75800002 3
17.484501 3.6954999 0.759 3
17.443501 3.6854999 0.759 3
17.4515 3.5604999 0.759 3
17.432501 3.6715 0.759 3
17.651501 3.7275 0.759 3
17.522499 3.5634999 0.759 3
17.5315 3.7014999 0.759 3
17.5035 3.5365 0.759 3
17.504499 3.7244999 0.759 3
17.4165 3.4955001 0.759 3
17.484501 3.7465 0.75800002 3
17.401501 3.6824999 0.75800002 3
17.561501 3.6215 0.759 3
17.563499 3.6285 0.759 3
17.7505 3.7205 0.75999999 3
17.654499 3.7135 0.759 3
17.397499 3.7114999 0.75800002 3
17.7665 3.7425001 0.75999999 3
17.4025 3.6684999 0.75800002 3
17.540501 3.5845001 0.759 3
17.720501 3.7474999 0.759 3
17.3825 3.5764999 0.759 3
17.629499 3.6524999 0.759 3
17.4575 3.7335 0.75800002 3
17.3715 3.6375 0.75800002 3
17.5215 3.6205001 0.759 3
17.6805 3.7544999 0.759 3
17.5145 3.5355 0.75999999 3
17.5595 3.5574999 0.75999999 3
17.4995 3.5655 0.759 3
17.3855 3.5795 0.759 3
17.459499 3.4985001 0.759 3
17.5495 3.6415 0.759 3
17.3545 3.6865001 0.75800002 3
17.577499 3.6815 0.759 3
17.547501 3.6235001 0.759 3
17.377501 3.6835001 0.75800002 3
17.675501 3.6984999 0.759 3
17.5735 3.5734999 0.75999999 3
17.7605 3.7535 0.75999999 3
17.467501 3.5325 0.759 3
17.4305 3.5185001 0.759 3
17.386499 3.4955001 0.759 3
17.3605 3.7184999 0.75800002 3
17.421499 3.4885001 0.759 3
17.366501 3.4475 0.759 3
17.387501 3.6784999 0.75800002 3
17.609501 3.6435001 0.759 3
17.619499 3.6815 0.759 3
17.557501 3.7155001 0.759 3
17.602501 3.6015 0.75999999 3
17.6385 3.6385 0.75999999 3
17.5135 3.7444999 0.759 3
17.3925 3.5675001 0.759 3
17.4025 3.6345 0.759 3
17.4415 3.6965001 0.75800002 3
17.595501 3.6015 0.75999999 3
17.894501 3.7655001 0.75999999 3
17.481501 3.5125 0.759 3
17.401501 3.6845 0.75800002 3
17.4235 3.6914999 0.75800002 3
17.797501 3.7595 0.75999999 3
17.3615 3.6975 0.75800002 3
17.613501 3.7325001 0.759 3
17.7325 3.6724999 0.75999999 3
17.568501 3.6984999 0.759 3
17.585501 3.7155001 0.759 3
17.480499 3.5125 0.759 3
17.488501 3.5155001 0.759 3
17.422501 3.5895 0.759 3
17.4065 3.6605 0.75800002 3
17.543501 3.6145 0.759 3
17.3645 3.6605 0.75800002 3
17.487499 3.5804999 0.759 3
17.452499 3.6235001 0.759 3
17.744499 3.7485001 0.75999999 3
17.550501 3.7095001 0.759 3
17.3605 3.7045 0.75800002 3
17.7045 3.7065001 0.75999999 3
17.418501 3.5455 0.759 3
17.4055 3.5335 0.759 3
17.401501 3.6185 0.759 3
17.373501 3.4395001 0.759 3
17.7465 3.7035 0.75999999 3
17.4545 3.7105 0.75800002 3
17.4095 3.5905001 0.759 3
17.4375 3.5065 0.759 3
17.533501 3.6925001 0.759 3
17.872499 3.7495 0.75999999 3
17.702499 3.6875 0.75999999 3
17.363501 3.5244999 0.759 3
17.5305 3.6845 0.759 3
17.415501 3.7435 0.75800002 3
17.359501 3.5785 0.759 3
17.692499 3.6695001 0.75999999 3
17.415501 3.6795001 0.75800002 3
17.3915 3.5204999 0.759 3
17.387501 3.4475 0.759 3
17.4615 3.7235 0.75800002 3
17.431499 3.6735001 0.759 3
17.6005 3.6784999 0.759 3
17.563499 3.6735001 0.759 3
17.695499 3.6975 0.75999999 3
17.570499 3.5745001 0.75999999 3
17.661501 3.6795001 0.75999999 3
17.495501 3.5945001 0.759 3
17.665501 3.7065001 0.759 3
17.717501 3.6805 0.75999999 3
17.3855 3.4605 0.759 3
17.6455 3.6775 0.759 3
17.5415 3.6205001 0.759 3
17.4445 3.7145 0.75800002 3
17.5305 3.7365 0.759 3
17.432501 3.4814999 0.759 3
17.4585 3.7335 0.75800002 3
17.626499 3.7465 0.759 3
17.689501 3.6565001 0.75999999 3
17.3715 3.7305 0.75800002 3
17.752501 3.7495 0.75999999 3
17.5035 3.5664999 0.759 3
17.355499 3.6135001 0.75800002 3
17.7915 3.7225001 0.75999999 3
17.435499 3.6715 0.759 3
17.533501 3.5585001 0.759 3
17.400499 3.6975 0.75800002 3
17.584499 3.6405001 0.759 3
17.5805 3.6835001 0.759 3
17.443501 3.6935 0.75800002 3
17.5595 3.5975001 0.759 3
17.446501 3.6784999 0.759 3
17.414499 3.5595 0.759 3
17.6355 3.7135 0.759 3
17.362499 3.4835 0.759 3
17.4165 3.6984999 0.75800002 3
17.5875 3.6064999 0.75999999 3
17.4755 3.5114999 0.759 3
17.3515 3.6635001 0.75800002 3
17.352501 3.5425 0.759 3
17.5555 3.7435 0.759 3
17.4485 3.6454999 0.759 3
17.470501 3.5355 0.759 3
17.3675 3.5534999 0.759 3
17.609501 3.6005001 0.75999999 3
17.758499 3.7505 0.75999999 3
17.3605 3.5014999 0.759 3
17.4055 3.7155001 0.75800002 3
17.3955 3.6454999 0.75800002 3
17.5425 3.6875 0.759 3
17.5165 3.5685 0.759 3
17.428499 3.6424999 0.759 3
17.7225 3.6545 0.75999999 3
17.5725 3.6164999 0.759 3
17.4135 3.4955001 0.759 3
17.442499 3.6884999 0.75800002 3
17.525499 3.6775 0.759 3
17.4095 3.5445001 0.759 3
17.665501 3.7114999 0.759 3
17.522499 3.6115 0.759 3
17.762501 3.6884999 0.75999999 3
17.738501 3.7314999 0.75999999 3
17.463499 3.5645001 0.759 3
17.5445 3.6795001 0.759 3
17.672501 3.6594999 0.75999999 3
17.776501 3.7244999 0.75999999 3
17.5245 3.6954999 0.759 3
17.723499 3.6835001 0.75999999 3
17.6045 3.7325001 0.759 3
17.4795 3.5095 0.759 3
17.456499 3.6615 0.759 3
17.5175 3.6255 0.759 3
17.762501 3.7005 0.75999999 3
17.6145 3.6245 0.75999999 3
17.372499 3.5555 0.759 3
17.473499 3.7455001 0.75800002 3
17.525499 3.6005001 0.759 3
17.4245 3.4725001 0.759 3
17.467501 3.5174999 0.759 3
17.647499 3.6085 0.75999999 3
17.588499 3.7244999 0.759 3
17.4555 3.6264999 0.759 3
17.491501 3.6654999 0.759 3
17.731501 3.7444999 0.75999999 3
17.689501 3.6965001 0.75999999 3
17.518499 3.6524999 0.759 3
17.453501 3.7184999 0.75800002 3
17.623501 3.6415 0.75999999 3
17.5965 3.6185 0.759 3
17.3855 3.5534999 0.759 3
17.8365 3.7555001 0.75999999 3
17.5875 3.7455001 0.759 3
17.386499 3.4974999 0.759 3
17.384501 3.6795001 0.75800002 3
17.5415 3.6585 0.759 3
17.6145 3.5915 0.75999999 3
17.6185 3.7054999 0.759 3
17.3575 3.5875001 0.759 3
17.7355 3.7385001 0.75999999 3
17.404499 3.4805 0.759 3
17.7565 3.7195001 0.75999999 3
17.498501 3.5265 0.759 3
17.460501 3.6385 0.759 3
17.365499 3.5474999 0.759 3
17.713499 3.6724999 0.75999999 3
17.584499 3.6975 0.759 3
17.4655 3.5065 0.759 3
17.366501 3.4435 0.759 3
17.6245 3.6305001 0.75999999 3
17.366501 3.4895 0.759 3
17.622499 3.6255 0.75999999 3
17.487499 3.7105 0.759 3
17.3885 3.7025001 0.75800002 3
17.5555 3.6155 0.759 3
17.505501 3.6335001 0.759 3
17.481501 3.6264999 0.759 3
17.6495 3.7005 0.759 3
17.3505 3.7175 0.75800002 3
17.578501 3.6435001 0.759 3
17.5515 3.6984999 0.759 3
17.356501 3.6185 0.75800002 3
17.411501 3.5994999 0.759 3
17.5495 3.5485001 0.75999999 3
17.547501 3.7175 0.759 3
17.4935 3.6294999 0.759 3
17.692499 3.6884999 0.75999999 3
17.363501 3.5864999 0.759 3
17.442499 3.6945 0.75800002 3
17.7325 3.7395 0.75999999 3
17.7645 3.7495 0.75999999 3
17.4485 3.5125 0.759 3
17.418501 3.7175 0.75800002 3
17.4505 3.6055 0.759 3
17.376499 3.6294999 0.75800002 3
17.3475 3.7395 0.75800002 3
17.429501 3.6045001 0.759 3
17.3985 3.7114999 0.75800002 3
17.519501 3.6754999 0.759 3
17.7495 3.7544999 0.75999999 3
17.3985 3.5695 0.759 3
17.5595 3.6275001 0.759 3
17.6035 3.7344999 0.759 3
17.4855 3.6375 0.759 3
17.4685 3.5434999 0.759 3
17.411501 3.6424999 0.759 3
17.6535 3.6305001 0.75999999 3
17.366501 3.7184999 0.75800002 3
17.529499 3.7474999 0.759 3
17.577499 3.6454999 0.759 3
17.786501 3.7565 0.75999999 3
17.3475 3.6705 0.75800002 3
17.623501 3.6245 0.75999999 3
17.710501 3.6865001 0.75999999 3
17.408501 3.7375 0.75800002 3
17.672501 3.7244999 0.759 3
17.540501 3.5515001 0.75999999 3
17.3545 3.6115 0.75800002 3
17.4065 3.4905 0.759 3
17.557501 3.7095001 0.759 3
17.5035 3.5304999 0.759 3
17.7425 3.7214999 0.75999999 3
17.6285 3.7525001 0.759 3
17.4375 3.6815 0.759 3
17.377501 3.7045 0.75800002 3
17.467501 3.5574999 0.759 3
17.404499 3.6364999 0.759 3
17.640499 3.6815 0.759 3
17.4785 3.6505001 0.759 3
17.484501 3.6275001 0.759 3
17.7145 3.6815 0.75999999 3
17.665501 3.7165 0.759 3
17.5105 3.6454999 0.759 3
17.814501 3.7514999 0.75999999 3
17.7005 3.6575 0.75999999 3
17.706499 3.7125001 0.75999999 3
17.7255 3.6585 0.75999999 3
17.5585 3.5915 0.759 3
17.4375 3.6684999 0.759 3
17.540501 3.5994999 0.759 3
17.6565 3.7314999 0.759 3
17.435499 3.6635001 0.759 3
17.5495 3.6105001 0.759 3
17.679501 3.6445 0.75999999 3
17.682501 3.7344999 0.759 3
17.5455 3.6995001 0.759 3
17.6535 3.6145 0.75999999 3
17.7495 3.7165 0.75999999 3
17.553499 3.6865001 0.759 3
17.3885 3.6275001 0.759 3
17.349501 3.7275 0.75800002 3
17.4065 3.6635001 0.75800002 3
17.369499 3.7325001 0.75800002 3
17.7225 3.6835001 0.75999999 3
17.504499 3.6194999 0.759 3
17.4475 3.5204999 0.759 3
17.651501 3.6494999 0.75999999 3
17.525499 3.7045 0.759 3
17.505501 3.6475 0.759 3
17.509501 3.6435001 0.759 3
17.633499 3.7385001 0.759 3
17.556499 3.6784999 0.759 3
17.474501 3.5445001 0.759 3
17.4415 3.5834999 0.759 3
17.3955 3.5385001 0.759 3
17.8025 3.7095001 0.75999999 3
17.4445 3.6094999 0.759 3
17.3605 3.6075001 0.75800002 3
17.672501 3.6715 0.75999999 3
17.470501 3.4974999 0.759 3
17.779499 3.6984999 0.75999999 3
17.3855 3.5415001 0.759 3
17.592501 3.6645 0.759 3
17.460501 3.7444999 0.75800002 3
17.4205 3.5014999 0.759 3
17.466499 3.5285001 0.759 3
17.525499 3.5474999 0.75999999 3
17.369499 3.6565001 0.75800002 3
17.4445 3.6675 0.759 3
17.686501 3.6405001 0.75999999 3
17.615499 3.6775 0.759 3
17.414499 3.6914999 0.75800002 3
17.407499 3.5425 0.759 3
17.563499 3.7435 0.759 3
17.866501 3.7614999 0.75999999 3
17.4235 3.5274999 0.759 3
17.3685 3.4974999 0.759 3
17.497499 3.6565001 0.759 3
17.459499 3.5395 0.759 3
17.546499 3.5845001 0.759 3
17.619499 3.6045001 0.75999999 3
17.7125 3.6895001 0.75999999 3
17.3785 3.5595 0.759 3
17.4485 3.5474999 0.759 3
17.438499 3.4895 0.759 3
17.4715 3.6545 0.759 3
17.504499 3.7114999 0.759 3
17.7665 3.7455001 0.75999999 3
17.605499 3.6854999 0.759 3
17.622499 3.6624999 0.759 3
17.5375 3.6424999 0.759 3
17.5665 3.6305001 0.759 3
17.820499 3.7635 0.75999999 3
17.511499 3.5934999 0.759 3
17.613501 3.6914999 0.759 3
17.445499 3.7125001 0.75800002 3
17.6535 3.7365 0.759 3
17.480499 3.5225 0.759 3
17.7535 3.6984999 0.75999999 3
17.3575 3.7195001 0.75800002 3
17.509501 3.5255001 0.75999999 3
17.5665 3.7335 0.759 3
17.379499 3.6745 0.75800002 3
17.5595 3.7495 0.759 3
17.421499 3.6355 0.759 3
17.6045 3.7244999 0.759 3
17.7425 3.6824999 0.75999999 3
17.3395 3.6665001 0.75800002 3
17.758499 3.7195001 0.75999999 3
17.6625 3.7205 0.759 3
17.359501 3.6355 0.75800002 3
17.553499 3.5604999 0.75999999 3
17.605499 3.5945001 0.75999999 3
17.5005 3.5964999 0.759 3
17.842501 3.7595 0.75999999 3
17.6495 3.6945 0.759 3
17.446501 3.7075 0.75800002 3
17.4235 3.5504999 0.759 3
17.5205 3.6645 0.759 3
17.4095 3.6735001 0.75800002 3
17.425501 3.5155001 0.759 3
17.643499 3.7114999 0.759 3
17.3685 3.6684999 0.75800002 3
17.370501 3.5875001 0.759 3
17.571501 3.7155001 0.759 3
17.387501 3.6275001 0.759 3
17.5555 3.6635001 0.759 3
17.7055 3.6545 0.75999999 3
17.497499 3.5395 0.759 3
17.7255 3.7244999 0.75999999 3
17.480499 3.5964999 0.759 3
17.6625 3.6605 0.75999999 3
17.373501 3.4505 0.759 3
17.627501 3.7065001 0.759 3
17.577499 3.5675001 0.75999999 3
17.3885 3.5664999 0.759 3
17.3545 3.6345 0.75800002 3
17.605499 3.6345 0.759 3
17.431499 3.5804999 0.759 3
17.7115 3.6515 0.75999999 3
17.6775 3.7525001 0.759 3
17.8155 3.7395 0.75999999 3
17.4405 3.5585001 0.759 3
17.7775 3.6975 0.75999999 3
17.5945 3.5994999 0.75999999 3
17.592501 3.7474999 0.759 3
17.4335 3.5415001 0.759 3
17.384501 3.6754999 0.75800002 3
17.4235 3.6185 0.759 3
17.3675 3.7385001 0.75800002 3
17.678499 3.6665001 0.75999999 3
17.695499 3.6394999 0.75999999 3
17.5935 3.7105 0.759 3
17.737499 3.7605 0.759 3
17.439501 3.4965 0.759 3
17.3405 3.7005 0.75800002 3
17.626499 3.7365 0.759 3
17.4965 3.7065001 0.759 3
17.602501 3.7305 0.759 3
17.497499 3.6795001 0.759 3
17.675501 3.7205 0.759 3
17.5495 3.5934999 0.759 3
17.463499 3.5035 0.759 3
17.568501 3.7255001 0.759 3
17.570499 3.7135 0.759 3
17.4795 3.7065001 0.759 3
17.741501 3.7605 0.759 3
17.5355 3.7355001 0.759 3
17.695499 3.6545 0.75999999 3
17.431499 3.5095 0.759 3
17.6385 3.6735001 0.759 3
17.5415 3.7355001 0.759 3
17.3535 3.6345 0.75800002 3
17.4345 3.7365 0.75800002 3
17.488501 3.5804999 0.759 3
17.6605 3.6875 0.759 3
17.3755 3.4914999 0.759 3
17.643499 3.6705 0.759 3
17.6115 3.6215 0.75999999 3
17.498501 3.6784999 0.759 3
17.7535 3.7535 0.75999999 3
17.5935 3.7314999 0.759 3
17.783501 3.7305 0.75999999 3
17.622499 3.7244999 0.759 3
17.612499 3.6935 0.759 3
17.404499 3.4795001 0.759 3
17.3645 3.6125 0.75800002 3
17.3985 3.5044999 0.759 3
17.404499 3.6565001 0.75800002 3
17.5755 3.5655 0.75999999 3
17.668501 3.6364999 0.75999999 3
17.4195 3.7005 0.75800002 3
17.800501 3.7614999 0.75999999 3
17.4995 3.6745 0.759 3
17.494499 3.7385001 0.75800002 3
17.6285 3.6025 0.75999999 3
17.5485 3.6675 0.759 3
17.3365 3.7265 0.75800002 3
17.737499 3.6705 0.75999999 3
17.602501 3.7145 0.759 3
17.480499 3.6045001 0.759 3
17.7225 3.7195001 0.75999999 3
17.6325 3.6494999 0.75999999 3
17.622499 3.7025001 0.759 3
17.588499 3.6715 0.759 3
17.526501 3.5325 0.75999999 3
17.5315 3.7265 0.759 3
17.435499 3.6285 0.759 3
17.3985 3.5135 0.759 3
17.356501 3.6615 0.75800002 3
17.3955 3.5975001 0.759 3
17.5445 3.7395 0.759 3
17.4895 3.7005 0.759 3
17.429501 3.5825 0.759 3
17.387501 3.5925 0.759 3
17.3955 3.6115 0.759 3
17.6415 3.6675 0.759 3
17.4415 3.4955001 0.759 3
17.8225 3.7435 0.75999999 3
17.845501 3.7485001 0.75999999 3
17.3915 3.6724999 0.75800002 3
17.831499 3.7255001 0.75999999 3
17.3605 3.4765 0.759 3
17.3755 3.7005 0.75800002 3
17.5485 3.5515001 0.75999999 3
17.3745 3.6105001 0.759 3
17.692499 3.6875 0.75999999 3
17.474501 3.4995 0.759 3
17.599501 3.7084999 0.759 3
17.387501 3.7125001 0.75800002 3
17.4095 3.6615 0.75800002 3
17.679501 3.7565 0.759 3
17.7125 3.6515 0.75999999 3
17.8125 3.7455001 0.75999999 3
17.4505 3.5455 0.759 3
17.686501 3.6665001 0.75999999 3
17.362499 3.6865001 0.75800002 3
17.6185 3.6724999 0.759 3
17.627501 3.6435001 0.75999999 3
17.7045 3.7084999 0.75999999 3
17.5555 3.6935 0.759 3
17.4615 3.5615001 0.759 3
17.408501 3.4955001 0.759 3
17.755501 3.7444999 0.75999999 3
17.4065 3.5025001 0.759 3
17.3515 3.6135001 0.75800002 3
17.568501 3.7145 0.759 3
17.5275 3.7265 0.759 3
17.525499 3.6954999 0.759 3
17.4855 3.5785 0.759 3
17.3815 3.6515 0.75800002 3
17.373501 3.6285 0.75800002 3
17.5795 3.6695001 0.759 3
17.5105 3.6524999 0.759 3
17.6745 3.7555001 0.759 3
17.842501 3.7344999 0.75999999 3
17.557501 3.6905 0.759 3
17.445499 3.5304999 0.759 3
17.810499 3.7614999 0.75999999 3
17.442499 3.6545 0.759 3
17.681499 3.6765001 0.75999999 3
17.4035 3.5934999 0.759 3
17.4655 3.5044999 0.759 3
17.363501 3.5434999 0.759 3
17.7705 3.7244999 0.75999999 3
17.564501 3.6935 0.759 3
17.5805 3.6185 0.759 3
17.557501 3.7014999 0.759 3
17.5865 3.6954999 0.759 3
17.5005 3.6475 0.759 3
17.793501 3.7184999 0.75999999 3
17.643499 3.6115 0.75999999 3
17.6325 3.6245 0.75999999 3
17.3925 3.5215001 0.759 3
17.431499 3.4795001 0.759 3
17.439501 3.5504999 0.759 3
17.348499 3.7365 0.75800002 3
17.418501 3.7385001 0.75800002 3
17.5345 3.7014999 0.759 3
17.615499 3.6494999 0.759 3
17.651501 3.6294999 0.75999999 3
17.790501 3.7305 0.75999999 3
17.4685 3.6275001 0.759 3
17.6875 3.6375 0.75999999 3
17.411501 3.7425001 0.75800002 3
17.511499 3.6784999 0.759 3
17.720501 3.7535 0.759 3
17.4785 3.6405001 0.759 3
17.408501 2.9825001 0.75700003 3
17.428499 2.9805 0.75700003 3
17.4825 3.0105 0.75800002 3
17.508499 3.0244999 0.759 3
17.3925 3.0615001 0.75800002 3
17.532499 2.9955001 0.759 3
17.5515 3.0155001 0.759 3
17.4835 3.0125 0.75800002 3
17.5315 3.0634999 0.75999999 3
17.3615 3.0485001 0.75700003 3
17.407499 3.0604999 0.75800002 3
17.3985 3.0274999 0.75700003 3
17.3715 3.0534999 0.75700003 3
17.498501 3.0604999 0.759 3
17.4485 3.0495 0.75800002 3
17.547501 3.0325 0.75999999 3
17.505501 3.0044999 0.759 3
17.518499 3.0864999 0.75999999 3
17.438499 3.0964999 0.759 3
17.4645 3.1034999 0.759 3
17.6465 2.9875 0.75999999 3
17.365499 3.0465 0.75700003 3
17.491501 3.0295 0.759 3
17.349501 2.9735 0.75599998 3
17.459499 3.0934999 0.759 3
17.3785 3.0385001 0.75700003 3
17.525499 3.0634999 0.75999999 3
17.613501 2.9914999 0.75999999 3
17.567499 2.9795001 0.759 3
17.5665 2.9825001 0.759 3
17.313499 2.9655001 0.755 3
17.3255 2.9835 0.75599998 3
17.5795 3.0295 0.75999999 3
17.467501 2.9914999 0.75800002 3
17.556499 3.0445001 0.75999999 3
17.321501 2.9755001 0.75599998 3
17.3675 3.0044999 0.75700003 3
17.4065 2.9695001 0.75700003 3
17.445499 3.0295 0.75800002 3
17.3435 2.9974999 0.75599998 3
17.4345 3.0504999 0.75800002 3
17.400499 3.0515001 0.75800002 3
17.4345 3.0745001 0.759 3
17.4415 3.0374999 0.75800002 3
17.6075 3.0215001 0.75999999 3
17.4025 3.0825 0.75800002 3
17.446501 3.0035 0.75800002 3
17.390499 3.0725 0.75800002 3
17.4445 3.1005001 0.759 3
17.4865 3.0404999 0.759 3
17.5665 3.0485001 0.75999999 3
17.4265 3.0664999 0.75800002 3
17.615499 3.0125 0.75999999 3
17.3895 2.9814999 0.75700003 3
17.372499 2.9805 0.75599998 3
17.5035 3.0074999 0.759 3
17.3985 3.0165 0.75700003 3
17.5755 3.0445001 0.75999999 3
17.442499 3.1255 0.759 3
17.4655 3.0274999 0.75800002 3
17.4135 3.0425 0.75800002 3
17.3755 2.9675 0.75599998 3
17.3015 2.9675 0.755 3
17.314501 2.9814999 0.75599998 3
17.3925 3.0545001 0.75800002 3
17.605499 3.0125 0.75999999 3
17.4585 3.1205001 0.75999999 3
17.5695 3.0065 0.75999999 3
17.431499 3.0374999 0.75800002 3
17.5245 3.0715001 0.75999999 3
17.425501 3.0125 0.75800002 3
17.474501 3.0664999 0.759 3
17.4205 3.0285001 0.75800002 3
17.487499 3.0225 0.759 3
17.5735 3.0274999 0.75999999 3
17.5065 2.9905 0.75800002 3
17.570499 3.0244999 0.75999999 3
17.592501 3.0135 0.75999999 3
17.571501 2.9844999 0.759 3
17.297501 2.9895 0.755 3
17.3575 2.9914999 0.75599998 3
17.5495 3.0165 0.759 3
17.495501 2.9795001 0.75800002 3
17.404499 3.0274999 0.75700003 3
17.606501 3.0155001 0.75999999 3
17.4555 3.0985 0.759 3
17.401501 2.9725001 0.75700003 3
17.3605 3.0155001 0.75700003 3
17.557501 2.9925001 0.759 3
17.6045 3.0074999 0.75999999 3
17.459499 3.0885 0.759 3
17.400499 2.9995 0.75700003 3
17.4485 3.1215 0.759 3
17.4235 3.0504999 0.75800002 3
17.4205 2.9944999 0.75700003 3
17.335501 3.0244999 0.75599998 3
17.605499 2.9985001 0.75999999 3
17.463499 3.0385001 0.75800002 3
17.4965 3.0295 0.759 3
17.425501 2.9985001 0.75700003 3
17.3505 3.0185001 0.75700003 3
17.502501 2.9825001 0.75800002 3
17.623501 2.9814999 0.75999999 3
17.4785 2.9784999 0.75800002 3
17.459499 3.0895 0.759 3
17.3195 2.9744999 0.755 3
17.377501 2.9914999 0.75700003 3
17.404499 3.0725 0.75800002 3
17.4175 2.9875 0.75700003 3
17.4795 2.9725001 0.75800002 3
17.2675 2.9625001 0.755 3
17.4785 3.0225 0.75800002 3
17.3125 2.9905 0.75599998 3
17.4935 3.0755 0.759 3
17.3545 3.0125 0.75700003 3
17.6355 2.9974999 0.75999999 3
17.400499 2.9885001 0.75700003 3
17.453501 3.1115 0.759 3
17.3715 2.9955001 0.75700003 3
17.445499 3.0295 0.75800002 3
17.3305 2.9855001 0.75599998 3
17.394501 3.0385001 0.75700003 3
17.4695 3.0855 0.759 3
17.3955 3.0764999 0.75800002 3
17.352501 3.0035 0.75599998 3
17.3675 2.9944999 0.75599998 3
17.606501 3.0144999 0.75999999 3
17.3815 3.0355 0.75700003 3
17.4375 3.1085 0.759 3
17.5945 3.0144999 0.75999999 3
17.3925 3.0574999 0.75800002 3
17.4375 3.0265 0.75800002 3
17.5315 3.0755 0.75999999 3
17.5555 3.0455 0.75999999 3
17.4405 3.1264999 0.759 3
17.3225 2.9665 0.755 3
17.348499 2.9784999 0.75599998 3
17.3885 3.0595 0.75800002 3
17.577499 3.0395 0.75999999 3
17.515499 3.0304999 0.759 3
17.4785 3.0374999 0.759 3
17.627501 2.9825001 0.75999999 3
17.480499 3.0775001 0.759 3
17.488501 3.0734999 0.759 3
17.5315 3.0474999 0.75999999 3
17.630501 2.9875 0.75999999 3
17.3885 3.0325 0.75700003 3
17.554501 2.9814999 0.759 3
17.3915 3.0565 0.75800002 3
17.446501 3.0804999 0.759 3
17.4335 3.0455 0.75800002 3
17.6085 3.0025001 0.75999999 3
17.275499 2.9665 0.755 3
17.3715 3.0135 0.75700003 3
17.3915 3.0095 0.75700003 3
17.4575 3.0125 0.75800002 3
17.5795 3.0185001 0.75999999 3
17.5355 3.0685 0.75999999 3
17.411501 2.9865 0.75700003 3
17.5235 2.9935 0.759 3
17.5345 3.0385001 0.759 3
17.3745 3.0555 0.75700003 3
17.3125 2.9865 0.75599998 3
17.439501 3.0285001 0.75800002 3
17.6115 3.0174999 0.75999999 3
17.4625 3.0815001 0.759 3
17.3985 2.9714999 0.75700003 3
17.4125 3.0964999 0.759 3
17.654499 2.9875 0.75999999 3
17.4765 2.9905 0.75800002 3
17.3255 3.0055001 0.75599998 3
17.4265 3.0215001 0.75800002 3
17.5725 2.9974999 0.759 3
17.495501 2.9865 0.75800002 3
17.3015 2.9725001 0.755 3
17.3915 3.0565 0.75800002 3
17.459499 2.9995 0.75800002 3
17.439501 3.0664999 0.759 3
17.5905 3.0055001 0.75999999 3
17.5415 3.0315001 0.759 3
17.4065 2.9935 0.75700003 3
17.415501 3.0434999 0.75800002 3
17.5315 2.9985001 0.759 3
17.5135 3.0235 0.759 3
17.3395 3.0195 0.75599998 3
17.4855 3.0445001 0.759 3
17.4585 3.1005001 0.759 3
17.5425 3.0595 0.75999999 3
17.522499 3.0125 0.759 3
17.5735 3.0204999 0.75999999 3
17.505501 3.0815001 0.75999999 3
17.4765 3.0325 0.759 3
17.4095 3.0604999 0.75800002 3
17.5075 3.0834999 0.75999999 3
17.327499 2.9985001 0.75599998 3
17.307501 2.9655001 0.755 3
17.4555 3.0135 0.75800002 3
17.4175 3.0545001 0.75800002 3
17.460501 3.0135 0.75800002 3
17.408501 3.0815001 0.75800002 3
17.550501 2.9935 0.759 3
17.3405 3.0125 0.75599998 3
17.4615 3.0825 0.759 3
17.429501 3.1064999 0.759 3
17.4375 3.0355 0.75800002 3
17.490499 3.0055001 0.75800002 3
17.4055 3.0645001 0.75800002 3
17.4965 2.9965 0.75800002 3
17.408501 3.0945001 0.75800002 3
17.429501 3.0144999 0.75800002 3
17.5165 3.0664999 0.75999999 3
17.4895 3.1015 0.75999999 3
17.477501 2.9914999 0.75800002 3
17.4685 3.1105001 0.75999999 3
17.4165 2.9725001 0.75700003 3
17.556499 3.0125 0.759 3
17.4205 2.9805 0.75700003 3
17.480499 3.0504999 0.759 3
17.379499 3.0204999 0.75700003 3
17.390499 2.9835 0.75700003 3
17.4305 3.0304999 0.75800002 3
17.4855 2.9985001 0.75800002 3
17.4095 3.0945001 0.75800002 3
17.3645 3.0525 0.75700003 3
17.3055 2.9725001 0.755 3
17.463499 3.1164999 0.75999999 3
17.578501 2.9955001 0.75999999 3
17.4055 3.0875001 0.75800002 3
17.365499 2.9835 0.75599998 3
17.435499 3.0005 0.75800002 3
17.439501 3.0695 0.759 3
17.550501 3.0014999 0.759 3
17.2945 2.9865 0.755 3
17.5205 3.0235 0.759 3
17.4695 3.0525 0.759 3
17.334499 3.0285001 0.75599998 3
17.352501 3.0404999 0.75700003 3
17.320499 3.0065 0.75599998 3
17.508499 3.0474999 0.759 3
17.5305 2.9835 0.759 3
17.3305 2.9905 0.75599998 3
17.3855 2.9955001 0.75700003 3
17.283501 2.9805 0.755 3
17.328501 2.9714999 0.75599998 3
17.359501 3.0135 0.75700003 3
17.477501 2.9965 0.75800002 3
17.4095 2.9784999 0.75700003 3
17.491501 2.9735 0.75800002 3
17.3745 3.0165 0.75700003 3
17.5445 3.0014999 0.759 3
17.3855 3.0195 0.75700003 3
17.5275 2.9744999 0.75800002 3
17.508499 3.0825 0.75999999 3
17.627501 2.9965 0.75999999 3
17.5345 3.0695 0.75999999 3
17.4375 3.0355 0.75800002 3
17.467501 2.9814999 0.75800002 3
17.539499 3.0534999 0.75999999 3
17.4025 3.0915 0.75800002 3
17.494499 2.9744999 0.75800002 3
17.379499 3.0374999 0.75700003 3
17.5235 3.0385001 0.759 3
17.560499 2.9875 0.759 3
17.456499 3.0415001 0.75800002 3
17.4515 3.1085 0.759 3
17.400499 2.9955001 0.75700003 3
17.5425 3.0304999 0.759 3
17.3955 3.0465 0.75800002 3
17.512501 2.9925001 0.759 3
17.4865 3.1075001 0.75999999 3
17.4275 2.9844999 0.75700003 3
17.2815 2.9735 0.755 3
17.4335 2.9974999 0.75700003 3
17.442499 2.9765 0.75700003 3
17.4965 2.9775 0.75800002 3
17.3955 2.9795001 0.75700003 3
17.491501 3.0704999 0.759 3
17.4625 3.1264999 0.75999999 3
17.4855 3.0695 0.759 3
17.4625 3.0994999 0.759 3
17.4825 3.0704999 0.759 3
17.3895 2.9714999 0.75599998 3
17.4575 3.0385001 0.75800002 3
17.5795 3.0105 0.75999999 3
17.5725 3.0355 0.75999999 3
17.3235 2.9655001 0.755 3
17.4795 2.9744999 0.75800002 3
17.5145 2.9935 0.759 3
17.467501 3.0994999 0.759 3
17.314501 3.0055001 0.75599998 3
17.4715 3.0855 0.759 3
17.4335 2.9985001 0.75700003 3
17.422501 3.0885 0.759 3
17.612499 2.9895 0.75999999 3
17.518499 3.0344999 0.759 3
17.519501 3.0834999 0.75999999 3
17.4855 3.0425 0.759 3
17.595501 3.0235 0.75999999 3
17.4125 3.0465 0.75800002 3
17.3405 3.0055001 0.75599998 3
17.470501 3.0125 0.75800002 3
17.289499 2.9784999 0.755 3
17.456499 3.0975001 0.759 3
17.5695 3.0434999 0.75999999 3
17.3535 3.0355 0.75700003 3
17.490499 3.0225 0.759 3
17.4855 2.9805 0.75800002 3
17.5875 3.0095 0.75999999 3
17.415501 2.9795001 0.75700003 3
17.4245 3.0374999 0.75800002 3
17.370501 2.9735 0.75599998 3
17.460501 3.0344999 0.75800002 3
17.362499 3.0395 0.75700003 3
17.5275 3.0515001 0.75999999 3
17.5145 3.0764999 0.75999999 3
17.3815 3.0225 0.75700003 3
17.4555 3.0604999 0.759 3
17.4405 3.0105 0.75800002 3
17.5375 3.0315001 0.759 3
17.4755 3.0485001 0.759 3
17.484501 3.0135 0.75800002 3
17.3815 2.9684999 0.75599998 3
17.4995 3.0595 0.759 3
17.5285 3.0534999 0.75999999 3
17.4575 3.0975001 0.759 3
17.5175 3.0285001 0.759 3
17.5415 3.0085001 0.759 3
17.5275 2.9985001 0.759 3
17.3965 3.0235 0.75700003 3
17.3575 3.0374999 0.75700003 3
17.4445 3.0565 0.75800002 3
17.4165 3.0374999 0.75800002 3
17.3615 3.0545001 0.75700003 3
17.3675 3.0155001 0.75700003 3
17.4235 3.0185001 0.75800002 3
17.4475 3.1175001 0.759 3
17.4755 3.1064999 0.75999999 3
17.379499 3.0675001 0.75800002 3
17.443501 3.8805001 0.75800002 3
17.5975 3.8045001 0.759 3
17.6005 3.9245 0.75800002 3
17.7015 3.9835 0.759 3
17.5695 4.0795002 0.75800002 3
17.7805 3.8755 0.759 3
17.6035 3.7644999 0.759 3
17.606501 3.8325 0.759 3
17.6395 3.8625 0.759 3
17.745501 3.8545001 0.759 3
17.536501 3.9765 0.75800002 3
17.5035 3.7674999 0.75800002 3
17.8265 3.8395 0.75999999 3
17.6915 3.8815 0.759 3
17.5275 3.9714999 0.75800002 3
17.6975 3.8735001 0.759 3
17.525499 3.9305 0.75800002 3
17.5275 3.8864999 0.75800002 3
17.5005 3.9035001 0.75800002 3
17.4105 3.8115001 0.75800002 3
17.4515 3.8835001 0.75800002 3
17.6595 3.8115001 0.759 3
17.7085 3.7855 0.759 3
17.5795 3.8545001 0.759 3
17.5375 3.9805 0.75800002 3
17.6705 3.8824999 0.759 3
17.5315 3.7505 0.759 3
17.5905 3.8645 0.759 3
17.6805 3.8004999 0.759 3
17.7845 3.8125 0.75999999 3
17.6465 3.7825 0.759 3
17.7465 3.9085 0.759 3
17.6175 4.0644999 0.75800002 3
17.879499 3.7934999 0.75999999 3
17.688499 3.8675001 0.759 3
17.5875 4.0384998 0.75800002 3
17.5905 3.9844999 0.75800002 3
17.4825 3.9514999 0.75800002 3
17.731501 3.9245 0.759 3
17.3715 3.7485001 0.75800002 3
17.877501 3.7945001 0.75999999 3
17.636499 3.9105 0.759 3
17.633499 4.0374999 0.75800002 3
17.6775 3.8555 0.759 3
17.7195 3.8534999 0.759 3
17.5275 3.9645 0.75800002 3
17.404499 3.8275001 0.75800002 3
17.5965 3.7795 0.759 3
17.561501 3.9935 0.75800002 3
17.592501 3.7685001 0.759 3
17.8225 3.8225 0.75999999 3
17.5165 3.9895 0.75800002 3
17.5835 4.0155001 0.75800002 3
17.5345 3.7795 0.759 3
17.5175 4.0165 0.75800002 3
17.737499 3.8664999 0.759 3
17.511499 3.8505001 0.75800002 3
17.5005 3.8505001 0.75800002 3
17.800501 3.8434999 0.75999999 3
17.463499 3.8385 0.75800002 3
17.533501 4.0025001 0.75800002 3
17.5425 3.9575 0.75800002 3
17.8235 3.8534999 0.75999999 3
17.5555 3.8125 0.759 3
17.6185 3.8515 0.759 3
17.474501 3.9024999 0.75800002 3
17.695499 3.8065 0.759 3
17.7055 3.9265001 0.759 3
17.7945 3.8425 0.75999999 3
17.783501 3.8385 0.759 3
17.761499 3.8625 0.759 3
17.543501 3.9755001 0.75800002 3
17.7815 3.7804999 0.75999999 3
17.7495 3.9354999 0.759 3
