# .PCD v0.7 - Point Cloud Data file format
VERSION 0.7
FIELDS x y z label
SIZE 4 4 4 4
TYPE F F F U
COUNT 1 1 1 1
WIDTH 1706
HEIGHT 1
VIEWPOINT 0 0 0 1 0 0 0
POINTS 1706
DATA ascii
15.8095 0.77950001 1.5089999 1
15.8145 0.77950001 0.94599998 1
15.8255 0.77950001 0.88599998 1
15.7685 0.78049999 1.4069999 1
15.8055 0.77950001 1.553 1
15.7745 0.78049999 1.3430001 1
15.8305 0.77950001 1.069 1
15.7445 0.78149998 1.319 1
15.7485 0.78149998 1.516 1
15.8165 0.77950001 1.256 1
15.8245 0.77950001 1.1160001 1
15.7395 0.78250003 1.4 1
15.7805 0.78049999 1.027 1
15.8275 0.77950001 0.875 1
15.8095 0.77950001 1.2359999 1
15.8285 0.77950001 1.097 1
15.8295 0.77850002 1.549 1
15.8385 0.77850002 1.642 1
15.8225 0.77850002 1.561 1
15.8025 0.77950001 1.189 1
15.7275 0.78250003 1.358 1
15.8065 0.77950001 1.279 1
15.7695 0.78049999 1.478 1
15.8395 0.77850002 1.148 1
15.8315 0.77850002 1.434 1
15.8025 0.77950001 1.025 1
15.7835 0.78049999 1.043 1
15.7745 0.78049999 1.156 1
15.7335 0.78250003 1.475 1
15.8145 0.77950001 1.428 1
15.7925 0.77950001 1.1390001 1
15.7875 0.77950001 1.2359999 1
15.7925 0.78049999 1.061 1
15.8055 0.77950001 1.549 1
15.7935 0.77950001 1.5369999 1
15.7795 0.78049999 1.456 1
15.8185 0.77950001 1.37 1
15.8215 0.77950001 1.1210001 1
15.8295 0.77850002 1.38 1
15.8375 0.77950001 0.83899999 1
15.8305 0.77950001 0.81199998 1
15.7855 0.77950001 1.286 1
15.8395 0.77850002 1.339 1
15.7695 0.78049999 1.311 1
15.8215 0.77950001 0.87 1
15.7715 0.78049999 1.26 1
15.7765 0.78049999 1.046 1
15.7515 0.78149998 1.489 1
15.7065 0.78250003 1.507 1
15.8265 0.77950001 0.76700002 1
15.8025 0.77950001 1.508 1
15.8245 0.77950001 1.084 1
15.7935 0.77950001 1.197 1
15.7775 0.77950001 1.571 1
15.8335 0.77850002 1.454 1
15.8015 0.77950001 1.455 1
15.7745 0.78049999 1.467 1
15.7415 0.78250003 1.363 1
15.7995 0.77950001 1.158 1
15.7165 0.78250003 1.452 1
15.7385 0.78250003 1.326 1
15.8165 0.77950001 1.023 1
15.8165 0.77950001 1.3329999 1
15.8355 0.77850002 1.5829999 1
15.8385 0.77850002 1.38 1
15.7805 0.78049999 1.2180001 1
15.8035 0.77950001 1.612 1
15.8055 0.77950001 1.051 1
15.7985 0.77950001 1.576 1
15.8285 0.77950001 1.186 1
15.8235 0.77950001 1.2819999 1
15.7535 0.78149998 1.515 1
15.8405 0.77850002 0.89700001 1
15.8015 0.77950001 1.2130001 1
15.7305 0.78250003 1.436 1
15.8255 0.77950001 1.0140001 1
15.7835 0.78049999 1.125 1
15.7385 0.78250003 1.304 1
15.8125 0.77950001 1.007 1
15.8395 0.77850002 1.5319999 1
15.8125 0.77950001 0.98400003 1
15.8115 0.77950001 1.5880001 1
15.7995 0.77950001 1.584 1
15.7545 0.78049999 1.553 1
15.7695 0.78049999 1.402 1
15.7975 0.77950001 1.318 1
15.7785 0.78049999 1.2819999 1
15.8365 0.77950001 0.70899999 1
15.8135 0.77950001 0.94300002 1
15.8185 0.77950001 1.14 1
15.8205 0.77950001 1.089 1
15.8025 0.77950001 1.37 1
15.8115 0.77950001 1.5829999 1
15.7395 0.78250003 1.3559999 1
15.8135 0.77950001 1.103 1
15.8275 0.77950001 0.755 1
15.8315 0.77850002 1.48 1
15.7555 0.78049999 1.526 1
15.7565 0.78049999 1.29 1
15.8315 0.77950001 0.972 1
15.7415 0.78149998 1.451 1
15.7775 0.78049999 1.522 1
15.7715 0.78049999 1.214 1
15.7365 0.78250003 1.3660001 1
15.8325 0.77850002 1.482 1
15.8005 0.77950001 1.079 1
15.7655 0.78049999 1.535 1
15.7975 0.77950001 1.249 1
15.8145 0.77950001 1.056 1
15.8265 0.77850002 1.617 1
15.7535 0.78149998 1.558 1
15.8055 0.77950001 1.1799999 1
15.8155 0.77950001 1.331 1
15.8235 0.77950001 1.2640001 1
15.8035 0.77950001 1.258 1
15.8265 0.77950001 1.2079999 1
15.8255 0.77950001 1.131 1
15.7955 0.77950001 1.48 1
15.7985 0.77950001 1.446 1
15.7745 0.78049999 1.5700001 1
15.8195 0.77850002 1.599 1
15.7635 0.78049999 1.5319999 1
15.8135 0.77950001 1.627 1
15.7745 0.78049999 1.173 1
15.7905 0.77950001 1.255 1
15.7475 0.78149998 1.508 1
15.7815 0.78049999 1.067 1
15.7735 0.78049999 1.173 1
15.7655 0.78049999 1.181 1
15.7945 0.77950001 1.4450001 1
15.8335 0.77850002 1.095 1
15.7685 0.78049999 1.244 1
15.7545 0.78049999 1.4910001 1
15.8255 0.77950001 0.963 1
15.8135 0.77950001 1.622 1
15.7865 0.78049999 1.031 1
15.7145 0.78250003 1.455 1
15.7895 0.78049999 0.99699998 1
15.7805 0.77950001 1.502 1
15.8185 0.77850002 1.572 1
15.8285 0.77850002 1.6 1
15.7905 0.77950001 1.274 1
15.8105 0.77950001 1.5190001 1
15.8095 0.77950001 1.28 1
15.8275 0.77850002 1.446 1
15.8165 0.77950001 0.847 1
15.7445 0.78149998 1.535 1
15.7715 0.78049999 1.574 1
15.8175 0.77950001 0.92799997 1
15.8105 0.77950001 1.603 1
15.8325 0.77850002 1.444 1
15.8005 0.77950001 1.488 1
15.7205 0.78149998 1.6210001 1
15.7795 0.77850002 1.678 1
15.7165 0.78149998 1.628 1
15.8265 0.77850002 1.665 1
15.7305 0.78049999 1.6799999 1
15.7615 0.77950001 1.637 1
15.7615 0.78049999 1.5829999 1
15.7705 0.77950001 1.604 1
15.7505 0.78049999 1.682 1
15.7385 0.78149998 1.577 1
15.7285 0.78049999 1.6619999 1
15.7535 0.78049999 1.67 1
15.8145 0.77850002 1.6569999 1
15.7535 0.78049999 1.612 1
15.7135 0.78149998 1.617 1
15.7115 0.78250003 1.567 1
15.7245 0.78049999 1.6339999 1
15.7655 0.78049999 1.5930001 1
15.8215 0.77850002 1.6720001 1
15.8055 0.77850002 1.638 1
15.7115 0.78049999 1.647 1
15.7095 0.78250003 1.562 1
15.7415 0.78049999 1.6289999 1
15.7915 0.77850002 1.6569999 1
15.7245 0.78049999 1.651 1
15.7505 0.78049999 1.649 1
15.7345 0.78049999 1.627 1
15.7685 0.77850002 1.722 1
15.7485 0.77950001 1.697 1
15.7305 0.77950001 1.735 1
15.7715 0.77950001 1.6210001 1
15.7645 0.77950001 1.604 1
15.7115 0.78049999 1.682 1
15.7665 0.77950001 1.637 1
15.7295 0.78149998 1.619 1
15.7565 0.78049999 1.591 1
15.7655 0.78049999 1.5829999 1
15.7415 0.78049999 1.6210001 1
15.7585 0.77850002 1.689 1
15.7365 0.77950001 1.721 1
15.7595 0.77950001 1.6210001 1
15.7365 0.77950001 1.73 1
15.7415 0.78049999 1.673 1
15.8215 0.77850002 1.6440001 1
15.7065 0.78149998 1.587 1
15.7545 0.77950001 1.725 1
15.7905 0.77950001 1.6440001 1
15.7275 0.78049999 1.642 1
15.7815 0.77850002 1.691 1
15.8205 0.77850002 1.636 1
15.7055 0.78149998 1.6 1
15.7395 0.78049999 1.633 1
15.7625 0.77850002 1.7029999 1
15.7575 0.78049999 1.641 1
15.7175 0.77950001 1.7359999 1
15.7655 0.78049999 1.592 1
15.7565 0.78049999 1.646 1
15.7285 0.78049999 1.661 1
15.7665 0.77950001 1.642 1
15.7275 0.78149998 1.574 1
15.7205 0.78049999 1.6950001 1
15.7265 0.77950001 1.734 1
15.7665 0.77950001 1.6619999 1
15.7255 0.78049999 1.6569999 1
15.7495 0.77950001 1.747 1
15.7405 0.77950001 1.714 1
15.7285 0.78149998 1.6 1
15.7495 0.77950001 1.7180001 1
15.7395 0.78049999 1.65 1
15.7285 0.77950001 1.767 1
15.8195 0.77850002 1.642 1
15.7235 0.78149998 1.599 1
15.7045 0.78149998 1.585 1
15.7985 0.77850002 1.666 1
15.7115 0.78149998 1.605 1
15.8235 0.77850002 1.671 1
15.7585 0.77850002 1.677 1
15.7085 0.78149998 1.574 1
15.8075 0.77850002 1.682 1
15.7275 0.78149998 1.566 1
15.7485 0.77950001 1.7180001 1
15.7515 0.78149998 1.575 1
15.7275 0.77950001 1.738 1
15.7755 0.77950001 1.642 1
15.7575 0.78049999 1.6440001 1
15.7345 0.77950001 1.756 1
15.7845 0.77950001 1.638 1
15.8045 0.77850002 1.673 1
15.7205 0.78149998 1.574 1
15.8155 0.77850002 1.651 1
15.7685 0.77850002 1.677 1
15.7645 0.77950001 1.613 1
15.7125 0.78149998 1.613 1
15.7655 0.77850002 1.679 1
15.7395 0.78149998 1.586 1
15.7625 0.77850002 1.7 1
15.8265 0.77850002 1.6619999 1
15.7985 0.77850002 1.646 1
15.7315 0.78049999 1.661 1
15.7605 0.77850002 1.717 1
15.7245 0.77950001 1.714 1
15.7835 0.77950001 1.635 1
15.7555 0.77950001 1.726 1
15.7255 0.78149998 1.597 1
15.8195 0.77850002 1.658 1
15.7275 0.78149998 1.598 1
15.7455 0.78049999 1.646 1
15.7465 0.78049999 1.631 1
15.7065 0.78149998 1.582 1
15.7635 0.77950001 1.669 1
15.7295 0.77950001 1.745 1
15.7035 0.78250003 1.53 1
15.7585 0.77850002 1.71 1
15.7175 0.77950001 1.733 1
15.7215 0.77950001 1.709 1
15.7255 0.77950001 1.712 1
15.7485 0.77950001 1.738 1
15.7825 0.77950001 1.6160001 1
15.7205 0.77950001 1.742 1
15.7725 0.77850002 1.717 1
15.7055 0.78250003 1.521 1
15.7915 0.77850002 1.702 1
15.7795 0.77950001 1.633 1
15.7185 0.78149998 1.627 1
15.7335 0.77950001 1.721 1
15.7225 0.77950001 1.7410001 1
15.7055 0.78149998 1.6210001 1
15.7985 0.77850002 1.663 1
15.8065 0.77950001 1.626 1
15.7705 0.77950001 1.617 1
15.7715 0.77950001 1.626 1
15.7755 0.77850002 1.716 1
15.8225 0.77850002 1.6440001 1
15.7085 0.78250003 1.535 1
15.7285 0.78049999 1.669 1
15.7135 0.77950001 1.722 1
15.7275 0.78049999 1.645 1
15.7385 0.77950001 1.738 1
15.7325 0.77950001 1.7359999 1
15.7395 0.77950001 1.735 1
15.7035 0.78149998 1.589 1
15.7135 0.78049999 1.665 1
15.8165 0.77850002 1.645 1
15.7485 0.77950001 1.73 1
15.8115 0.77850002 1.649 1
15.7365 0.78149998 1.577 1
15.8375 0.77850002 1.658 1
15.7525 0.78149998 1.581 1
15.7835 0.77850002 1.676 1
15.7445 0.78149998 1.571 1
15.8125 0.77850002 1.646 1
15.7405 0.78049999 1.65 1
15.7735 0.77950001 1.618 1
15.7325 0.77950001 1.721 1
15.7125 0.77950001 1.7690001 1
15.7895 0.77850002 1.677 1
15.7355 0.77950001 1.755 1
15.7175 0.77950001 1.761 1
15.7915 0.77850002 1.6569999 1
15.7895 0.77950001 1.618 1
15.7225 0.77950001 1.756 1
15.7365 0.78149998 1.576 1
15.7475 0.77950001 1.722 1
15.7605 0.77950001 1.652 1
15.7185 0.78149998 1.58 1
15.7125 0.78049999 1.681 1
15.7285 0.78049999 1.648 1
15.7375 0.77950001 1.753 1
15.7565 0.78049999 1.607 1
15.7435 0.78149998 1.605 1
15.8235 0.77850002 1.665 1
15.7225 0.78049999 1.692 1
15.7295 0.78049999 1.638 1
15.7485 0.77950001 1.737 1
15.7065 0.78149998 1.6 1
15.7855 0.77950001 1.61 1
15.7245 0.78149998 1.605 1
15.7245 0.77950001 1.728 1
15.7515 0.78049999 1.643 1
15.7585 0.77950001 1.636 1
15.7195 0.78250003 1.544 1
15.7965 0.77850002 1.678 1
15.7845 0.77850002 1.798 1
15.8165 0.77850002 1.8099999 1
15.8305 0.77950001 2.131 1
15.7485 0.77950001 1.768 1
15.7945 0.77850002 1.72 1
15.8135 0.77850002 1.75 1
15.8075 0.77850002 1.702 1
15.7745 0.77850002 1.9170001 1
15.8095 0.77950001 1.944 1
15.8175 0.77850002 1.779 1
15.7365 0.77950001 1.836 1
15.8065 0.77850002 1.7130001 1
15.7615 0.77850002 1.859 1
15.8195 0.77950001 2.0769999 1
15.8335 0.77950001 2.0469999 1
15.8175 0.77850002 1.84 1
15.8125 0.77850002 1.709 1
15.8315 0.77850002 1.859 1
15.7305 0.77950001 1.7970001 1
15.7715 0.77850002 1.779 1
15.8305 0.77950001 1.974 1
15.8365 0.77850002 1.814 1
15.7865 0.77850002 1.928 1
15.7775 0.77850002 1.7970001 1
15.8335 0.77950001 1.908 1
15.7795 0.77850002 1.8329999 1
15.7985 0.77850002 1.771 1
15.7815 0.77850002 1.857 1
15.8405 0.77950001 2.1210001 1
15.7345 0.77950001 1.849 1
15.7565 0.77850002 1.812 1
15.8005 0.77850002 1.7130001 1
15.8075 0.77950001 1.992 1
15.7475 0.77950001 1.777 1
15.8385 0.77850002 1.678 1
15.7655 0.77850002 1.7410001 1
15.8295 0.77950001 1.9400001 1
15.7575 0.77850002 1.9170001 1
15.7725 0.77850002 1.829 1
15.8125 0.77950001 1.948 1
15.8185 0.77950001 1.999 1
15.7965 0.77850002 1.8559999 1
15.7805 0.77850002 1.993 1
15.7865 0.77850002 1.982 1
15.7945 0.77950001 1.995 1
15.8265 0.77950001 1.982 1
15.7365 0.77950001 1.8279999 1
15.8255 0.77950001 2.063 1
15.8025 0.77850002 1.762 1
15.8055 0.77850002 1.789 1
15.8315 0.77850002 1.688 1
15.7575 0.77850002 1.777 1
15.8245 0.77850002 1.694 1
15.7765 0.77850002 1.8710001 1
15.8035 0.77850002 1.951 1
15.7505 0.77950001 1.854 1
15.8365 0.77950001 2.1229999 1
15.8105 0.77850002 1.702 1
15.8355 0.77950001 1.997 1
15.8395 0.77950001 1.9960001 1
15.7635 0.77850002 1.756 1
15.8275 0.77850002 1.839 1
15.8165 0.77850002 1.853 1
15.7955 0.77850002 1.939 1
15.7585 0.77850002 1.801 1
15.7665 0.77850002 1.752 1
15.8385 0.77950001 2.0899999 1
15.8275 0.77950001 2.138 1
15.8365 0.77850002 1.847 1
15.8015 0.77850002 1.795 1
15.7895 0.77850002 1.847 1
15.7745 0.77850002 1.747 1
15.8285 0.77950001 2.0079999 1
15.7615 0.77850002 1.748 1
15.7745 0.77850002 1.921 1
15.8175 0.77850002 1.78 1
15.8065 0.77850002 1.7130001 1
15.7405 0.77950001 1.842 1
15.8105 0.77950001 2.0350001 1
15.7455 0.77950001 1.827 1
15.7765 0.77850002 1.758 1
15.8255 0.77950001 2.0480001 1
15.7195 0.77950001 1.798 1
15.7805 0.77850002 1.99 1
15.7945 0.77850002 1.822 1
15.8305 0.77950001 2.1199999 1
15.7855 0.77850002 1.803 1
15.7865 0.77850002 1.955 1
15.8155 0.77950001 2.0179999 1
15.7915 0.77850002 1.766 1
15.7315 0.77950001 1.799 1
15.8235 0.77850002 1.8559999 1
15.8175 0.77850002 1.9220001 1
15.8195 0.77850002 1.793 1
15.8035 0.77950001 2.0020001 1
15.8135 0.77950001 2.062 1
15.7935 0.77850002 1.7180001 1
15.8045 0.77850002 1.8710001 1
15.7455 0.77950001 1.819 1
15.8045 0.77850002 1.857 1
15.7395 0.77950001 1.7690001 1
15.8045 0.77850002 1.732 1
15.7875 0.77850002 1.8430001 1
15.7835 0.77850002 1.951 1
15.7695 0.77850002 1.79 1
15.7685 0.77850002 1.946 1
15.8325 0.77850002 1.809 1
15.7595 0.77850002 1.852 1
15.7985 0.77850002 1.867 1
15.8395 0.77850002 1.74 1
15.8265 0.77850002 1.682 1
15.7575 0.77850002 1.832 1
15.7805 0.77850002 1.911 1
15.7855 0.77950001 1.993 1
15.8125 0.77850002 1.936 1
15.8385 0.77950001 1.966 1
15.7955 0.77850002 1.7359999 1
15.8255 0.77850002 1.817 1
15.8035 0.77850002 1.938 1
15.8035 0.77850002 1.7640001 1
15.8015 0.77850002 1.923 1
15.7825 0.77850002 1.847 1
15.8295 0.77850002 1.9 1
15.7845 0.77850002 1.819 1
15.7945 0.77850002 1.873 1
15.7795 0.77850002 1.739 1
15.7985 0.77850002 1.901 1
15.7715 0.77850002 1.864 1
15.8015 0.77850002 1.839 1
15.8245 0.77850002 1.851 1
15.8065 0.77850002 1.727 1
15.7785 0.77850002 1.773 1
15.7925 0.77850002 1.825 1
15.8055 0.77850002 1.813 1
15.7625 0.77850002 1.76 1
15.7915 0.77950001 1.985 1
15.7365 0.77950001 1.784 1
15.8345 0.77850002 1.872 1
15.7935 0.77850002 1.789 1
15.8385 0.77950001 1.891 1
15.7995 0.77850002 1.896 1
15.8265 0.77950001 2.0669999 1
15.8285 0.77850002 1.83 1
15.7525 0.77950001 1.762 1
15.8065 0.77850002 1.87 1
15.7755 0.77850002 1.775 1
15.8205 0.77950001 2.0969999 1
15.7905 0.77850002 1.753 1
15.8365 0.77850002 1.6799999 1
15.8285 0.77950001 2.075 1
15.7855 0.77850002 1.753 1
15.7825 0.77850002 1.9069999 1
15.8375 0.77950001 2.075 1
15.8375 0.77950001 2.0320001 1
15.7985 0.77850002 1.813 1
15.8245 0.77850002 1.795 1
15.7495 0.77950001 1.804 1
15.8075 0.77850002 1.777 1
15.8045 0.77850002 1.875 1
15.7715 0.77850002 1.929 1
15.7985 0.77850002 1.858 1
15.7535 0.77950001 1.776 1
15.7965 0.77950001 1.999 1
15.7855 0.77850002 1.7640001 1
15.8085 0.77850002 1.743 1
15.8025 0.77850002 1.8380001 1
15.8225 0.77950001 1.984 1
15.8175 0.77950001 2.076 1
15.8365 0.77950001 2.092 1
15.8085 0.77850002 1.717 1
15.7825 0.77850002 1.832 1
15.7635 0.77850002 1.88 1
15.8305 0.77950001 2.0409999 1
15.7885 0.77950001 2.016 1
15.8025 0.77850002 1.745 1
15.7565 0.77850002 1.788 1
15.8245 0.77950001 2.079 1
15.7475 0.77950001 1.845 1
15.7825 0.77850002 1.837 1
15.8105 0.77950001 2.0840001 1
15.8305 0.77950001 2.125 1
15.7605 0.77850002 1.791 1
15.8055 0.77850002 1.943 1
15.7295 0.77950001 1.804 1
15.8145 0.77850002 1.723 1
15.7425 0.77950001 1.823 1
15.7965 0.77850002 1.914 1
15.7675 0.77850002 1.801 1
15.7795 0.77850002 1.7589999 1
15.8105 0.77950001 2.052 1
15.7685 0.77850002 1.841 1
15.8385 0.77850002 1.878 1
15.8215 0.77850002 1.9170001 1
15.7715 0.77850002 1.767 1
15.8295 0.77950001 2.059 1
15.8055 0.77950001 2.026 1
15.7415 0.77950001 1.808 1
15.8205 0.77950001 2.075 1
15.7915 0.77850002 1.897 1
15.8305 0.77950001 2.0929999 1
15.8145 0.77850002 1.793 1
15.7415 0.77950001 1.7589999 1
15.8305 0.77950001 2.0109999 1
15.8255 0.77950001 1.978 1
15.7835 0.77850002 1.902 1
15.7985 0.77850002 1.95 1
15.8125 0.77950001 2.0280001 1
15.8075 0.77950001 1.98 1
15.7505 0.77950001 1.811 1
15.7405 0.77950001 1.7690001 1
15.7375 0.77950001 1.855 1
15.7725 0.77850002 1.8839999 1
15.8295 0.77850002 1.762 1
15.8185 0.77850002 1.734 1
15.8395 0.77850002 1.738 1
15.8005 0.77850002 1.865 1
15.7685 0.77850002 1.937 1
15.7455 0.77950001 1.79 1
15.7475 0.77950001 1.811 1
15.7785 0.77850002 1.972 1
15.7815 0.77850002 1.901 1
15.8185 0.77950001 1.989 1
15.8315 0.77950001 2.0940001 1
15.7875 0.77850002 1.9400001 1
15.7855 0.77850002 1.841 1
15.8255 0.77850002 1.701 1
15.8225 0.77950001 2.0239999 1
15.7305 0.77950001 1.799 1
15.8025 0.77850002 1.758 1
15.7935 0.77850002 1.717 1
15.7425 0.77950001 1.849 1
15.8175 0.77950001 1.951 1
15.8095 0.77850002 1.722 1
15.7985 0.77850002 1.7410001 1
15.7495 0.77950001 1.78 1
15.7335 0.77950001 1.807 1
15.7715 0.77850002 1.864 1
15.8345 0.77850002 1.696 1
15.7995 0.77950001 2.02 1
15.8155 0.77950001 1.952 1
15.7855 0.77850002 1.927 1
15.8325 0.77850002 1.885 1
15.7895 0.77950001 1.989 1
15.8055 0.77950001 1.998 1
15.8275 0.77950001 1.942 1
15.7455 0.77950001 1.771 1
15.8105 0.77850002 1.775 1
15.8285 0.77950001 2.0799999 1
15.8305 0.77850002 1.673 1
15.7855 0.77850002 1.773 1
15.8305 0.77850002 1.715 1
15.8335 0.77950001 1.914 1
15.8105 0.77950001 2.0480001 1
15.8315 0.77950001 1.903 1
15.8395 0.77950001 2.1329999 1
15.8345 0.77850002 1.857 1
15.8195 0.77850002 1.794 1
15.7555 0.77950001 1.896 1
15.7965 0.77850002 1.7589999 1
15.7755 0.77850002 1.934 1
15.8025 0.77850002 1.9170001 1
15.8255 0.77850002 1.748 1
15.8285 0.77950001 1.977 1
15.7585 0.77850002 1.7460001 1
15.8065 0.77850002 1.768 1
15.8215 0.77950001 1.994 1
15.7855 0.77850002 1.7309999 1
15.8085 0.77850002 1.886 1
15.7935 0.77850002 1.885 1
15.8115 0.77850002 1.8099999 1
15.7695 0.77850002 1.779 1
15.8135 0.77850002 1.734 1
15.8165 0.77850002 1.8660001 1
15.7745 0.77850002 1.8890001 1
15.8085 0.77950001 2.0109999 1
15.8355 0.77950001 2.1210001 1
15.7455 0.77950001 1.783 1
15.8295 0.77850002 1.709 1
15.7365 0.77950001 1.783 1
15.8385 0.77850002 1.755 1
15.7975 0.77850002 1.834 1
15.8175 0.77950001 2.026 1
15.8185 0.77850002 1.691 1
15.8115 0.77850002 1.839 1
15.7995 0.77950001 1.9910001 1
15.8365 0.77850002 1.722 1
15.7745 0.77850002 1.875 1
15.8145 0.77850002 1.825 1
15.7915 0.77850002 1.8380001 1
15.8325 0.77950001 2.138 1
15.8055 0.77850002 1.9349999 1
15.8345 0.77850002 1.777 1
15.7965 0.77850002 1.8890001 1
15.7505 0.77950001 1.887 1
15.8345 0.77850002 1.74 1
15.8025 0.77850002 1.79 1
15.8385 0.77950001 1.989 1
15.8365 0.77950001 1.965 1
15.7495 0.77950001 1.827 1
15.7715 0.77850002 1.7920001 1
15.7825 0.77850002 1.8430001 1
15.7955 0.77950001 1.9910001 1
15.7625 0.77850002 1.881 1
15.8215 0.77850002 1.84 1
15.7425 0.77950001 1.8430001 1
15.7685 0.77850002 1.941 1
15.7935 0.77850002 1.831 1
15.7865 0.77850002 1.959 1
15.8275 0.77850002 1.904 1
15.7945 0.77850002 1.9299999 1
15.7765 0.77850002 1.8329999 1
15.8375 0.77950001 1.983 1
15.7585 0.77850002 1.75 1
15.7945 0.77850002 1.864 1
15.8055 0.77850002 1.7410001 1
15.7695 0.77850002 1.939 1
15.8045 0.77850002 1.727 1
15.8205 0.77850002 1.842 1
15.7975 0.77850002 1.8609999 1
15.8015 0.77850002 1.7079999 1
15.8225 0.77850002 1.883 1
15.8045 0.77850002 1.899 1
15.7325 0.77950001 1.785 1
15.8135 0.77850002 1.92 1
15.8285 0.77950001 2.131 1
15.7235 0.77950001 1.7869999 1
15.7655 0.77850002 1.885 1
15.8365 0.77850002 1.796 1
15.7665 0.77850002 1.795 1
15.8395 0.77850002 1.749 1
15.7805 0.77850002 1.9910001 1
15.7875 0.77850002 1.7180001 1
17.526501 0.79350001 0.25799999 1
17.5235 0.79149997 0.21600001 1
17.5305 0.79350001 0.27599999 1
17.5235 0.79250002 0.23100001 1
17.540501 0.79049999 0.26300001 1
17.539499 0.7895 0.242 1
17.539499 0.79149997 0.28400001 1
17.525499 0.79449999 0.27599999 1
17.5275 0.79149997 0.228 1
17.5245 0.79149997 0.226 1
17.5175 0.79949999 0.31200001 1
17.5355 0.79350001 0.289 1
17.5275 0.79449999 0.287 1
17.5175 0.7985 0.30899999 1
17.5145 0.80049998 0.315 1
17.5375 0.7895 0.237 1
17.5375 0.79250002 0.28 1
17.5285 0.79549998 0.294 1
17.518499 0.79650003 0.27500001 1
17.5285 0.79350001 0.27500001 1
17.547501 0.7895 0.28200001 1
17.519501 0.79750001 0.28999999 1
17.519501 0.79750001 0.29699999 1
17.5305 0.79149997 0.236 1
17.546499 0.78850001 0.252 1
17.529499 0.79350001 0.273 1
17.522499 0.79049999 1.597 1
17.508499 0.7985 1.5650001 1
17.5105 0.79949999 1.485 1
17.509501 0.80049998 1.4529999 1
17.5205 0.79149997 1.6 1
17.5145 0.7985 1.432 1
17.525499 0.79049999 1.552 1
17.508499 0.80049998 1.451 1
17.5205 0.79350001 1.5369999 1
17.5285 0.78750002 1.591 1
17.5135 0.79549998 1.609 1
17.5075 0.80150002 1.465 1
17.5285 0.78850001 1.573 1
17.5105 0.80049998 1.428 1
17.508499 0.79949999 1.523 1
17.515499 0.79449999 1.601 1
17.5145 0.79650003 1.518 1
17.5075 0.80049998 1.49 1
17.509501 0.79750001 1.574 1
17.515499 0.79750001 1.474 1
17.5135 0.79549998 1.599 1
17.515499 0.79449999 1.573 1
17.5165 0.79449999 1.563 1
17.5235 0.79149997 1.5549999 1
17.5215 0.79250002 1.5650001 1
17.512501 0.79650003 1.564 1
17.508499 0.80049998 1.4859999 1
17.5305 0.78649998 1.591 1
17.529499 0.78850001 1.577 1
17.515499 0.79449999 1.595 1
17.5205 0.79250002 1.5700001 1
17.5105 0.79750001 1.595 1
17.5105 0.80049998 1.431 1
17.509501 0.79949999 1.5140001 1
17.509501 0.7985 1.548 1
17.505501 0.80449998 1.388 1
17.508499 0.79949999 1.534 1
17.5105 0.7985 1.505 1
17.515499 0.79549998 1.732 1
17.522499 0.79149997 1.674 1
17.5345 0.78649998 1.7589999 1
17.5205 0.79149997 1.609 1
17.529499 0.7895 1.7920001 1
17.526501 0.79049999 1.755 1
17.526501 0.7895 1.651 1
17.5245 0.7895 1.617 1
17.536501 0.7845 1.694 1
17.5285 0.7895 1.757 1
17.5285 0.7895 1.801 1
17.515499 0.79449999 1.668 1
17.512501 0.79650003 1.692 1
17.5385 0.7845 1.774 1
17.519501 0.79250002 1.612 1
17.532499 0.78750002 1.7819999 1
17.536501 0.7845 1.698 1
17.5205 0.79250002 1.693 1
17.5105 0.79650003 1.631 1
17.5175 0.79350001 1.633 1
17.5305 0.78850001 1.733 1
17.511499 0.79650003 1.679 1
17.5305 0.78850001 1.762 1
17.5245 0.79049999 1.704 1
17.5305 0.78750002 1.696 1
17.526501 0.7895 1.6799999 1
17.512501 0.79549998 1.651 1
17.5135 0.79549998 1.687 1
17.5285 0.78750002 1.617 1
17.5285 0.78850001 1.641 1
17.533501 0.78649998 1.723 1
17.509501 0.79750001 1.642 1
17.532499 0.78750002 1.774 1
17.5315 0.78649998 1.645 1
17.522499 0.79149997 1.686 1
17.5215 0.79149997 1.666 1
17.515499 0.79449999 1.643 1
17.5215 0.79149997 1.605 1
17.536501 0.78649998 1.807 1
17.515499 0.79549998 1.771 1
17.5285 0.7895 1.801 1
17.522499 0.79149997 1.715 1
17.5165 0.79549998 1.776 1
17.5285 0.7895 1.7079999 1
17.5245 0.79049999 1.626 1
17.5215 0.79250002 1.751 1
17.5315 0.78649998 1.654 1
17.5355 0.78649998 1.791 1
17.5285 0.78850001 1.691 1
17.5385 0.78549999 1.836 1
17.5355 0.78549999 1.67 1
17.5235 0.79149997 1.7029999 1
17.5355 0.78549999 1.673 1
17.5165 0.79449999 1.723 1
17.5345 0.78649998 1.7690001 1
17.509501 0.79750001 1.682 1
17.522499 0.79250002 1.755 1
17.5105 0.79650003 1.6440001 1
17.519501 0.79350001 1.706 1
17.540501 0.7845 1.845 1
17.529499 0.78850001 1.671 1
17.5165 0.79350001 1.612 1
17.5165 0.79949999 1.817 1
17.509501 0.80250001 1.798 1
17.498501 0.80949998 1.789 1
17.536501 0.78850001 1.848 1
17.5105 0.80150002 1.803 1
17.5075 0.80650002 1.823 1
17.5135 0.79949999 1.803 1
17.515499 0.79650003 1.788 1
17.512501 0.7985 1.779 1
17.512501 0.80150002 1.8150001 1
17.5035 0.80549997 1.786 1
17.5035 0.80549997 1.785 1
17.5105 0.80049998 1.791 1
17.5135 0.7985 1.791 1
17.508499 0.7985 1.762 1
17.508499 0.8035 1.8049999 1
17.5315 0.79149997 1.842 1
17.504499 0.80250001 1.763 1
17.522499 0.79449999 1.808 1
17.515499 0.79650003 0.67900002 1
17.5145 0.79750001 0.74900001 1
17.515499 0.79650003 0.71700001 1
17.519501 0.79350001 0.616 1
17.5165 0.79750001 0.79100001 1
17.5145 0.7985 0.773 1
17.5245 0.79250002 0.63800001 1
17.5305 0.79149997 0.77399999 1
17.518499 0.79449999 0.671 1
17.5245 0.79250002 0.63200003 1
17.518499 0.79449999 0.66500002 1
17.515499 0.7985 0.82800001 1
17.5215 0.79250002 0.59100002 1
17.522499 0.79250002 0.579 1
17.512501 0.79949999 0.82999998 1
17.5245 0.79250002 0.65799999 1
17.5275 0.79350001 0.83200002 1
17.522499 0.79250002 0.64200002 1
17.522499 0.79350001 0.69800001 1
17.5145 0.79750001 0.741 1
17.5175 0.79549998 0.66799998 1
17.5145 0.79750001 0.72399998 1
17.525499 0.79149997 0.64300001 1
17.525499 0.79250002 0.69 1
17.5165 0.79549998 0.68099999 1
17.526501 0.79350001 0.77999997 1
17.5215 0.79449999 0.72500002 1
17.515499 0.79650003 0.69199997 1
17.522499 0.79549998 0.81599998 1
17.515499 0.7985 0.80299997 1
17.5285 0.79149997 0.69800001 1
17.522499 0.79449999 0.75099999 1
17.522499 0.79449999 0.773 1
17.5275 0.79350001 0.81599998 1
17.529499 0.79149997 0.76099998 1
17.5205 0.79149997 0.50400001 1
17.5205 0.79350001 0.66299999 1
17.5205 0.79250002 0.53500003 1
17.525499 0.79350001 0.79900002 1
17.5215 0.79149997 0.52999997 1
17.5165 0.79650003 0.68300003 1
17.529499 0.79149997 0.78200001 1
17.5215 0.79449999 0.722 1
17.518499 0.79449999 0.63599998 1
17.5235 0.79250002 0.67000002 1
17.5245 0.79250002 0.667 1
17.5235 0.79149997 0.59200001 1
17.5215 0.79250002 0.56999999 1
17.522499 0.79350001 0.667 1
17.512501 0.79949999 0.824 1
17.515499 0.79750001 0.792 1
17.5205 0.79250002 0.551 1
17.512501 0.79949999 0.79400003 1
17.5235 0.79250002 0.64399999 1
17.5075 0.80449998 0.958 1
17.5175 0.79949999 0.90899998 1
17.5175 0.79949999 0.94300002 1
17.518499 0.79949999 0.92799997 1
17.5065 0.80549997 0.972 1
17.519501 0.79750001 0.85000002 1
17.509501 0.80250001 0.91299999 1
17.512501 0.80049998 0.85500002 1
17.5275 0.79449999 0.86500001 1
17.5145 0.80150002 0.95200002 1
17.5235 0.79650003 0.88999999 1
17.5235 0.79650003 0.89899999 1
17.511499 0.80250001 0.94400001 1
17.5075 0.80549997 1.023 1
17.5145 0.79949999 0.84200001 1
17.508499 0.8035 0.92699999 1
17.512501 0.80150002 0.903 1
17.5165 0.79949999 0.87699997 1
17.526501 0.79449999 0.85699999 1
17.5135 0.79949999 0.85699999 1
17.5065 0.80549997 0.98900002 1
17.515499 0.79949999 0.88499999 1
17.518499 0.79750001 0.85900003 1
17.512501 0.80250001 0.96100003 1
17.553499 0.78850001 0.249 1
17.532499 0.7895 0.219 1
17.5495 0.78850001 0.24600001 1
17.5445 0.7895 0.23 1
17.556499 0.78750002 0.26499999 1
17.539499 0.7895 0.226 1
17.5495 0.78850001 0.25299999 1
17.5515 0.79549998 0.29300001 1
17.5495 0.7985 0.29699999 1
17.5145 0.81550002 0.34599999 1
17.5205 0.8035 0.32600001 1
17.5345 0.81349999 0.32800001 1
17.5315 0.79650003 0.308 1
17.5205 0.81550002 0.34200001 1
17.5495 0.79149997 0.28799999 1
17.5515 0.79449999 0.29100001 1
17.529499 0.8075 0.324 1
17.509501 0.80949998 0.34200001 1
17.5445 0.80650002 0.31099999 1
17.540501 0.79049999 1.039 1
17.5285 0.79449999 0.903 1
17.5035 0.80849999 1.092 1
17.525499 0.79650003 0.99800003 1
17.522499 0.7985 0.99800003 1
17.518499 0.80150002 1.095 1
17.522499 0.7985 1.04 1
17.522499 0.80049998 1.138 1
17.5165 0.80150002 1.034 1
17.526501 0.79650003 1.0319999 1
17.5235 0.7985 1.046 1
17.5275 0.79750001 1.146 1
17.526501 0.79750001 1.069 1
17.5215 0.7985 0.94099998 1
17.5205 0.80150002 1.147 1
17.508499 0.80650002 1.138 1
17.511499 0.80449998 1.076 1
17.5245 0.79949999 1.141 1
17.532499 0.79250002 0.88099998 1
17.547501 0.78850001 1.1160001 1
17.519501 0.80150002 1.131 1
17.511499 0.8035 1.001 1
17.512501 0.80549997 1.1670001 1
17.533501 0.79350001 1.044 1
17.508499 0.80549997 1.033 1
17.543501 0.79049999 1.136 1
17.546499 0.78850001 1.084 1
17.529499 0.79549998 1.063 1
17.5355 0.79149997 0.954 1
17.5445 0.7895 1.138 1
17.539499 0.79149997 1.0829999 1
17.5305 0.79549998 1.0369999 1
17.529499 0.79350001 0.89600003 1
17.539499 0.79049999 1.0369999 1
17.5235 0.79949999 1.068 1
17.5345 0.79350001 1.026 1
17.546499 0.78850001 1.077 1
17.5105 0.80549997 1.143 1
17.533501 0.79350001 0.97100002 1
17.5065 0.80650002 1.056 1
17.5215 0.7985 0.94999999 1
17.509501 0.80650002 1.17 1
17.5385 0.79149997 1.082 1
17.5165 0.80150002 1.002 1
17.5445 0.7895 1.072 1
17.5355 0.79250002 0.99199998 1
17.508499 0.80549997 1.058 1
17.5105 0.80549997 1.132 1
17.532499 0.79350001 0.96600002 1
17.5105 0.80549997 1.158 1
17.532499 0.79449999 1.107 1
17.5415 0.79049999 1.058 1
17.5445 0.7895 1.123 1
17.5495 0.78750002 1.151 1
17.5245 0.7985 1.0930001 1
17.5315 0.79350001 0.935 1
17.5215 0.79949999 1.087 1
17.5375 0.79149997 1.015 1
17.536501 0.79350001 1.1109999 1
17.5175 0.80049998 0.98100001 1
17.5065 0.80650002 1.043 1
17.5245 0.79750001 0.98500001 1
17.518499 0.80150002 1.0700001 1
17.5375 0.79350001 1.149 1
17.5355 0.79149997 0.917 1
17.509501 0.80650002 1.127 1
17.522499 0.80049998 1.163 1
17.5075 0.80650002 1.063 1
17.533501 0.79350001 1.008 1
17.5205 0.79949999 1.0319999 1
17.5315 0.79449999 0.99299997 1
17.5245 0.79650003 0.93800002 1
17.501499 0.81050003 1.153 1
17.532499 0.79449999 1.081 1
17.533501 0.79350001 0.99000001 1
17.519501 0.80049998 1.0089999 1
17.5135 0.80449998 1.154 1
17.5385 0.79049999 0.99000001 1
17.5075 0.80650002 1.092 1
17.5445 0.78850001 1.0369999 1
17.5215 0.7985 0.972 1
17.5385 0.79149997 1.072 1
17.5145 0.8035 1.11 1
17.5215 0.80049998 1.0930001 1
17.515499 0.80150002 0.98900002 1
17.526501 0.79750001 1.096 1
17.5075 0.80650002 1.061 1
17.5305 0.79549998 1.091 1
17.512501 0.8035 1.054 1
17.505501 0.80849999 1.171 1
17.529499 0.79449999 0.93300003 1
17.5065 0.8075 1.141 1
17.509501 0.80549997 1.054 1
17.5075 0.8075 1.164 1
17.5375 0.79350001 1.151 1
17.5105 0.80449998 1.071 1
17.536501 0.79049999 0.92500001 1
17.519501 0.79949999 0.99599999 1
17.505501 0.8075 1.0549999 1
17.5275 0.79549998 0.90899998 1
17.5245 0.7985 1.05 1
17.5105 0.80650002 1.149 1
17.519501 0.79949999 0.95099998 1
17.536501 0.79049999 0.91500002 1
17.5065 0.80849999 1.173 1
17.529499 0.79650003 1.1210001 1
17.5065 0.8075 1.1900001 1
17.5145 0.80449998 1.192 1
17.5205 0.80049998 1.217 1
17.536501 0.78850001 1.375 1
17.515499 0.80049998 1.304 1
17.502501 0.80949998 1.217 1
17.5305 0.79350001 1.2920001 1
17.522499 0.7985 1.284 1
17.519501 0.7985 1.3049999 1
17.5285 0.79049999 1.471 1
17.518499 0.80250001 1.1950001 1
17.5315 0.78850001 1.518 1
17.5285 0.79149997 1.45 1
17.5285 0.79049999 1.483 1
17.504499 0.80949998 1.1799999 1
17.522499 0.7985 1.277 1
17.512501 0.80250001 1.286 1
17.5165 0.79750001 1.444 1
17.5385 0.7895 1.306 1
17.515499 0.80250001 1.262 1
17.5215 0.79750001 1.3 1
17.540501 0.78850001 1.317 1
17.5305 0.79549998 1.2079999 1
17.533501 0.78850001 1.47 1
17.5035 0.80949998 1.191 1
17.539499 0.78850001 1.349 1
17.525499 0.79449999 1.365 1
17.5285 0.79149997 1.443 1
17.5315 0.79549998 1.178 1
17.5165 0.8035 1.188 1
17.509501 0.80250001 1.3430001 1
17.5445 0.78750002 1.28 1
17.5145 0.80250001 1.257 1
17.532499 0.78750002 1.528 1
17.546499 0.78649998 1.255 1
17.5205 0.79949999 1.261 1
17.515499 0.80250001 1.2410001 1
17.529499 0.79449999 1.29 1
17.532499 0.79449999 1.209 1
17.546499 0.78750002 1.233 1
17.518499 0.79949999 1.317 1
17.5305 0.7895 1.494 1
17.526501 0.79549998 1.325 1
17.536501 0.78649998 1.479 1
17.5285 0.79750001 1.168 1
17.5165 0.79750001 1.42 1
17.5245 0.79149997 1.512 1
17.543501 0.78750002 1.284 1
17.5135 0.80049998 1.363 1
17.5135 0.80449998 1.182 1
17.519501 0.80250001 1.173 1
17.533501 0.78649998 1.558 1
17.518499 0.79750001 1.3839999 1
17.5285 0.79350001 1.354 1
17.539499 0.7895 1.26 1
17.5445 0.7895 1.179 1
17.5205 0.7985 1.313 1
17.529499 0.79449999 1.304 1
17.5135 0.8035 1.221 1
17.5345 0.79149997 1.316 1
17.522499 0.79449999 1.424 1
17.5285 0.79149997 1.4400001 1
17.501499 0.81050003 1.176 1
17.5205 0.79650003 1.3710001 1
17.5235 0.79650003 1.304 1
17.543501 0.78649998 1.313 1
17.5245 0.79250002 1.47 1
17.5215 0.79949999 1.23 1
17.5135 0.80049998 1.348 1
17.5165 0.80049998 1.319 1
17.502501 0.80949998 1.23 1
17.5165 0.79949999 1.355 1
17.536501 0.79250002 1.2130001 1
17.5215 0.79949999 1.25 1
17.5285 0.79750001 1.1799999 1
17.536501 0.78750002 1.425 1
17.529499 0.78850001 1.562 1
17.5135 0.80250001 1.26 1
17.505501 0.80650002 1.2819999 1
17.5355 0.7895 1.3710001 1
17.5345 0.79250002 1.27 1
17.5205 0.79750001 1.3430001 1
17.5425 0.79049999 1.2 1
17.529499 0.79350001 1.339 1
17.5455 0.78850001 1.181 1
17.5355 0.79149997 1.307 1
17.5345 0.79350001 1.199 1
17.525499 0.79750001 1.267 1
17.522499 0.79549998 1.392 1
17.547501 0.78850001 1.174 1
17.508499 0.80549997 1.233 1
17.5285 0.79250002 1.385 1
17.5425 0.78649998 1.35 1
17.519501 0.79949999 1.253 1
17.5215 0.79549998 1.41 1
17.5245 0.79449999 1.386 1
17.5165 0.79750001 1.446 1
17.5065 0.80549997 1.283 1
17.539499 0.78750002 1.381 1
17.5275 0.79350001 1.375 1
17.5285 0.79650003 1.238 1
17.5355 0.79049999 1.349 1
17.509501 0.80549997 1.2359999 1
17.5165 0.79750001 1.436 1
17.529499 0.79650003 1.184 1
17.539499 0.78850001 1.33 1
17.512501 0.80449998 1.215 1
17.5035 0.80849999 1.242 1
17.5145 0.79949999 1.4 1
17.5175 0.80250001 1.2 1
17.5375 0.7895 1.358 1
17.532499 0.79149997 1.348 1
17.5215 0.79650003 1.363 1
17.5165 0.80049998 1.294 1
17.543501 0.78750002 1.285 1
17.5275 0.79149997 1.4529999 1
17.5245 0.79350001 1.447 1
17.533501 0.79350001 1.265 1
17.5285 0.79549998 1.2589999 1
17.5355 0.78750002 1.448 1
17.5315 0.7895 1.489 1
17.5135 0.79949999 1.396 1
17.546499 0.78750002 1.219 1
17.522499 0.79650003 1.36 1
17.5345 0.79449999 1.165 1
17.518499 0.80150002 1.1799999 1
17.5235 0.7985 1.2539999 1
17.5205 0.79949999 1.235 1
17.5075 0.80650002 1.234 1
17.508499 0.80650002 1.228 1
17.529499 0.79250002 1.355 1
17.5205 0.79549998 1.442 1
17.5135 0.79949999 1.393 1
17.522499 0.79650003 1.354 1
17.519501 0.79750001 1.363 1
17.5135 0.80049998 1.359 1
17.525499 0.7985 1.174 1
17.536501 0.79250002 1.2309999 1
17.5275 0.79149997 1.45 1
17.522499 0.79650003 1.346 1
17.5375 0.78850001 1.367 1
17.518499 0.79650003 1.413 1
17.5165 0.79549998 1.972 1
17.5315 0.7845 2.046 1
17.525499 0.79149997 1.931 1
17.511499 0.80250001 1.887 1
17.508499 0.80150002 1.961 1
17.4995 0.8075 1.95 1
17.501499 0.80949998 1.86 1
17.5245 0.78549999 2.1470001 1
17.529499 0.78549999 2.0380001 1
17.515499 0.80049998 1.855 1
17.5285 0.79049999 1.903 1
17.505501 0.80150002 2.0150001 1
17.5105 0.7985 2.0250001 1
17.505501 0.8035 1.967 1
17.5105 0.80049998 1.962 1
17.501499 0.80949998 1.874 1
17.5005 0.81050003 1.844 1
17.5345 0.7845 2.0009999 1
17.539499 0.78549999 1.864 1
17.512501 0.79949999 1.952 1
17.512501 0.79549998 2.0699999 1
17.508499 0.7985 2.0409999 1
17.501499 0.80549997 1.9579999 1
17.4995 0.80849999 1.926 1
17.522499 0.7895 2.0550001 1
17.536501 0.7845 1.962 1
17.5245 0.78850001 2.0510001 1
17.5345 0.7845 2.007 1
17.525499 0.7895 2.0009999 1
17.5105 0.80250001 1.902 1
17.508499 0.80049998 1.973 1
17.518499 0.79049999 2.108 1
17.525499 0.7895 2.0009999 1
17.529499 0.79149997 1.885 1
17.5145 0.79549998 2.026 1
17.495501 0.8125 1.868 1
17.5315 0.78750002 1.942 1
17.519501 0.7895 2.1229999 1
17.5285 0.7895 1.943 1
17.5215 0.79049999 2.039 1
17.543501 0.78350002 1.869 1
17.525499 0.78649998 2.1059999 1
17.5285 0.78850001 1.9910001 1
17.511499 0.79650003 2.049 1
17.515499 0.79949999 1.886 1
17.5215 0.79650003 1.892 1
17.5215 0.79650003 1.858 1
17.5245 0.78549999 2.1329999 1
17.504499 0.8075 1.872 1
17.519501 0.7895 2.118 1
17.5145 0.79650003 1.982 1
17.504499 0.80250001 1.994 1
17.529499 0.78649998 2.027 1
17.5135 0.80049998 1.905 1
17.5235 0.79650003 1.847 1
17.5205 0.79149997 2.0450001 1
17.515499 0.79449999 2.0480001 1
17.5145 0.79949999 1.898 1
17.497499 0.81150001 1.876 1
17.532499 0.78750002 1.946 1
17.5215 0.7895 2.0739999 1
17.540501 0.7845 1.8890001 1
17.5035 0.80949998 1.83 1
17.529499 0.7895 1.938 1
17.5065 0.80250001 1.979 1
17.5235 0.79049999 2.0239999 1
17.5035 0.80650002 1.911 1
17.5205 0.78850001 2.1300001 1
17.4995 0.80949998 1.893 1
17.5035 0.80949998 1.825 1
17.5275 0.79350001 1.848 1
17.536501 0.7845 1.946 1
17.508499 0.80250001 1.937 1
17.5285 0.79049999 1.941 1
17.519501 0.7985 1.839 1
17.526501 0.78750002 2.0369999 1
17.505501 0.80549997 1.891 1
17.5135 0.7985 1.9450001 1
17.5275 0.79250002 1.863 1
17.504499 0.80650002 1.905 1
17.526501 0.78649998 2.0810001 1
17.5245 0.7895 2.023 1
17.5145 0.79750001 1.977 1
17.4965 0.8125 1.851 1
17.540501 0.78549999 1.86 1
17.5205 0.79549998 1.927 1
17.522499 0.78750002 2.1170001 1
17.532499 0.7895 1.8839999 1
17.511499 0.79949999 1.9630001 1
17.5315 0.78750002 1.971 1
17.512501 0.79949999 1.941 1
17.525499 0.78549999 2.118 1
17.509501 0.7985 2.0339999 1
17.5305 0.79149997 1.8559999 1
17.532499 0.79049999 1.851 1
17.5275 0.79049999 1.9400001 1
17.5305 0.78850001 1.938 1
17.5175 0.79250002 2.0810001 1
17.5315 0.78549999 2.0320001 1
17.5235 0.79049999 2.01 1
17.515499 0.79350001 2.0680001 1
17.502501 0.80849999 1.88 1
17.525499 0.78750002 2.05 1
17.532499 0.78549999 1.99 1
17.5245 0.78750002 2.0929999 1
17.522499 0.79549998 1.893 1
17.5245 0.7895 2.016 1
17.5275 0.78750002 2.0450001 1
17.509501 0.79949999 2.0139999 1
17.501499 0.80849999 1.892 1
17.5175 0.79449999 2.023 1
17.5235 0.78649998 2.142 1
17.526501 0.7895 2 1
17.502501 0.80449998 1.9680001 1
17.511499 0.80250001 1.893 1
17.518499 0.80449998 0.398 1
17.5235 0.80949998 0.389 1
17.522499 0.80949998 0.38699999 1
17.522499 0.81550002 0.37200001 1
17.5205 0.79949999 0.41299999 1
17.5135 0.8075 0.38299999 1
17.509501 0.8075 0.38 1
17.512501 0.80650002 0.38699999 1
17.5165 0.80250001 0.40099999 1
17.518499 0.79750001 0.417 1
17.560499 0.79149997 0.91900003 1
17.5875 0.79350001 0.98100001 1
17.5585 0.79049999 0.99000001 1
17.5825 0.79250002 1.01 1
17.5425 0.79049999 0.90399998 1
17.5555 0.7895 1.022 1
17.554501 0.79149997 0.89700001 1
17.5665 0.79049999 1.044 1
17.578501 0.79149997 1.063 1
17.5905 0.79250002 1.038 1
17.564501 0.7895 1.104 1
17.567499 0.79250002 0.95300001 1
17.5655 0.79250002 0.92500001 1
17.5735 0.79049999 1.054 1
17.5415 0.7895 0.963 1
17.557501 0.79149997 0.93099999 1
17.5835 0.79250002 1.048 1
17.556499 0.7895 1.03 1
17.588499 0.79350001 1.001 1
17.591499 0.79449999 0.963 1
17.567499 0.7895 1.102 1
17.5805 0.79250002 1.001 1
17.5555 0.79049999 0.95300001 1
17.5495 0.7895 0.97399998 1
17.581499 0.79350001 0.94499999 1
17.5495 0.79149997 0.88099998 1
17.5485 0.78850001 1.028 1
17.584499 0.79250002 1.035 1
17.5805 0.79350001 0.93400002 1
17.553499 0.79149997 0.90700001 1
17.557501 0.78850001 1.113 1
17.5755 0.79149997 1.012 1
17.5895 0.79250002 1.04 1
17.5515 0.78850001 1.086 1
17.557501 0.79049999 0.97799999 1
17.5735 0.79049999 1.0650001 1
17.546499 0.79049999 0.94700003 1
17.5585 0.79049999 1.013 1
17.5725 0.79149997 1.0369999 1
17.5555 0.78850001 1.091 1
17.5725 0.79149997 1.04 1
17.5735 0.79149997 1.034 1
17.5595 0.79049999 1.02 1
17.5585 0.79049999 0.977 1
17.5875 0.79250002 1.0190001 1
17.5425 0.7895 0.93000001 1
17.5515 0.7895 1.033 1
17.5525 0.7895 1.023 1
17.5905 0.79449999 0.97500002 1
17.598499 0.79449999 0.99599999 1
17.570499 0.79250002 0.97000003 1
17.564501 0.79049999 1.018 1
17.563499 0.79049999 1.015 1
17.5765 0.79250002 0.97799999 1
17.5595 0.7895 1.0779999 1
17.547501 0.79149997 0.87099999 1
17.5755 0.79149997 1.059 1
17.585501 0.79350001 0.972 1
17.560499 0.79149997 0.93400002 1
17.577499 0.79250002 0.958 1
17.5805 0.79250002 1.027 1
17.5495 0.79149997 0.91100001 1
17.5735 0.79350001 0.92799997 1
17.5425 0.79049999 0.90700001 1
17.5695 0.79350001 0.91500002 1
17.564501 0.7895 1.058 1
17.5895 0.79350001 1.0039999 1
17.560499 0.79250002 0.90200001 1
17.574499 0.79149997 1.028 1
17.5945 0.79449999 0.99800003 1
17.5655 0.79049999 1.0190001 1
17.571501 0.79049999 1.057 1
17.5555 0.79049999 0.95599997 1
17.5555 0.79149997 0.92699999 1
17.599501 0.79449999 1.015 1
17.588499 0.79250002 1.043 1
17.581499 0.79350001 0.95599997 1
17.557501 0.78850001 1.089 1
17.5665 0.7895 1.069 1
17.5525 0.7895 1.011 1
17.553499 0.78850001 1.0599999 1
17.563499 0.79149997 0.97500002 1
17.5725 0.79250002 0.96399999 1
17.588499 0.79350001 1.011 1
17.5595 0.79149997 0.95099998 1
17.5595 0.7895 1.034 1
17.546499 0.7895 0.991 1
17.547501 0.79149997 0.89399999 1
17.5525 0.79049999 0.98100001 1
17.5695 0.79049999 1.059 1
17.550501 0.78850001 1.031 1
17.550501 0.79049999 0.93300003 1
17.577499 0.79149997 1.063 1
17.571501 0.79049999 1.085 1
17.5445 0.78850001 1.029 1
17.5485 0.7895 0.991 1
17.5805 0.79149997 1.04 1
17.564501 0.79149997 0.949 1
17.5665 0.79049999 1.015 1
17.536501 0.79049999 0.87599999 1
17.5665 0.7895 1.104 1
17.5415 0.79049999 0.90499997 1
17.554501 0.78750002 1.1390001 1
17.560499 0.78850001 1.1109999 1
17.585501 0.79250002 1.054 1
17.547501 0.79049999 0.91299999 1
17.643499 0.78350002 1.853 1
17.547501 0.78350002 1.808 1
17.598499 0.7845 1.711 1
17.685499 0.78350002 1.855 1
17.6285 0.78549999 1.719 1
17.7605 0.7845 1.85 1
17.613501 0.78350002 1.837 1
17.6255 0.7845 1.735 1
17.5755 0.78350002 1.83 1
17.737499 0.7845 1.848 1
17.554501 0.78549999 1.691 1
17.6485 0.78549999 1.7029999 1
17.620501 0.7845 1.753 1
17.568501 0.78549999 1.682 1
17.5895 0.7845 1.7690001 1
17.679501 0.7845 1.829 1
17.706499 0.7845 1.8200001 1
17.7115 0.7845 1.7970001 1
17.818501 0.7845 1.873 1
17.627501 0.78549999 1.684 1
17.8015 0.7845 1.872 1
17.595501 0.7845 1.735 1
17.5455 0.7845 1.756 1
17.6625 0.7845 1.801 1
17.634501 0.78549999 1.697 1
17.5655 0.78350002 1.804 1
17.561501 0.78549999 1.6799999 1
17.5895 0.78549999 1.671 1
17.7335 0.7845 1.789 1
17.560499 0.78350002 1.817 1
17.5725 0.78350002 1.83 1
17.622499 0.78549999 1.702 1
17.571501 0.78549999 1.66 1
17.7425 0.7845 1.823 1
17.539499 0.78549999 1.671 1
17.7215 0.7845 1.775 1
17.6355 0.78549999 1.694 1
17.644501 0.7845 1.768 1
17.696501 0.7845 1.7690001 1
17.5695 0.78549999 1.642 1
17.661501 0.7845 1.7690001 1
17.7945 0.7845 1.854 1
17.717501 0.7845 1.789 1
17.7125 0.7845 1.799 1
17.7575 0.7845 1.831 1
17.6005 0.7845 1.742 1
17.6485 0.7845 1.745 1
17.540501 0.7845 1.7410001 1
17.651501 0.78549999 1.711 1
17.5495 0.78350002 1.842 1
17.5725 0.78549999 1.677 1
17.574499 0.7845 1.716 1
17.643499 0.7845 1.801 1
17.560499 0.78350002 1.8200001 1
17.661501 0.78350002 1.857 1
17.647499 0.7845 1.788 1
17.7805 0.7845 1.867 1
17.6255 0.7845 1.79 1
17.598499 0.78350002 1.813 1
17.647499 0.7845 1.781 1
17.7005 0.7845 1.794 1
17.731501 0.78350002 1.864 1
17.6045 0.78549999 1.681 1
17.640499 0.78350002 1.845 1
17.8125 0.7845 1.8660001 1
17.6905 0.7845 1.825 1
17.6185 0.78350002 1.8380001 1
17.564501 0.7845 1.7640001 1
17.613501 0.78350002 1.8200001 1
17.5415 0.78549999 1.669 1
17.647499 0.7845 1.803 1
17.6075 0.7845 1.798 1
17.7255 0.7845 1.78 1
17.7635 0.7845 1.855 1
17.584499 0.78549999 1.646 1
17.7495 0.78350002 1.872 1
17.546499 0.78549999 1.624 1
17.716499 0.7845 1.77 1
17.5515 0.7845 1.774 1
17.675501 0.7845 1.7920001 1
17.6075 0.7845 1.714 1
17.5725 0.78350002 1.825 1
17.620501 0.7845 1.8 1
17.5765 0.7845 1.707 1
17.536501 0.78549999 1.682 1
17.7855 0.78350002 1.875 1
17.762501 0.78350002 1.864 1
17.7745 0.7845 1.848 1
17.6325 0.78549999 1.694 1
17.6355 0.7845 1.771 1
17.6395 0.78350002 1.819 1
17.5945 0.7845 1.728 1
17.561501 0.78350002 1.84 1
17.5875 0.7845 1.778 1
17.578501 0.78350002 1.854 1
17.550501 0.7845 1.702 1
17.6175 0.78549999 1.7130001 1
17.613501 0.7845 1.751 1
17.6245 0.7845 1.724 1
17.7115 0.78350002 1.847 1
17.616501 0.7845 1.794 1
17.615499 0.78549999 1.711 1
17.595501 0.7845 1.781 1
17.556499 0.7845 1.7130001 1
17.592501 0.7845 1.745 1
17.665501 0.78350002 1.832 1
17.5805 0.78549999 1.698 1
17.7845 0.7845 1.855 1
17.765499 0.7845 1.835 1
17.633499 0.7845 1.786 1
17.5865 0.7845 1.715 1
17.605499 0.7845 1.785 1
17.5595 0.7845 1.743 1
17.768499 0.7845 1.848 1
17.7075 0.7845 1.814 1
17.706499 0.78350002 1.853 1
17.744499 0.78350002 1.869 1
17.7915 0.7845 1.868 1
17.6495 0.78350002 1.8380001 1
17.727501 0.7845 1.816 1
17.740499 0.7845 1.798 1
17.616501 0.78350002 1.8329999 1
17.554501 0.78350002 1.8150001 1
17.546499 0.78350002 1.8430001 1
17.7155 0.7845 1.793 1
17.696501 0.7845 1.825 1
17.592501 0.78350002 1.806 1
17.629499 0.7845 1.727 1
17.622499 0.78549999 1.715 1
17.758499 0.7845 1.839 1
17.539499 0.78549999 1.664 1
17.738501 0.78350002 1.868 1
17.577499 0.78350002 1.825 1
17.6115 0.7845 1.766 1
17.5805 0.78549999 1.658 1
17.658501 0.78350002 1.854 1
17.588499 0.7845 1.71 1
17.5875 0.78549999 1.7029999 1
17.720501 0.7845 1.806 1
17.6735 0.7845 1.808 1
17.561501 0.78350002 1.8049999 1
17.5695 0.7845 1.766 1
17.6215 0.7845 1.748 1
17.643499 0.7845 1.803 1
17.7735 0.7845 1.8660001 1
17.675501 0.7845 1.7819999 1
17.717501 0.7845 1.809 1
17.619499 0.78350002 1.826 1
17.7535 0.7845 1.8380001 1
17.8015 0.7845 1.869 1
17.7885 0.7845 1.844 1
17.6325 0.78350002 1.83 1
17.588499 0.78549999 1.665 1
17.623501 0.78350002 1.829 1
17.6845 0.78350002 1.867 1
17.6395 0.7845 1.789 1
17.6315 0.78549999 1.688 1
17.7715 0.7845 1.819 1
17.7015 0.7845 1.834 1
17.5625 0.7845 1.778 1
17.775499 0.7845 1.8430001 1
17.6455 0.78350002 1.8200001 1
17.727501 0.7845 1.811 1
17.6385 0.78549999 1.697 1
17.550501 0.78549999 1.612 1
17.644501 0.7845 1.784 1
17.6175 0.78350002 1.804 1
17.706499 0.7845 1.7869999 1
17.6115 0.78549999 1.684 1
17.658501 0.7845 1.747 1
17.609501 0.7845 1.7869999 1
17.546499 0.7845 1.689 1
17.5625 0.7845 1.7 1
17.5945 0.78549999 1.6720001 1
17.578501 0.78549999 1.658 1
17.567499 0.78350002 1.793 1
17.640499 0.78549999 1.714 1
17.647499 0.7845 1.77 1
17.7015 0.78350002 1.848 1
17.7395 0.7845 1.793 1
17.7195 0.7845 1.779 1
17.6315 0.78350002 1.841 1
17.556499 0.78549999 1.6569999 1
17.5655 0.7845 1.735 1
17.654499 0.7845 1.819 1
17.6215 0.78350002 1.825 1
17.6915 0.7845 1.7539999 1
17.685499 0.7845 1.794 1
17.6605 0.78350002 1.84 1
17.574499 0.78350002 1.829 1
17.5515 0.78350002 1.853 1
17.716499 0.7845 1.779 1
17.658501 0.78549999 1.724 1
17.5905 0.78350002 1.841 1
17.6595 0.7845 1.745 1
17.6875 0.7845 1.806 1
17.5945 0.78350002 1.824 1
17.6745 0.78350002 1.864 1
17.6945 0.7845 1.817 1
17.588499 0.7845 1.735 1
17.5755 0.78350002 1.8099999 1
17.6605 0.78350002 1.863 1
17.6415 0.7845 1.773 1
17.740499 0.7845 1.845 1
17.7005 0.78350002 1.852 1
17.643499 0.78549999 1.716 1
17.629499 0.78350002 1.845 1
17.6595 0.78350002 1.826 1
17.585501 0.78549999 1.648 1
17.536501 0.78549999 1.603 1
17.6285 0.78350002 1.832 1
17.7855 0.7845 1.84 1
17.7225 0.78350002 1.867 1
17.539499 0.78549999 1.664 1
17.557501 0.78350002 1.796 1
17.7425 0.7845 1.829 1
17.622499 0.7845 1.777 1
17.7145 0.7845 1.837 1
17.568501 0.78549999 1.6720001 1
17.6415 0.7845 1.729 1
17.651501 0.78549999 1.73 1
17.556499 0.78549999 1.648 1
17.612499 0.78549999 1.714 1
17.5595 0.7845 1.714 1
17.692499 0.7845 1.799 1
17.546499 0.7845 1.694 1
17.7325 0.7845 1.7920001 1
17.640499 0.78549999 1.702 1
17.7295 0.7845 1.848 1
17.5655 0.78549999 1.64 1
17.734501 0.7845 1.798 1
17.577499 0.7845 1.779 1
17.6255 0.7845 1.761 1
17.7325 0.7845 1.799 1
17.5945 0.7845 1.7819999 1
17.6005 0.78549999 1.671 1
17.7365 0.7845 1.814 1
17.7885 0.7845 1.859 1
17.620501 0.78549999 1.709 1
17.5975 0.7845 1.774 1
17.5805 0.78549999 1.6569999 1
17.546499 0.78549999 1.6210001 1
17.706499 0.7845 1.799 1
17.6835 0.78350002 1.8609999 1
17.699499 0.7845 1.774 1
17.627501 0.78549999 1.688 1
17.584499 0.78350002 1.824 1
17.668501 0.7845 1.757 1
17.536501 0.78549999 1.609 1
17.796499 0.7845 1.869 1
17.5805 0.7845 1.778 1
17.7145 0.7845 1.821 1
17.6105 0.7845 1.735 1
17.613501 0.78350002 1.823 1
17.6285 0.78549999 1.712 1
17.588499 0.7845 1.757 1
17.7085 0.7845 1.807 1
17.615499 0.7845 1.779 1
17.5895 0.78549999 1.692 1
17.592501 0.7845 1.7180001 1
17.7605 0.7845 1.816 1
17.564501 0.78350002 1.808 1
17.592501 0.7845 1.75 1
17.6415 0.7845 1.771 1
17.5835 0.7845 1.752 1
17.561501 0.7845 1.7640001 1
17.626499 0.7845 1.733 1
17.7925 0.7845 1.841 1
17.7355 0.7845 1.793 1
17.6495 0.7845 1.766 1
17.702499 0.7845 1.7920001 1
17.570499 0.78549999 1.645 1
17.5525 0.7845 1.758 1
17.613501 0.78549999 1.675 1
17.605499 0.78350002 1.839 1
17.654499 0.7845 1.796 1
17.5665 0.78549999 1.646 1
17.585501 0.7845 1.763 1
17.630501 0.78350002 1.811 1
17.738501 0.78350002 1.855 1
17.5425 0.78549999 1.645 1
17.7735 0.7845 1.858 1
17.761499 0.7845 1.818 1
17.556499 0.78350002 1.84 1
17.5735 0.78350002 1.85 1
17.668501 0.7845 1.767 1
17.7365 0.78350002 1.867 1
17.768499 0.78350002 1.8710001 1
17.585501 0.78549999 1.684 1
17.622499 0.78549999 1.709 1
17.543501 0.7845 1.766 1
17.679501 0.78350002 1.8609999 1
17.5665 0.78549999 1.627 1
17.578501 0.7845 1.727 1
17.577499 0.78350002 1.852 1
17.675501 0.7845 1.773 1
17.637501 0.78350002 1.839 1
17.616501 0.7845 1.755 1
17.640499 0.7845 1.778 1
17.5385 0.78549999 1.604 1
17.7185 0.7845 1.798 1
17.6005 0.78549999 1.684 1
17.734501 0.7845 1.796 1
17.647499 0.78350002 1.836 1
17.560499 0.78350002 1.806 1
17.685499 0.7845 1.807 1
17.5755 0.7845 1.716 1
17.5965 0.78350002 1.8430001 1
17.6605 0.7845 1.773 1
17.567499 0.7845 1.7130001 1
17.577499 0.78549999 1.679 1
17.692499 0.78350002 1.862 1
17.5975 0.7845 1.7589999 1
17.6985 0.7845 1.756 1
17.7355 0.7845 1.794 1
17.550501 0.78549999 1.618 1
17.6775 0.78350002 1.859 1
17.5735 0.78549999 1.6720001 1
17.740499 0.7845 1.8380001 1
