# .PCD v0.7 - Point Cloud Data file format
VERSION 0.7
FIELDS x y z label
SIZE 4 4 4 4
TYPE F F F U
COUNT 1 1 1 1
WIDTH 1738
HEIGHT 1
VIEWPOINT 0 0 0 1 0 0 0
POINTS 1738
DATA ascii
14.3675 5.5285001 1.875 1
14.3675 5.5035 1.906 1
14.3695 5.6005001 1.983 1
14.3675 5.4895 1.994 1
14.3685 5.5434999 1.913 1
14.3655 5.4324999 1.965 1
14.3655 5.4404998 1.97 1
14.3665 5.4685001 1.941 1
14.3695 5.5955 1.965 1
14.3685 5.5465002 2.04 1
14.3665 5.4534998 1.9680001 1
14.3665 5.4625001 1.957 1
14.3695 5.5725002 2.0209999 1
14.3695 5.6094999 1.751 1
14.3685 5.5685 1.863 1
14.3685 5.5345001 2.017 1
14.3665 5.4765 1.964 1
14.3695 5.5854998 1.789 1
14.3685 5.5514998 1.851 1
14.3685 5.5654998 1.813 1
14.3685 5.5395002 1.868 1
14.3695 5.6145 1.807 1
14.3705 5.6135001 2.003 1
14.3695 5.6044998 1.773 1
14.3685 5.5475001 1.97 1
14.3705 5.6215 1.914 1
14.3685 5.5444999 1.901 1
14.3695 5.5815001 1.873 1
14.3695 5.6085 1.7359999 1
14.3675 5.4994998 1.88 1
14.3675 5.5124998 1.857 1
14.3685 5.5584998 1.882 1
14.3675 5.5225 1.943 1
14.3695 5.5854998 1.903 1
14.3675 5.4994998 1.9119999 1
14.3675 5.5124998 1.8710001 1
14.3685 5.5535002 1.964 1
14.3665 5.4794998 1.994 1
14.3685 5.5784998 1.814 1
14.3685 5.5475001 1.904 1
14.3645 5.3804998 2.0350001 1
14.3705 5.6205001 1.9960001 1
14.3675 5.5174999 1.852 1
14.3675 5.5025001 1.875 1
14.3695 5.5805001 1.888 1
14.3675 5.5174999 2.003 1
14.3695 5.6205001 1.711 1
14.3665 5.4565001 1.9680001 1
14.3685 5.5584998 1.862 1
14.3675 5.5184999 1.9809999 1
14.3685 5.5314999 1.9349999 1
14.3675 5.5165 1.944 1
14.3695 5.6075001 1.934 1
14.3655 5.4235001 2.003 1
14.3655 5.4375 2.0369999 1
14.3685 5.5644999 1.791 1
14.3705 5.6135001 1.938 1
14.3695 5.5854998 1.77 1
14.3685 5.5514998 1.919 1
14.3675 5.5135002 1.944 1
14.3685 5.5485001 1.954 1
14.3655 5.4165001 2.006 1
14.3705 5.6205001 1.949 1
14.3665 5.4885001 1.893 1
14.3675 5.5205002 1.984 1
14.3695 5.6025 1.957 1
14.3665 5.4844999 1.931 1
14.3665 5.4545002 1.9680001 1
14.3655 5.4204998 2.0339999 1
14.3705 5.6135001 2.0380001 1
14.3695 5.6025 2.0050001 1
14.3675 5.5075002 1.9809999 1
14.3695 5.6005001 1.931 1
14.3685 5.5405002 2.016 1
14.3695 5.6094999 1.97 1
14.3685 5.5495 2.0439999 1
14.3695 5.6085 1.96 1
14.3695 5.5904999 1.937 1
14.3675 5.5184999 1.964 1
14.3675 5.4994998 2.0139999 1
14.3695 5.5984998 2.0090001 1
14.3685 5.5425 1.9809999 1
14.3675 5.4905 1.952 1
14.3675 5.5165 1.97 1
14.3695 5.6034999 2.0179999 1
14.3705 5.6164999 1.9069999 1
14.3685 5.5355 2.03 1
14.3695 5.6224999 1.734 1
14.3665 5.4454999 1.978 1
14.3685 5.5345001 2.0450001 1
14.3695 5.5875001 1.921 1
14.3685 5.5425 2.0250001 1
14.3695 5.5875001 1.96 1
14.3695 5.6075001 1.9630001 1
14.3695 5.5704999 1.973 1
14.3705 5.6205001 1.868 1
14.3675 5.5244999 1.951 1
14.3705 5.6104999 2.0450001 1
14.3675 5.5194998 2.01 1
14.3665 5.4505 2.036 1
14.3695 5.6015 1.913 1
14.3655 5.4274998 1.973 1
14.3675 5.5105 1.914 1
14.3685 5.5584998 1.976 1
14.3685 5.5384998 1.909 1
14.3655 5.4375 1.975 1
14.3685 5.5495 2.013 1
14.3695 5.6135001 1.841 1
14.3695 5.6044998 1.872 1
14.3665 5.4584999 2.0309999 1
14.3675 5.5005002 1.965 1
14.3675 5.5064998 1.954 1
14.3695 5.5764999 1.992 1
14.3695 5.5995002 1.9220001 1
14.3695 5.5964999 0.60600001 1
14.3825 5.6065001 0.54699999 1
14.3765 5.6015 0.565 1
14.3725 5.5984998 0.58999997 1
14.3765 5.6015 0.56699997 1
14.3695 5.5964999 0.60600001 1
14.3835 5.6085 0.55199999 1
14.3705 5.5964999 0.58600003 1
14.3725 5.5995002 0.602 1
14.3905 5.6135001 0.51899999 1
14.3825 5.6065001 0.55699998 1
14.3815 5.6065001 0.55500001 1
14.3705 5.5974998 0.61000001 1
14.3835 5.6075001 0.54299998 1
14.3745 5.6025 0.625 1
14.3715 5.6135001 1.001 1
14.3765 5.6164999 0.90799999 1
14.3755 5.6094999 0.75999999 1
14.3735 5.6135001 0.95200002 1
14.3745 5.6094999 0.801 1
14.3705 5.6085 0.89700001 1
14.3725 5.6094999 0.861 1
14.3715 5.6114998 0.93900001 1
14.3695 5.6044998 0.81099999 1
14.3775 5.6085 0.66000003 1
14.3705 5.6015 0.69800001 1
14.3715 5.6044998 0.759 1
14.3695 5.6125002 1.023 1
14.3745 5.6155 0.96200001 1
14.3685 5.6114998 1.024 1
14.3705 5.5984998 0.61699998 1
14.3735 5.6094999 0.82099998 1
14.3695 5.6125002 1.034 1
14.3695 5.6085 0.92400002 1
14.3745 5.6114998 0.86500001 1
14.3735 5.6034999 0.68099999 1
14.3715 5.6135001 1.03 1
14.3725 5.6104999 0.884 1
14.3715 5.6044998 0.75700003 1
14.3735 5.6145 0.97600001 1
14.3705 5.6025 0.75599998 1
14.3725 5.6155 1.024 1
14.3745 5.6135001 0.92799997 1
14.3735 5.6034999 0.65100002 1
14.3675 5.6015 0.79900002 1
14.3725 5.6125002 0.96799999 1
14.3715 5.6085 0.86299998 1
14.3735 5.6125002 0.91100001 1
14.3675 5.6015 0.78200001 1
14.3745 5.6145 0.94499999 1
14.3695 5.6065001 0.87599999 1
14.3735 5.6164999 1.012 1
14.3735 5.6034999 0.662 1
14.3765 5.6104999 0.76099998 1
14.3695 5.6055002 0.83399999 1
14.3755 5.6164999 0.958 1
14.3765 5.6114998 0.801 1
14.3715 5.6114998 0.94599998 1
14.3705 5.6055002 0.81999999 1
14.3735 5.6065001 0.74199998 1
14.3695 5.6034999 0.77100003 1
14.3695 5.6005001 0.70499998 1
14.3705 5.6135001 1.0420001 1
14.3715 5.5995002 0.64200002 1
14.3755 5.6065001 0.66600001 1
14.3715 5.6135001 0.99699998 1
14.3695 5.6094999 0.97000003 1
14.3685 5.5984998 0.69599998 1
14.3735 5.6135001 0.95200002 1
14.3745 5.6155 0.96899998 1
14.3755 5.6104999 0.81199998 1
14.3695 5.6025 0.77100003 1
14.3765 5.6145 0.86799997 1
14.3755 5.6135001 0.89200002 1
14.3705 5.6044998 0.78500003 1
14.3705 5.5984998 0.62699997 1
14.3765 5.6094999 0.74699998 1
14.3735 5.6015 0.639 1
14.3675 5.6015 0.78799999 1
14.3675 5.5974998 0.69499999 1
14.3745 5.6104999 1.495 1
14.3715 5.6005001 1.432 1
14.3685 5.6075001 1.536 1
14.3735 5.6025 1.434 1
14.3685 5.5935001 1.408 1
14.3735 5.6114998 1.515 1
14.3695 5.6055002 1.508 1
14.3695 5.5984998 1.4450001 1
14.3725 5.6044998 1.461 1
14.3705 5.5974998 1.4220001 1
14.3735 5.6085 1.487 1
14.3695 5.6244998 1.676 1
14.3685 5.5914998 1.391 1
14.3725 5.6015 1.434 1
14.3755 5.6085 1.459 1
14.3725 5.6164999 1.574 1
14.3745 5.6075001 1.469 1
14.3715 5.6145 1.564 1
14.3725 5.6005001 1.429 1
14.3725 5.6135001 1.5369999 1
14.3745 5.6215 1.591 1
14.3695 5.6104999 1.558 1
14.3725 5.6285 1.6799999 1
14.3735 5.6314998 1.692 1
14.3735 5.6015 1.425 1
14.3715 5.6044998 1.478 1
14.3735 5.6135001 1.541 1
14.3705 5.6174998 1.603 1
14.3635 5.5205002 2.3789999 1
14.3635 5.5964999 2.322 1
14.3635 5.5395002 2.3599999 1
14.3635 5.6335001 2.434 1
14.3635 5.6424999 2.506 1
14.3635 5.5974998 2.461 1
14.3635 5.5365 2.369 1
14.3625 5.6964998 2.45 1
14.3635 5.5324998 2.4400001 1
14.3635 5.5914998 2.3329999 1
14.3635 5.5805001 2.375 1
14.3625 5.6884999 2.4430001 1
14.3635 5.6215 2.3789999 1
14.3635 5.5345001 2.4560001 1
14.3635 5.5984998 2.5039999 1
14.3635 5.6335001 2.517 1
14.3635 5.5625 2.402 1
14.3635 5.5625 2.2909999 1
14.3635 5.4935002 2.461 1
14.3635 5.5495 2.339 1
14.3635 5.6405001 2.385 1
14.3635 5.6015 2.5139999 1
14.3635 5.5085001 2.421 1
14.3625 5.6824999 2.4760001 1
14.3635 5.5524998 2.3959999 1
14.3635 5.5834999 2.3429999 1
14.3635 5.5904999 2.3559999 1
14.3635 5.5615001 2.2620001 1
14.3635 5.6195002 2.4949999 1
14.3635 5.5595002 2.3410001 1
14.3635 5.5714998 2.355 1
14.3635 5.5774999 2.3740001 1
14.3635 5.5454998 2.4119999 1
14.3635 5.5815001 2.493 1
14.3635 5.5075002 2.4760001 1
14.3635 5.5555 2.4949999 1
14.3635 5.5584998 2.329 1
14.3635 5.6085 2.411 1
14.3635 5.6615 2.4960001 1
14.3635 5.6114998 2.461 1
14.3635 5.5755 2.4449999 1
14.3635 5.6265001 2.404 1
14.3635 5.6065001 2.4860001 1
14.3635 5.6694999 2.4619999 1
14.3635 5.5095 2.4059999 1
14.3635 5.6065001 2.464 1
14.3635 5.6174998 2.349 1
14.3635 5.6564999 2.467 1
14.3635 5.5454998 2.342 1
14.3635 5.5504999 2.2690001 1
14.3635 5.6364999 2.474 1
14.3635 5.5574999 2.332 1
14.3635 5.5914998 2.5190001 1
14.3635 5.5514998 2.3640001 1
14.3635 5.5135002 2.4630001 1
14.3635 5.5524998 2.402 1
14.3625 5.6865001 2.5009999 1
14.3635 5.5735002 2.306 1
14.3635 5.6285 2.3740001 1
14.3635 5.5025001 2.4389999 1
14.3635 5.5345001 2.3180001 1
14.3635 5.5384998 2.401 1
14.3625 5.6875 2.4849999 1
14.3635 5.5574999 2.3310001 1
14.3635 5.5035 2.4990001 1
14.3625 5.6855001 2.448 1
14.3635 5.5574999 2.3239999 1
14.3635 5.5685 2.477 1
14.3635 5.5685 2.3559999 1
14.3635 5.5644999 2.49 1
14.3635 5.5795002 2.461 1
14.3635 5.5895 2.391 1
14.3635 5.6465001 2.448 1
14.3635 5.5535002 2.4100001 1
14.3635 5.6345 2.401 1
14.3635 5.6415 2.4660001 1
14.3635 5.5725002 2.2579999 1
14.3635 5.6195002 2.3599999 1
14.3635 5.4835 2.5480001 1
14.3635 5.6364999 2.477 1
14.3635 5.5955 2.4849999 1
14.3635 5.6605 2.398 1
14.3635 5.5974998 2.4030001 1
14.3635 5.6135001 2.4960001 1
14.3635 5.6304998 2.4030001 1
14.3635 5.5774999 2.3039999 1
14.3635 5.5485001 2.369 1
14.3635 5.5105 2.4430001 1
14.3635 5.5865002 2.302 1
14.3635 5.5135002 2.427 1
14.3635 5.5834999 2.283 1
14.3635 5.4895 2.4679999 1
14.3635 5.5514998 2.4070001 1
14.3625 5.7234998 2.4909999 1
14.3635 5.5194998 2.408 1
14.3635 5.6224999 2.362 1
14.3635 5.4755001 2.517 1
14.3635 5.6655002 2.4389999 1
14.3635 5.6494999 2.415 1
14.3635 5.4885001 2.5439999 1
14.3635 5.6585002 2.4300001 1
14.3635 5.5174999 2.5190001 1
14.3635 5.5885 2.3039999 1
14.3635 5.5395002 2.4949999 1
14.3635 5.5395002 2.464 1
14.3635 5.5415001 2.3399999 1
14.3635 5.6265001 2.3870001 1
14.3635 5.5425 2.375 1
14.3635 5.6255002 2.3959999 1
14.3635 5.5945001 2.444 1
14.3635 5.5335002 2.467 1
14.3635 5.5695 2.4549999 1
14.3635 5.6545 2.484 1
14.3625 5.7034998 2.4920001 1
14.3635 5.6374998 2.4300001 1
14.3635 5.5825 2.3280001 1
14.3635 5.6595001 2.4549999 1
14.3635 5.5454998 2.3110001 1
14.3635 5.4905 2.477 1
14.3635 5.5514998 2.493 1
14.3625 5.6764998 2.428 1
14.3635 5.4945002 2.5139999 1
14.3635 5.6174998 2.4530001 1
14.3635 5.5984998 2.5139999 1
14.3635 5.5444999 2.487 1
14.3635 5.5625 2.3559999 1
14.3635 5.5485001 2.3340001 1
14.3635 5.5475001 2.5039999 1
14.3635 5.6135001 2.4130001 1
14.3635 5.6684999 2.4189999 1
14.3635 5.4974999 2.5 1
14.3625 5.6865001 2.477 1
14.3635 5.6405001 2.493 1
14.3635 5.4844999 2.4920001 1
14.3635 5.5434999 2.424 1
14.3635 5.5764999 2.336 1
14.3635 5.5605001 2.392 1
14.3635 5.6155 2.5090001 1
14.3635 5.6525002 2.3800001 1
14.3635 5.6114998 2.348 1
14.3635 5.5945001 2.3110001 1
14.3635 5.5925002 2.457 1
14.3625 5.6725001 2.4100001 1
14.3635 5.6255002 2.467 1
14.3635 5.5895 2.46 1
14.3635 5.5345001 2.47 1
14.3635 5.5844998 2.276 1
14.3635 5.6075001 2.3610001 1
14.3635 5.5165 2.5220001 1
14.3635 5.6385002 2.467 1
14.3635 5.5625 2.507 1
14.3635 5.6355 2.388 1
14.3635 5.6525002 2.493 1
14.3635 5.6005001 2.494 1
14.3635 5.5355 2.336 1
14.3635 5.5825 2.4860001 1
14.3635 5.5244999 2.471 1
14.3635 5.5135002 2.428 1
14.3635 5.4835 2.507 1
14.3625 5.6805 2.434 1
14.3635 5.5675001 2.253 1
14.3635 5.5745001 2.4920001 1
14.3635 5.5574999 2.4130001 1
14.3635 5.5524998 2.5079999 1
14.3635 5.6345 2.402 1
14.3635 5.5405002 2.4660001 1
14.3635 5.5665002 2.5079999 1
14.3635 5.4994998 2.513 1
14.3635 5.5735002 2.52 1
14.3625 5.6954999 2.49 1
14.3635 5.6135001 2.464 1
14.3635 5.5215001 2.3599999 1
14.3635 5.5784998 2.4630001 1
14.3635 5.6645002 2.411 1
14.3635 5.5984998 2.431 1
14.3635 5.5275002 2.49 1
14.3635 5.5695 2.415 1
14.3635 5.5225 2.372 1
14.3635 5.5654998 2.348 1
14.3635 5.5324998 2.398 1
14.3635 5.5314999 2.5020001 1
14.3635 5.5764999 2.2969999 1
14.3635 5.6364999 2.4489999 1
14.3635 5.5644999 2.503 1
14.3635 5.6294999 2.48 1
14.3635 5.6215 2.362 1
14.3635 5.6554999 2.497 1
14.3635 5.4965 2.5220001 1
14.3635 5.5425 2.3829999 1
14.3635 5.5434999 2.348 1
14.3635 5.5454998 2.418 1
14.3635 5.5605001 2.3529999 1
14.3635 5.5345001 2.471 1
14.3635 5.6125002 2.4649999 1
14.3635 5.4825001 2.503 1
14.3635 5.5634999 2.378 1
14.3635 5.5524998 2.326 1
14.3635 5.5625 2.523 1
14.3635 5.6125002 2.474 1
14.3635 5.5054998 2.4300001 1
14.3635 5.6645002 2.4630001 1
14.3635 5.6145 2.4489999 1
14.3635 5.5964999 2.5079999 1
14.3625 5.6795001 2.4820001 1
14.3635 5.5914998 2.4790001 1
14.3635 5.6125002 2.401 1
14.3635 5.5675001 2.296 1
14.3635 5.5644999 2.3529999 1
14.3635 5.6574998 2.434 1
14.3635 5.5755 2.434 1
14.3635 5.5955 2.312 1
14.3635 5.6025 2.507 1
14.3635 5.6545 2.4230001 1
14.3635 5.5324998 2.483 1
14.3635 5.6005001 2.497 1
14.3635 5.5665002 2.316 1
14.3635 5.4955001 2.4809999 1
14.3635 5.5665002 2.5009999 1
14.3635 5.5355 2.3239999 1
14.3635 5.6364999 2.3940001 1
14.3635 5.6114998 2.322 1
14.3625 5.6845002 2.4790001 1
14.3635 5.6615 2.5 1
14.3635 5.5465002 2.289 1
14.3635 5.5634999 2.5079999 1
14.3635 5.5335002 2.5339999 1
14.3635 5.6055002 2.444 1
14.3635 5.5395002 2.5139999 1
14.3635 5.5774999 2.4909999 1
14.3635 5.6564999 2.473 1
14.3625 5.6975002 2.47 1
14.3635 5.5825 2.4579999 1
14.3635 5.5574999 2.326 1
14.3635 5.5784998 2.388 1
14.3635 5.5665002 2.4560001 1
14.3635 5.5725002 2.4760001 1
14.3635 5.6034999 2.4489999 1
14.3635 5.5335002 2.5350001 1
14.3635 5.5135002 2.5179999 1
14.3635 5.6525002 2.3859999 1
14.3635 5.5764999 2.3989999 1
14.3625 5.6815 2.4719999 1
14.3635 5.5795002 2.4920001 1
14.3635 5.6345 2.4400001 1
14.3635 5.6574998 2.5109999 1
14.3635 5.5704999 2.3659999 1
14.3635 5.6025 2.4760001 1
14.3635 5.5755 2.484 1
14.3635 5.6455002 2.45 1
14.3625 5.6884999 2.4679999 1
14.3635 5.5805001 2.313 1
14.3635 5.5095 2.401 1
14.3635 5.5644999 2.375 1
14.3635 5.5465002 2.3959999 1
14.3635 5.6574998 2.4000001 1
14.3635 5.6465001 2.3959999 1
14.3635 5.5565 2.4289999 1
14.3635 5.5574999 2.4519999 1
14.3635 5.5605001 2.2620001 1
14.3635 5.5454998 2.4990001 1
14.3625 5.7065001 2.487 1
14.3635 5.5685 2.382 1
14.3635 5.6075001 2.4849999 1
14.3635 5.5425 2.5309999 1
14.3635 5.5565 2.5009999 1
14.3635 5.5885 2.299 1
14.3635 5.4905 2.5009999 1
14.3635 5.6424999 2.405 1
14.3635 5.5825 2.4630001 1
14.3635 5.5634999 2.352 1
14.3635 5.5395002 2.52 1
14.3635 5.5615001 2.2379999 1
14.3635 5.5395002 2.3499999 1
14.3635 5.6455002 2.4000001 1
14.3635 5.6355 2.3629999 1
14.3635 5.6504998 2.513 1
14.3635 5.4994998 2.46 1
14.3635 5.6094999 2.4549999 1
14.3635 5.6265001 2.4400001 1
14.3635 5.5015001 2.529 1
14.3635 5.5574999 2.5250001 1
14.3635 5.5454998 2.3399999 1
14.3635 5.5574999 2.5179999 1
14.3635 5.6345 2.381 1
14.3635 5.5844998 2.3310001 1
14.3635 5.6364999 2.3870001 1
14.3635 5.5654998 2.2839999 1
14.3635 5.6255002 2.4779999 1
14.3635 5.5714998 2.506 1
14.3635 5.6395001 2.3800001 1
14.3635 5.5634999 2.293 1
14.3635 5.6164999 2.5039999 1
14.3625 5.7154999 2.4860001 1
14.3635 5.5825 2.4690001 1
14.3635 5.4924998 2.52 1
14.3635 5.5465002 2.523 1
14.3635 5.5654998 2.444 1
14.3635 5.5665002 2.286 1
14.3635 5.5945001 2.5090001 1
14.3635 5.6034999 2.325 1
14.3635 5.4905 2.483 1
14.3635 5.5725002 2.427 1
14.3635 5.5815001 2.4760001 1
14.3635 5.5854998 2.3959999 1
14.3635 5.5904999 2.388 1
14.3625 5.6884999 2.4749999 1
14.3635 5.5675001 2.391 1
14.3635 5.5535002 2.306 1
14.3625 5.7164998 2.5009999 1
14.3635 5.5335002 2.5090001 1
14.3635 5.6025 2.3180001 1
14.3635 5.6304998 2.4920001 1
14.3635 5.5815001 2.359 1
14.3635 5.6044998 2.4260001 1
14.3635 5.6075001 2.4660001 1
14.3635 5.6465001 2.3970001 1
14.3635 5.4945002 2.5220001 1
14.3635 5.6164999 2.4349999 1
14.3635 5.6065001 2.4949999 1
14.3635 5.5215001 2.4219999 1
14.3635 5.5295 2.4990001 1
14.3635 5.6545 2.4159999 1
14.3635 5.6624999 2.405 1
14.3635 5.5865002 2.428 1
14.3635 5.5995002 2.497 1
14.3635 5.5425 2.48 1
14.3635 5.6684999 2.4460001 1
14.3635 5.6094999 2.4100001 1
14.3635 5.6355 2.4949999 1
14.3635 5.5005002 2.523 1
14.3635 5.5805001 2.339 1
14.3635 5.5625 2.4690001 1
14.3635 5.5025001 2.4460001 1
14.3635 5.5265002 2.461 1
14.3635 5.6615 2.4430001 1
14.3635 5.5815001 2.378 1
14.3635 5.4984999 2.517 1
14.3635 5.5005002 2.52 1
14.3625 5.7005 2.46 1
14.3635 5.5475001 2.5090001 1
14.3635 5.5225 2.355 1
14.3635 5.6215 2.348 1
14.3635 5.5205002 2.454 1
14.3635 5.5335002 2.533 1
14.3635 5.5735002 2.2590001 1
14.3635 5.5815001 2.2950001 1
14.3635 5.5485001 2.5139999 1
14.3635 5.5925002 2.368 1
14.3635 5.5324998 2.5350001 1
14.3635 5.5285001 2.3599999 1
14.3635 5.4974999 2.5209999 1
14.3635 5.6504998 2.46 1
14.3635 5.5365 2.431 1
14.3635 5.6185002 2.362 1
14.3635 5.5805001 2.3759999 1
14.3635 5.5935001 2.4119999 1
14.3635 5.4844999 2.5020001 1
14.3635 5.4984999 2.464 1
14.3635 5.5035 2.461 1
14.3635 5.5155001 2.5209999 1
14.3635 5.5285001 2.483 1
14.3635 5.6164999 2.5009999 1
14.3635 5.5955 2.3770001 1
14.3635 5.5574999 2.3540001 1
14.3635 5.5995002 2.4949999 1
14.3635 5.5955 2.3310001 1
14.3635 5.5064998 2.49 1
14.3625 5.7055001 2.4719999 1
14.3635 5.5295 2.3329999 1
14.3635 5.6265001 2.348 1
14.3635 5.5615001 2.2679999 1
14.3635 5.5565 2.247 1
14.3635 5.5964999 2.4100001 1
14.3635 5.5704999 2.391 1
14.3635 5.5005002 2.4319999 1
14.3635 5.4994998 2.493 1
14.3635 5.5685 2.4349999 1
14.3635 5.5395002 2.5 1
14.3635 5.5514998 2.516 1
14.3635 5.5524998 2.5209999 1
14.3635 5.5405002 2.362 1
14.3635 5.4984999 2.5020001 1
14.3635 5.4885001 2.471 1
14.3635 5.5465002 2.5179999 1
14.3625 5.7014999 2.4809999 1
14.3635 5.6205001 2.5139999 1
14.3635 5.6395001 2.461 1
14.3635 5.5495 2.4289999 1
14.3635 5.6314998 2.4549999 1
14.3635 5.6535001 2.497 1
14.3635 5.4945002 2.493 1
14.3635 5.6444998 2.4530001 1
14.3635 5.6114998 2.3740001 1
14.3635 5.5434999 2.461 1
14.3635 5.6444998 2.4779999 1
14.3635 5.5555 2.2679999 1
14.3635 5.5205002 2.4519999 1
14.3635 5.6164999 2.4089999 1
14.3635 5.5054998 2.5439999 1
14.3635 5.5774999 2.319 1
14.3635 5.5235 2.427 1
14.3635 5.5545001 2.4460001 1
14.3625 5.7214999 2.4979999 1
14.3705 5.5935001 1.383 1
14.3725 5.5974998 1.4 1
14.3735 5.5984998 1.387 1
14.3675 5.6325002 2.152 1
14.3685 5.6085 2.0929999 1
14.3675 5.6475 2.1630001 1
14.3695 5.6374998 2.085 1
14.3665 5.6075001 2.1830001 1
14.3645 5.5725002 2.2049999 1
14.3705 5.6605 2.0969999 1
14.3665 5.5925002 2.148 1
14.3705 5.6694999 2.108 1
14.3655 5.5974998 2.197 1
14.3705 5.6745 2.105 1
14.3675 5.6415 2.154 1
14.3645 5.5784998 2.1930001 1
14.3695 5.6574998 2.132 1
14.3705 5.6815 2.115 1
14.3685 5.6475 2.1259999 1
14.3655 5.5955 2.191 1
14.3675 5.6285 2.141 1
14.3655 5.5834999 2.165 1
14.3705 5.6754999 2.1159999 1
14.3695 5.6624999 2.109 1
14.3695 5.6795001 2.1300001 1
14.3655 5.5935001 2.1730001 1
14.3695 5.6185002 2.0829999 1
14.3675 5.5974998 2.1210001 1
14.3685 5.6405001 2.125 1
14.3675 5.6145 2.1270001 1
14.3705 5.6834998 2.105 1
14.3705 5.6694999 2.1010001 1
14.3665 5.6135001 2.1670001 1
14.3655 5.5904999 2.1930001 1
14.3685 5.6294999 2.115 1
14.3685 5.6114998 2.092 1
14.3685 5.6415 2.1459999 1
14.3675 5.6345 2.151 1
14.3685 5.6065001 2.0969999 1
14.3705 5.7104998 2.128 1
14.3705 5.6845002 2.115 1
14.3685 5.6075001 2.096 1
14.3655 5.6125002 2.1960001 1
14.3675 5.6044998 2.132 1
14.3695 5.6475 2.0899999 1
14.3675 5.6304998 2.1489999 1
14.3685 5.6645002 2.158 1
14.3655 5.5895 2.1789999 1
14.3645 5.5764999 2.207 1
14.3685 5.6665001 2.1559999 1
14.3705 5.7005 2.1259999 1
14.3675 5.6485 2.1670001 1
14.3665 5.6335001 2.1849999 1
14.3685 5.6605 2.168 1
14.3675 5.6114998 2.1210001 1
14.3675 5.6265001 2.1670001 1
14.3665 5.5875001 2.151 1
14.3665 5.6255002 2.178 1
14.3695 5.6824999 2.145 1
14.3695 5.6504998 2.0940001 1
14.3685 5.6465001 2.152 1
14.3675 5.6335001 2.1689999 1
14.3695 5.6465001 2.105 1
14.3685 5.6684999 2.1589999 1
14.3685 5.6535001 2.1440001 1
14.3705 5.7024999 2.1229999 1
14.3695 5.6494999 2.125 1
14.3695 5.6275001 2.082 1
14.3685 5.6504998 2.158 1
14.3685 5.6475 2.1489999 1
14.3695 5.6234999 2.0869999 1
14.3645 5.5735002 2.2190001 1
14.3705 5.6925001 2.1229999 1
14.3675 5.6355 2.1619999 1
14.3695 5.6815 2.1370001 1
14.3655 5.5974998 2.194 1
14.3695 5.6595001 2.1229999 1
14.3705 5.6845002 2.1099999 1
14.3705 5.6444998 2.0829999 1
14.3695 5.6215 2.0929999 1
14.3705 5.6925001 2.1340001 1
14.3655 5.5885 2.1900001 1
14.3635 5.5644999 2.2260001 1
14.3675 5.6285 2.1589999 1
14.3705 5.7125001 2.1359999 1
14.3695 5.6774998 2.1440001 1
14.3665 5.6055002 2.158 1
14.3685 5.6715002 2.1530001 1
14.3665 5.6025 2.1760001 1
14.3705 5.6345 2.0669999 1
14.3685 5.6645002 2.164 1
14.3665 5.5865002 2.161 1
14.3675 5.6044998 2.1489999 1
14.3695 5.6675 2.1140001 1
14.3705 5.6725001 2.1110001 1
14.3705 5.6855001 2.1300001 1
14.3695 5.6145 2.0769999 1
14.3705 5.6964998 2.141 1
14.3695 5.6865001 2.1530001 1
14.3685 5.6564999 2.164 1
14.3685 5.6535001 2.138 1
14.3685 5.6675 2.1470001 1
14.3695 5.6615 2.1159999 1
14.3675 5.6395001 2.178 1
14.3705 5.6745 2.109 1
14.3705 5.6915002 2.131 1
14.3675 5.6055002 2.1459999 1
14.3675 5.6155 2.1270001 1
14.3685 5.6335001 2.132 1
14.3695 5.6785002 2.1300001 1
14.3695 5.6164999 2.0780001 1
14.3665 5.6094999 2.177 1
14.3685 5.6374998 2.125 1
14.3675 5.5964999 2.132 1
14.3685 5.6515002 2.154 1
14.3695 5.6275001 2.0940001 1
14.3665 5.6025 2.1470001 1
14.3675 5.6335001 2.1500001 1
14.3655 5.5634999 2.595 1
14.3655 5.6545 2.5739999 1
14.3635 5.6415 2.5320001 1
14.3665 5.5945001 2.608 1
14.3665 5.6285 2.631 1
14.3645 5.5565 2.5599999 1
14.3645 5.5584998 2.5539999 1
14.3655 5.5054998 2.5940001 1
14.3645 5.5504999 2.5580001 1
14.3635 5.5005002 2.556 1
14.3665 5.5675001 2.6140001 1
14.3645 5.5665002 2.5569999 1
14.3675 5.5844998 2.6470001 1
14.3675 5.6025 2.6530001 1
14.3665 5.5425 2.6129999 1
14.3635 5.5605001 2.539 1
14.3675 5.5595002 2.641 1
14.3665 5.5135002 2.6240001 1
14.3675 5.5925002 2.642 1
14.3655 5.6564999 2.5799999 1
14.3655 5.6265001 2.5929999 1
14.3675 5.5764999 2.655 1
14.3655 5.5475001 2.592 1
14.3675 5.5834999 2.638 1
14.3635 5.7024999 2.5179999 1
14.3655 5.5885 2.5999999 1
14.3645 5.5165 2.5710001 1
14.3655 5.5745001 2.6070001 1
14.3645 5.6774998 2.563 1
14.3655 5.5644999 2.6029999 1
14.3635 5.6545 2.5380001 1
14.3655 5.5964999 2.5780001 1
14.3675 5.5704999 2.6559999 1
14.3675 5.5644999 2.6429999 1
14.3675 5.5984998 2.6359999 1
14.3635 5.7045002 2.513 1
14.3645 5.6465001 2.5599999 1
14.3675 5.5854998 2.6470001 1
14.3645 5.6205001 2.5739999 1
14.3635 5.7014999 2.51 1
14.3635 5.6355 2.536 1
14.3665 5.5704999 2.6240001 1
14.3645 5.5574999 2.559 1
14.3635 5.5974998 2.539 1
14.3635 5.5964999 2.5420001 1
14.3635 5.5265002 2.5409999 1
14.3655 5.5254998 2.599 1
14.3655 5.6385002 2.595 1
14.3655 5.5524998 2.592 1
14.3635 5.5865002 2.5450001 1
14.3665 5.5565 2.622 1
14.3645 5.5124998 2.5650001 1
14.3655 5.6034999 2.5969999 1
14.3665 5.6164999 2.6140001 1
14.3655 5.5854998 2.602 1
14.3635 5.6494999 2.5320001 1
14.3645 5.5124998 2.5780001 1
14.3655 5.4905 2.5910001 1
14.3635 5.6615 2.523 1
14.3635 5.6304998 2.52 1
14.3635 5.6684999 2.536 1
14.3665 5.6364999 2.605 1
14.3675 5.5945001 2.6500001 1
14.3635 5.5685 2.533 1
14.3645 5.6145 2.562 1
14.3645 5.6694999 2.5680001 1
14.3645 5.5054998 2.576 1
14.3645 5.5005002 2.5680001 1
14.3655 5.6564999 2.576 1
14.3635 5.5974998 2.5339999 1
14.3645 5.5764999 2.563 1
14.3635 5.7135 2.5150001 1
14.3665 5.5374999 2.6340001 1
14.3665 5.6364999 2.6159999 1
14.3675 5.5914998 2.6470001 1
14.3675 5.5295 2.645 1
14.3645 5.5795002 2.5650001 1
14.3685 5.5725002 2.671 1
14.3635 5.7005 2.5090001 1
14.3645 5.6395001 2.5610001 1
14.3655 5.6415 2.5869999 1
14.3675 5.6075001 2.6340001 1
14.3635 5.4965 2.549 1
14.3645 5.5644999 2.5569999 1
14.3665 5.5565 2.6389999 1
14.3655 5.5704999 2.5910001 1
14.3645 5.6114998 2.5580001 1
14.3635 5.6634998 2.53 1
14.3675 5.5755 2.6489999 1
14.3645 5.4974999 2.562 1
14.3645 5.5984998 2.5550001 1
14.3655 5.6475 2.5810001 1
14.3635 5.5795002 2.539 1
14.3635 5.5714998 2.5450001 1
14.3655 5.5584998 2.5899999 1
14.3655 5.6224999 2.5810001 1
14.3655 5.5194998 2.6140001 1
14.3645 5.6195002 2.552 1
14.3635 5.5735002 2.543 1
14.3665 5.5254998 2.632 1
14.3665 5.6025 2.6129999 1
14.3645 5.6624999 2.5650001 1
14.3655 5.5665002 2.5829999 1
14.3655 5.5105 2.615 1
14.3635 5.6364999 2.5369999 1
14.3665 5.5314999 2.6210001 1
14.3685 5.5665002 2.6730001 1
14.3645 5.6224999 2.552 1
14.3655 5.5365 2.5899999 1
14.3645 5.5124998 2.5639999 1
14.3655 5.6325002 2.589 1
14.3635 5.6824999 2.523 1
14.3635 5.5485001 2.5420001 1
14.3645 5.5355 2.576 1
14.3635 5.5434999 2.5420001 1
14.3675 5.5964999 2.6470001 1
14.3665 5.5405002 2.6300001 1
14.3645 5.6684999 2.543 1
14.3675 5.5555 2.6500001 1
14.3645 5.6205001 2.552 1
14.3665 5.6155 2.605 1
14.3655 5.5275002 2.609 1
14.3655 5.5244999 2.596 1
14.3645 5.6044998 2.5710001 1
14.3635 5.6255002 2.5420001 1
14.3635 5.7214999 2.5050001 1
14.3665 5.5755 2.6240001 1
14.3635 5.5834999 2.5409999 1
14.3665 5.5725002 2.622 1
14.3645 5.5184999 2.579 1
14.3645 5.5625 2.5780001 1
14.3685 5.5714998 2.6760001 1
14.3675 5.5504999 2.651 1
14.3655 5.6355 2.592 1
14.3635 5.6094999 2.5280001 1
14.3655 5.5844998 2.6010001 1
14.3655 5.5425 2.6029999 1
14.3635 5.5035 2.553 1
14.3635 5.5625 2.5369999 1
14.3655 5.6244998 2.575 1
14.3675 5.5595002 2.6400001 1
14.3655 5.5885 2.599 1
14.3645 5.4825001 2.562 1
14.3655 5.5875001 2.5880001 1
14.3635 5.6405001 2.526 1
14.3635 5.5244999 2.553 1
14.3635 5.6884999 2.5239999 1
14.3645 5.5514998 2.562 1
14.3635 5.6195002 2.5250001 1
14.3645 5.5805001 2.5639999 1
14.3665 5.5235 2.642 1
14.3645 5.5174999 2.5699999 1
14.3635 5.5595002 2.543 1
14.3645 5.5145001 2.562 1
14.3655 5.6285 2.5799999 1
14.3635 5.6845002 2.5120001 1
14.3635 5.7005 2.529 1
14.3665 5.5145001 2.631 1
14.3665 5.5805001 2.6300001 1
14.3635 5.5174999 2.549 1
14.3665 5.5735002 2.628 1
14.3655 5.5815001 2.5899999 1
14.3665 5.6055002 2.631 1
14.3685 5.5914998 2.671 1
14.3665 5.5555 2.6240001 1
14.3645 5.5075002 2.5639999 1
14.3645 5.6355 2.546 1
14.3635 5.4895 2.5580001 1
14.3655 5.6374998 2.589 1
14.3635 5.4914999 2.5510001 1
14.3665 5.5235 2.6229999 1
14.3645 5.6774998 2.562 1
14.3675 5.5644999 2.6589999 1
14.3635 5.6615 2.539 1
14.3635 5.5025001 2.5510001 1
14.3645 5.5075002 2.563 1
14.3675 5.5565 2.651 1
14.3665 5.5565 2.635 1
14.3655 5.5784998 2.582 1
14.3675 5.5314999 2.6559999 1
14.3645 5.6455002 2.5510001 1
14.3685 5.5714998 2.694 1
14.3645 5.5155001 2.5580001 1
14.3655 5.5774999 2.592 1
14.3655 5.4974999 2.595 1
14.3685 5.5725002 2.674 1
14.3635 5.5634999 2.543 1
14.3655 5.5434999 2.5899999 1
14.3635 5.7094998 2.5109999 1
14.3655 5.5984998 2.5999999 1
14.3635 5.5634999 2.5450001 1
14.3665 5.5095 2.6210001 1
14.3665 5.6015 2.612 1
14.3675 5.5285001 2.6459999 1
14.3645 5.6465001 2.5669999 1
14.3675 5.5805001 2.638 1
14.3635 5.6424999 2.5190001 1
14.3685 5.5735002 2.675 1
14.3685 5.5774999 2.6760001 1
14.3645 5.6915002 2.539 1
14.3685 5.5485001 2.677 1
14.3635 5.6485 2.517 1
14.3655 5.6015 2.5929999 1
14.3635 5.6015 2.5439999 1
14.3645 5.5235 2.5739999 1
14.3655 5.5355 2.598 1
14.3645 5.5964999 2.5669999 1
14.3635 5.5514998 2.543 1
14.3635 5.5395002 2.546 1
14.3645 5.5514998 2.5569999 1
14.3685 5.5574999 2.681 1
14.3635 5.4994998 2.5480001 1
14.3645 5.5005002 2.585 1
14.3655 5.5015001 2.5940001 1
14.3685 5.5595002 2.688 1
14.3675 5.5415001 2.652 1
14.3645 5.5434999 2.5769999 1
14.3655 5.6395001 2.592 1
14.3645 5.5135002 2.5840001 1
14.3665 5.6155 2.609 1
14.3635 5.5984998 2.54 1
14.3635 5.6364999 2.53 1
14.3645 5.5644999 2.5680001 1
14.3665 5.6355 2.6040001 1
14.3645 5.5704999 2.5699999 1
14.3645 5.6125002 2.552 1
14.3645 5.6114998 2.55 1
14.3675 5.5914998 2.638 1
14.3665 5.5885 2.6240001 1
14.3655 5.4965 2.6010001 1
14.3635 5.7175002 2.5050001 1
14.3675 5.5425 2.6559999 1
14.3665 5.5545001 2.615 1
14.3635 5.5345001 2.546 1
14.3675 5.5415001 2.6440001 1
14.3645 5.6715002 2.5510001 1
14.3685 5.5695 2.6730001 1
14.3675 5.6255002 2.6340001 1
14.3675 5.6104999 2.645 1
14.3675 5.7614999 2.2679999 1
14.3685 5.8455 2.1889999 1
14.3685 5.7995 2.2149999 1
14.3685 5.8065 2.2130001 1
14.3675 5.7375002 2.2869999 1
14.3685 5.8105001 2.201 1
14.3685 5.7424998 2.221 1
14.3695 5.7944999 2.1600001 1
14.3685 5.7775002 2.1989999 1
14.3645 5.7605 2.388 1
14.3675 5.8045001 2.24 1
14.3675 5.7414999 2.277 1
14.3675 5.7455001 2.256 1
14.3655 5.7665 2.3410001 1
14.3645 5.7385001 2.4100001 1
14.3685 5.8334999 2.1819999 1
14.3685 5.7284999 2.2179999 1
14.3665 5.7585001 2.2950001 1
14.3645 5.7284999 2.4230001 1
14.3665 5.7294998 2.313 1
14.3655 5.7954998 2.326 1
14.3695 5.7525001 2.1949999 1
14.3675 5.7435002 2.2639999 1
14.3685 5.8195 2.2 1
14.3695 5.7765002 2.1600001 1
14.3685 5.7954998 2.1960001 1
14.3665 5.7354999 2.3429999 1
14.3695 5.7395 2.177 1
14.3665 5.7665 2.2869999 1
14.3665 5.8095002 2.2820001 1
14.3705 5.7325001 2.1489999 1
14.3685 5.7694998 2.2149999 1
14.3675 5.8035002 2.2279999 1
14.3685 5.8274999 2.1919999 1
14.3685 5.8344998 2.1700001 1
14.3695 5.7585001 2.1930001 1
14.3645 5.7275 2.4100001 1
14.3685 5.7614999 2.207 1
14.3665 5.7995 2.309 1
14.3695 5.7445002 2.204 1
14.3655 5.7554998 2.382 1
14.3655 5.7824998 2.3280001 1
14.3685 5.8375001 2.1849999 1
14.3685 5.7925 2.1900001 1
14.3695 5.7824998 2.178 1
14.3675 5.7364998 2.28 1
14.3645 5.7595 2.4070001 1
14.3665 5.7505002 2.3169999 1
14.3665 5.7614999 2.329 1
14.3685 5.7775002 2.2190001 1
14.3655 5.7354999 2.388 1
14.3685 5.7674999 2.22 1
14.3685 5.7224998 2.223 1
14.3665 5.7765002 2.313 1
14.3675 5.7865 2.2490001 1
14.3675 5.8185 2.221 1
14.3695 5.7645001 2.188 1
14.3695 5.7564998 2.178 1
14.3655 5.7484999 2.352 1
14.3675 5.7245002 2.2780001 1
14.3675 5.8214998 2.25 1
14.3655 5.7474999 2.3469999 1
14.3685 5.8105001 2.2090001 1
14.3655 5.7474999 2.3759999 1
14.3665 5.7255001 2.3099999 1
14.3665 5.7255001 2.3180001 1
14.3665 5.7414999 2.335 1
14.3665 5.8084998 2.27 1
14.3665 5.8115001 2.277 1
14.3685 5.7575002 2.237 1
14.3665 5.7934999 2.273 1
14.3665 5.7414999 2.3269999 1
14.3675 5.8115001 2.2460001 1
14.3665 5.7775002 2.3010001 1
14.3685 5.8024998 2.207 1
14.3665 5.7905002 2.3099999 1
14.3665 5.7735 2.3239999 1
14.3665 5.7564998 2.332 1
14.3685 5.8255 2.1849999 1
14.3665 5.7585001 2.332 1
14.3665 5.8055 2.266 1
14.3695 5.7635002 2.164 1
14.3645 5.7455001 2.421 1
14.3655 5.7874999 2.329 1
14.3655 5.7655001 2.369 1
14.3675 5.7224998 2.296 1
14.3655 5.7505002 2.345 1
14.3685 5.7614999 2.2160001 1
14.3675 5.7674999 2.25 1
14.3675 5.7744999 2.27 1
14.3665 5.7294998 2.3440001 1
14.3645 5.7364998 2.4059999 1
14.3675 5.7455001 2.2720001 1
14.3675 5.7694998 2.2590001 1
14.3695 5.7605 2.1659999 1
14.3655 5.7255001 2.369 1
14.3695 5.7765002 2.177 1
14.3695 5.7775002 2.164 1
14.3665 5.8035002 2.299 1
14.3645 5.7575002 2.4070001 1
14.3665 5.7835002 2.2780001 1
14.3685 5.7364998 2.2460001 1
14.3675 5.7684999 2.2650001 1
14.3655 5.7375002 2.3510001 1
14.3665 5.7385001 2.319 1
14.3695 5.7405 2.164 1
14.3645 5.7435002 2.3940001 1
14.3665 5.7385001 2.316 1
14.3695 5.7684999 2.1689999 1
14.3655 5.7965002 2.3150001 1
14.3675 5.7344999 2.2939999 1
14.3645 5.7564998 2.427 1
14.3655 5.7474999 2.3870001 1
14.3685 5.7275 2.244 1
14.3635 5.7284999 2.487 1
14.3655 5.7315001 2.3889999 1
14.3705 5.7375002 2.1489999 1
14.3675 5.8445001 2.1989999 1
14.3675 5.8315001 2.2119999 1
14.3695 5.7224998 2.2 1
14.3655 5.7595 2.3369999 1
14.3665 5.7635002 2.3210001 1
14.3665 5.7694998 2.3139999 1
14.3695 5.7665 2.1760001 1
14.3645 5.7505002 2.405 1
14.3655 5.7934999 2.3269999 1
14.3695 5.7245002 2.2030001 1
14.3685 5.7435002 2.2130001 1
14.3685 5.7335 2.2290001 1
14.3675 5.7564998 2.266 1
14.3675 5.7465 2.266 1
14.3685 5.7445002 2.2160001 1
14.3675 5.7255001 2.276 1
14.3685 5.8065 2.1819999 1
14.3685 5.7845001 2.217 1
14.3675 5.7515001 2.289 1
14.3655 5.7585001 2.381 1
14.3685 5.7985001 2.221 1
14.3675 5.7845001 2.267 1
14.3635 5.7395 2.461 1
14.3675 5.8414998 2.2149999 1
14.3685 5.7624998 2.2079999 1
14.3705 5.7395 2.158 1
14.3655 5.7645001 2.3540001 1
14.3685 5.7525001 2.2379999 1
14.3685 5.7614999 2.224 1
14.3665 5.7795 2.3239999 1
14.3685 5.7934999 2.201 1
14.3645 5.7564998 2.4230001 1
14.3695 5.7694998 2.1860001 1
14.3695 5.8055 2.168 1
14.3685 5.7975001 2.2049999 1
14.3675 5.7575002 2.2869999 1
14.3645 5.7474999 2.4330001 1
14.3695 5.7785001 2.1559999 1
14.3675 5.8154998 2.2149999 1
14.3695 5.7665 2.1570001 1
14.3685 5.8095002 2.1989999 1
14.3655 5.7884998 2.349 1
14.3675 5.7455001 2.2809999 1
14.3705 5.7185001 2.142 1
14.3675 5.7595 2.2620001 1
14.3705 5.7205 2.142 1
14.3665 5.8074999 2.277 1
14.3695 5.8014998 2.174 1
14.3655 5.7284999 2.3759999 1
14.3705 5.7435002 2.1470001 1
14.3685 5.7795 2.2130001 1
14.3665 5.7655001 2.3239999 1
14.3675 5.7645001 2.2550001 1
14.3665 5.8024998 2.309 1
14.3695 5.7694998 2.174 1
14.3675 5.7525001 2.2590001 1
14.3675 5.7765002 2.237 1
14.3655 5.7795 2.3699999 1
14.3665 5.7855 2.28 1
14.3685 5.7255001 2.2290001 1
14.3675 5.8365002 2.207 1
14.3695 5.7575002 2.161 1
14.3695 5.7874999 2.1760001 1
14.3685 5.7804999 2.23 1
14.3685 5.7484999 2.2290001 1
14.3685 5.7954998 2.22 1
14.3705 5.7564998 2.148 1
14.3705 5.7214999 2.171 1
14.3695 5.7265 2.2030001 1
14.3695 5.7544999 2.1819999 1
14.3705 5.7224998 2.1470001 1
14.3635 5.7435002 2.461 1
14.3665 5.7905002 2.2750001 1
14.3655 5.7255001 2.375 1
14.3685 5.8134999 2.1889999 1
14.3675 5.7614999 2.2690001 1
14.3685 5.7785001 2.198 1
14.3655 5.7684999 2.3410001 1
14.3695 5.7455001 2.194 1
14.3665 5.8105001 2.263 1
14.3675 5.7395 2.2720001 1
14.3635 5.7544999 2.4330001 1
14.3665 5.7325001 2.3469999 1
14.3675 5.7925 2.227 1
14.3675 5.7405 2.279 1
14.3655 5.7294998 2.3659999 1
14.3665 5.7954998 2.312 1
14.3685 5.7375002 2.2539999 1
14.3655 5.7435002 2.3789999 1
14.3645 5.7624998 2.4059999 1
14.3675 5.8014998 2.263 1
14.3685 5.8525 2.1819999 1
14.3665 5.8014998 2.3110001 1
14.3695 5.7435002 2.1930001 1
14.3635 5.7405 2.4430001 1
14.3655 5.7614999 2.342 1
14.3665 5.7635002 2.2950001 1
14.3665 5.7744999 2.293 1
14.3685 5.7614999 2.2190001 1
14.3665 5.7795 2.2980001 1
14.3645 5.7284999 2.437 1
14.3685 5.7624998 2.2320001 1
14.3705 5.7185001 2.1500001 1
14.3655 5.7395 2.352 1
14.3655 5.7284999 2.3629999 1
14.3645 5.7395 2.4130001 1
14.3665 5.7905002 2.279 1
14.3675 5.8035002 2.2379999 1
14.3695 5.7265 2.2090001 1
14.3645 5.7325001 2.408 1
14.3685 5.7245002 2.224 1
14.3635 5.7525001 2.438 1
14.3655 5.7954998 2.3310001 1
14.3675 5.7865 2.233 1
14.3685 5.8315001 2.1689999 1
14.3695 5.7635002 2.1860001 1
14.3665 5.7554998 2.326 1
14.3665 5.7375002 2.3469999 1
14.3685 5.7294998 2.256 1
14.3665 5.7865 2.2939999 1
14.3685 5.8134999 2.178 1
14.3685 5.7715001 2.227 1
14.3675 5.7835002 2.237 1
14.3665 5.7874999 2.303 1
14.3685 5.7275 2.244 1
14.3705 5.7335 2.1530001 1
14.3705 5.7315001 2.1470001 1
14.3685 5.8024998 2.201 1
14.3685 5.7655001 2.2320001 1
14.3705 5.7275 2.1630001 1
14.3665 5.7494998 2.3010001 1
14.3665 5.7595 2.319 1
14.3675 5.7445002 2.289 1
14.3665 5.8014998 2.3080001 1
14.3675 5.8255 2.224 1
14.3685 5.8354998 2.187 1
14.3655 5.7965002 2.3369999 1
14.3635 5.7585001 2.4630001 1
14.3635 5.8014998 2.4189999 1
14.3655 5.8575001 2.3 1
14.3645 5.8474998 2.3499999 1
14.3645 5.7804999 2.3889999 1
14.3645 5.8125 2.3729999 1
14.3655 5.7954998 2.3629999 1
14.3675 5.8404999 2.224 1
14.3655 5.8794999 2.2950001 1
14.3655 5.9105 2.3039999 1
14.3655 5.8695002 2.2939999 1
14.3665 5.8614998 2.283 1
14.3645 5.8095002 2.391 1
14.3665 5.8715 2.286 1
14.3675 5.8695002 2.2309999 1
14.3645 5.7985001 2.3670001 1
14.3635 5.7874999 2.4349999 1
14.3645 5.8095002 2.368 1
14.3675 5.8664999 2.224 1
14.3685 5.8585 2.178 1
14.3665 5.8264999 2.29 1
14.3635 5.7414999 2.48 1
14.3645 5.8655 2.3540001 1
14.3665 5.8274999 2.2880001 1
14.3645 5.7944999 2.3740001 1
14.3655 5.8315001 2.319 1
14.3665 5.8425002 2.273 1
14.3635 5.7564998 2.451 1
14.3665 5.8255 2.2950001 1
14.3675 5.8464999 2.2420001 1
14.3675 5.8674998 2.2190001 1
14.3635 5.7985001 2.4200001 1
14.3665 5.8744998 2.2609999 1
14.3665 5.8645 2.244 1
14.3655 5.7985001 2.3469999 1
14.3665 5.8385 2.2479999 1
14.3645 5.8245001 2.358 1
14.3665 5.8204999 2.2880001 1
14.3635 5.7515001 2.4690001 1
14.3665 5.8385 2.2579999 1
14.3655 5.8674998 2.2969999 1
14.3655 5.8985 2.3010001 1
14.3645 5.7694998 2.405 1
14.3655 5.7874999 2.3559999 1
14.3655 5.8575001 2.342 1
14.3655 5.9064999 2.2909999 1
14.3675 5.8724999 2.2360001 1
14.3635 5.7804999 2.431 1
14.3655 5.8674998 2.296 1
14.3665 5.8635001 2.276 1
14.3655 5.8515 2.296 1
14.3675 5.8625002 2.21 1
14.3645 5.7934999 2.3989999 1
14.3635 5.7804999 2.427 1
14.3665 5.8744998 2.2780001 1
14.3655 5.8565001 2.3169999 1
14.3645 5.7715001 2.401 1
14.3635 5.7715001 2.4530001 1
14.3645 5.8165002 2.3629999 1
14.3645 5.8255 2.3889999 1
14.3655 5.8404999 2.336 1
14.3635 5.7595 2.4449999 1
14.3635 5.7405 2.4749999 1
14.3645 5.8755002 2.342 1
14.3665 5.8334999 2.277 1
14.3655 5.8785 2.2939999 1
14.3635 5.7905002 2.425 1
14.3645 5.8404999 2.382 1
14.3635 5.7435002 2.467 1
14.3645 5.8274999 2.3710001 1
14.3635 5.7635002 2.438 1
14.3655 5.8835001 2.3199999 1
14.3635 5.7744999 2.4260001 1
14.3665 5.8814998 2.247 1
14.3655 5.8915 2.325 1
14.3655 5.8195 2.346 1
14.3655 5.8695002 2.335 1
14.3655 5.8544998 2.3039999 1
14.3665 5.8934999 2.279 1
14.3665 5.8264999 2.2969999 1
14.3665 5.8614998 2.26 1
14.3655 5.7895002 2.3499999 1
14.3675 5.8555002 2.22 1
14.3665 5.8464999 2.279 1
14.3655 5.8455 2.3369999 1
14.3645 5.7845001 2.4030001 1
14.3645 5.7665 2.4059999 1
14.3635 5.7865 2.4230001 1
14.3655 5.8284998 2.3380001 1
14.3655 5.8814998 2.2939999 1
14.3665 5.8814998 2.257 1
14.3665 5.8404999 2.2539999 1
14.3655 5.8955002 2.2939999 1
14.3665 5.8365002 2.2520001 1
14.3655 5.8255 2.313 1
14.3675 5.8575001 2.2219999 1
14.3635 5.7705002 2.4330001 1
14.3645 5.8165002 2.375 1
14.3645 5.7905002 2.385 1
14.3645 5.7975001 2.375 1
14.3655 5.8664999 2.3150001 1
14.3665 5.8635001 2.2639999 1
14.3645 5.7624998 2.4219999 1
14.3645 5.8645 2.3540001 1
14.3655 5.8305001 2.332 1
14.3675 5.8695002 2.2190001 1
14.3645 5.8014998 2.3659999 1
14.3645 5.7824998 2.408 1
14.3665 5.8525 2.283 1
14.3675 5.8734999 2.2160001 1
14.3645 5.8435001 2.369 1
14.3645 5.7804999 2.405 1
14.3645 5.8555002 2.348 1
14.3655 5.8305001 2.3039999 1
14.3665 5.8674998 2.2479999 1
14.3665 5.8295002 2.2920001 1
14.3645 5.8325 2.3800001 1
14.3655 5.9074998 2.3039999 1
14.3665 5.8395 2.2909999 1
14.3675 5.8705001 2.21 1
14.3655 5.8575001 2.313 1
14.3655 5.8555002 2.3329999 1
14.3665 5.8965001 2.2720001 1
14.3675 5.8495002 2.243 1
14.3645 5.8055 2.3629999 1
14.3655 5.8794999 2.303 1
14.3665 5.8655 2.2720001 1
14.3675 5.8414998 2.2420001 1
14.3675 5.8515 2.224 1
14.3645 5.8084998 2.368 1
14.3655 5.8565001 2.3340001 1
14.3675 5.8474998 2.2130001 1
14.3665 5.8794999 2.2820001 1
14.3665 5.8204999 2.2839999 1
14.3645 5.8404999 2.3659999 1
14.3665 5.8715 2.2839999 1
14.3665 5.8505001 2.2539999 1
14.3675 5.8425002 2.2290001 1
14.3645 5.7855 2.382 1
14.3655 5.8055 2.3599999 1
14.3655 5.8175001 2.3510001 1
14.3665 5.8464999 2.2750001 1
14.3665 5.8695002 2.2850001 1
14.3675 5.8544998 2.2190001 1
14.3655 5.8045001 2.3380001 1
14.3655 5.8045001 2.358 1
14.3645 5.8484998 2.369 1
14.3635 5.8084998 2.415 1
14.3655 5.8715 2.3110001 1
14.3665 5.8715 2.2490001 1
14.3665 5.8794999 2.279 1
14.3665 5.8134999 2.3069999 1
14.3645 5.8185 2.395 1
14.3635 5.7414999 2.47 1
14.3665 5.8375001 2.279 1
14.3665 5.8715 2.263 1
14.3645 5.7845001 2.4130001 1
14.3655 5.8915 2.302 1
14.3655 5.8455 2.2980001 1
14.3635 5.7934999 2.4219999 1
14.3665 5.8635001 2.2550001 1
14.3645 5.8325 2.358 1
14.3645 5.7884998 2.3900001 1
14.3645 5.8645 2.3540001 1
14.3665 5.8825002 2.2709999 1
14.3645 5.7965002 2.4000001 1
14.3645 5.8775001 2.3410001 1
14.3645 5.7865 2.398 1
14.3655 5.8715 2.3239999 1
14.3655 5.8095002 2.3529999 1
14.3645 5.8495002 2.3710001 1
14.3655 5.8755002 2.3329999 1
14.3655 5.8055 2.575 1
14.3705 5.9085002 2.7049999 1
14.3685 5.6925001 2.6559999 1
14.3665 5.8105001 2.5999999 1
14.3685 5.6294999 2.6889999 1
14.3645 5.6964998 2.5610001 1
14.3655 5.6754999 2.5799999 1
14.3665 5.7575002 2.5899999 1
14.3655 5.6875 2.5669999 1
14.3655 5.7135 2.5650001 1
14.3705 5.9124999 2.6919999 1
14.3685 5.6094999 2.6889999 1
14.3685 5.6745 2.6589999 1
14.3665 5.6945 2.615 1
14.3695 5.8575001 2.6930001 1
14.3675 5.7024999 2.6500001 1
14.3675 5.6995001 2.6289999 1
14.3685 5.6574998 2.6589999 1
14.3655 5.7024999 2.572 1
14.3685 5.7214999 2.675 1
14.3655 5.6645002 2.598 1
14.3655 5.7895002 2.5780001 1
14.3695 5.6935 2.704 1
14.3675 5.7045002 2.6300001 1
14.3685 5.8225002 2.6700001 1
14.3675 5.6515002 2.6470001 1
14.3665 5.6424999 2.6159999 1
14.3685 5.8495002 2.6459999 1
14.3655 5.7385001 2.5650001 1
14.3675 5.7354999 2.6340001 1
14.3685 5.7315001 2.655 1
14.3685 5.6615 2.6789999 1
14.3655 5.7045002 2.5799999 1
14.3695 5.7614999 2.6889999 1
14.3685 5.7715001 2.6730001 1
14.3675 5.7055001 2.6459999 1
14.3675 5.7354999 2.622 1
14.3675 5.6915002 2.6389999 1
14.3665 5.7954998 2.596 1
14.3685 5.7435002 2.6600001 1
14.3695 5.6174998 2.6930001 1
14.3685 5.8385 2.6659999 1
14.3685 5.8425002 2.642 1
14.3675 5.8144999 2.6159999 1
14.3635 5.7245002 2.506 1
14.3655 5.7354999 2.573 1
14.3675 5.7484999 2.6229999 1
14.3685 5.8404999 2.6630001 1
14.3685 5.6044998 2.6730001 1
14.3685 5.8614998 2.654 1
14.3685 5.8295002 2.6619999 1
14.3685 5.8185 2.6670001 1
14.3685 5.7045002 2.668 1
14.3675 5.7705002 2.6470001 1
14.3665 5.7985001 2.6040001 1
14.3645 5.7024999 2.5480001 1
14.3685 5.8474998 2.6429999 1
14.3675 5.7335 2.6359999 1
14.3665 5.7775002 2.615 1
14.3675 5.8014998 2.6240001 1
14.3695 5.8664999 2.6670001 1
14.3685 5.7795 2.6689999 1
14.3685 5.7655001 2.661 1
14.3655 5.6884999 2.5940001 1
14.3655 5.7154999 2.5840001 1
14.3675 5.7435002 2.6240001 1
14.3675 5.6314998 2.6329999 1
14.3695 5.7125001 2.7019999 1
14.3675 5.6824999 2.652 1
14.3685 5.6494999 2.664 1
14.3655 5.7605 2.5639999 1
14.3685 5.8165002 2.6659999 1
14.3685 5.7795 2.658 1
14.3665 5.7164998 2.6210001 1
14.3695 5.6525002 2.6949999 1
14.3695 5.8645 2.674 1
14.3685 5.6215 2.6800001 1
14.3665 5.7305002 2.5999999 1
14.3695 5.8544998 2.684 1
14.3655 5.7645001 2.5650001 1
14.3655 5.7835002 2.582 1
14.3695 5.8845 2.677 1
14.3665 5.6615 2.6029999 1
14.3675 5.7364998 2.6389999 1
14.3705 5.8705001 2.698 1
14.3665 5.6465001 2.625 1
14.3685 5.6634998 2.664 1
14.3685 5.8744998 2.664 1
14.3695 5.8065 2.6819999 1
14.3675 5.6615 2.6370001 1
14.3685 5.7045002 2.681 1
14.3655 5.7494998 2.572 1
14.3695 5.7874999 2.681 1
14.3675 5.7175002 2.6489999 1
14.3675 5.8464999 2.6329999 1
14.3695 5.8455 2.6919999 1
14.3655 5.7575002 2.5739999 1
14.3695 5.8185 2.6889999 1
14.3695 5.8495002 2.6900001 1
14.3685 5.7925 2.664 1
14.3645 5.7364998 2.5550001 1
14.3685 5.7835002 2.6489999 1
14.3665 5.6935 2.6199999 1
14.3695 5.8024998 2.694 1
14.3695 5.6475 2.6989999 1
14.3665 5.7484999 2.6059999 1
14.3685 5.8235002 2.6489999 1
14.3695 5.6615 2.6960001 1
14.3685 5.7135 2.6819999 1
14.3695 5.8065 2.681 1
14.3655 5.6745 2.5940001 1
14.3665 5.7785001 2.6040001 1
14.3675 5.8175001 2.615 1
14.3665 5.6525002 2.618 1
14.3695 5.7045002 2.6949999 1
14.3655 5.7754998 2.585 1
14.3695 5.7135 2.694 1
14.3685 5.7435002 2.6659999 1
14.3695 5.7684999 2.7030001 1
14.3655 5.7855 2.5610001 1
14.3695 5.7725 2.687 1
14.3695 5.8455 2.698 1
14.3685 5.7094998 2.6659999 1
14.3655 5.7195001 2.589 1
14.3685 5.7125001 2.6559999 1
14.3665 5.6925001 2.6010001 1
14.3675 5.8474998 2.615 1
14.3675 5.8474998 2.632 1
14.3695 5.9045 2.6760001 1
14.3685 5.8685002 2.642 1
14.3665 5.8365002 2.6040001 1
14.3685 5.6655002 2.678 1
14.3695 5.6164999 2.7 1
14.3695 5.6025 2.6949999 1
14.3695 5.8385 2.674 1
14.3655 5.6704998 2.5780001 1
14.3695 5.8375001 2.675 1
14.3705 5.8755002 2.701 1
14.3675 5.6564999 2.6530001 1
14.3675 5.7804999 2.618 1
14.3685 5.6055002 2.687 1
14.3645 5.6894999 2.5550001 1
14.3675 5.7484999 2.625 1
14.3665 5.7335 2.6010001 1
14.3685 5.8674998 2.6429999 1
14.3685 5.5995002 2.6849999 1
14.3695 5.8435001 2.697 1
14.3655 5.8055 2.579 1
14.3655 5.7385001 2.5840001 1
14.3695 5.8885002 2.668 1
14.3705 5.9324999 2.6989999 1
14.3675 5.7065001 2.6259999 1
14.3675 5.7005 2.6459999 1
14.3635 5.7385001 2.523 1
14.3655 5.7045002 2.5699999 1
14.3695 5.8734999 2.6889999 1
14.3685 5.8255 2.6700001 1
14.3665 5.8024998 2.5929999 1
14.3685 5.6455002 2.681 1
14.3705 5.8095002 2.7049999 1
14.3655 5.7065001 2.5829999 1
14.3705 5.9274998 2.694 1
14.3695 5.8245001 2.694 1
14.3675 5.8185 2.6400001 1
14.3675 5.6385002 2.638 1
14.3675 5.6774998 2.6289999 1
14.3695 5.5885 2.697 1
14.3685 5.6945 2.671 1
14.3655 5.7505002 2.5680001 1
14.3685 5.6485 2.6860001 1
14.3675 5.7375002 2.6489999 1
14.3705 5.8365002 2.7049999 1
14.3665 5.6754999 2.6140001 1
14.3695 5.7265 2.7 1
14.3655 5.6925001 2.5699999 1
14.3665 5.7455001 2.596 1
14.3685 5.7364998 2.6730001 1
14.3705 5.8855 2.704 1
14.3675 5.7234998 2.6470001 1
14.3685 5.8625002 2.652 1
14.3655 5.6595001 2.595 1
14.3675 5.6865001 2.651 1
14.3695 5.6574998 2.691 1
14.3695 5.6615 2.6889999 1
14.3675 5.6114998 2.661 1
14.3695 5.7445002 2.6989999 1
14.3645 5.7544999 2.5439999 1
14.3695 5.6335001 2.701 1
14.3645 5.7674999 2.536 1
14.3685 5.6774998 2.677 1
14.3675 5.6135001 2.6559999 1
14.3675 5.7255001 2.641 1
14.3665 5.8074999 2.5899999 1
14.3655 5.7705002 2.5699999 1
14.3685 5.7845001 2.668 1
14.3695 5.5865002 2.7049999 1
14.3665 5.6834998 2.599 1
14.3685 5.8414998 2.652 1
14.3695 5.8765001 2.688 1
14.3695 5.6515002 2.704 1
14.3645 5.7205 2.5580001 1
14.3685 5.8885002 2.655 1
14.3685 5.7424998 2.677 1
14.3655 5.7725 2.579 1
14.3645 5.7364998 2.55 1
14.3685 5.8555002 2.6600001 1
14.3685 5.5955 2.687 1
14.3695 5.8214998 2.674 1
14.3675 5.7554998 2.6370001 1
14.3685 5.8435001 2.6500001 1
14.3675 5.7765002 2.622 1
14.3665 5.7375002 2.605 1
14.3685 5.6694999 2.661 1
14.3665 5.7544999 2.6059999 1
14.3665 5.6444998 2.6140001 1
14.3675 5.8134999 2.618 1
14.3645 5.7424998 2.549 1
14.3685 5.8565001 2.6489999 1
14.3685 5.8495002 2.6530001 1
14.3695 5.8715 2.6860001 1
14.3695 5.8464999 2.674 1
14.3645 5.7554998 2.543 1
14.3645 5.7754998 2.5569999 1
14.3665 5.6515002 2.6259999 1
14.3655 5.7245002 2.5880001 1
14.3655 5.7234998 2.573 1
14.3665 5.7865 2.6029999 1
14.3665 5.7944999 2.5969999 1
14.3695 5.7585001 2.6849999 1
14.3675 5.7175002 2.6429999 1
14.3685 5.8235002 2.6589999 1
14.3685 5.8555002 2.654 1
14.3665 5.7065001 2.6070001 1
14.3695 5.8455 2.694 1
14.3685 5.8315001 2.664 1
14.3685 5.8525 2.6500001 1
14.3665 5.8035002 2.5910001 1
14.3665 5.7925 2.6129999 1
14.3665 5.7985001 2.6059999 1
14.3655 5.6925001 2.5910001 1
14.3685 5.6745 2.6830001 1
14.3645 5.7125001 2.5450001 1
14.3695 5.7824998 2.688 1
14.3705 5.8544998 2.7 1
14.3695 5.7535 2.6800001 1
14.3695 5.8585 2.6789999 1
14.3675 5.6964998 2.628 1
14.3655 5.7385001 2.563 1
14.3665 5.6585002 2.6159999 1
14.3635 5.7294998 2.5079999 1
14.3675 5.7234998 2.6289999 1
14.3675 5.6485 2.642 1
14.3675 5.6494999 2.6530001 1
14.3655 5.7605 2.5610001 1
14.3645 5.6805 2.5669999 1
14.3665 5.6805 2.6170001 1
14.3665 5.7785001 2.5869999 1
14.3685 5.8035002 2.661 1
14.3695 5.5844998 2.6989999 1
14.3675 5.7205 2.6489999 1
14.3675 5.6405001 2.638 1
14.3655 5.7934999 2.5739999 1
14.3685 5.8414998 2.6530001 1
14.3645 5.7115002 2.5350001 1
14.3675 5.7154999 2.6470001 1
14.3685 5.7575002 2.654 1
14.3695 5.8134999 2.6930001 1
14.3695 5.8235002 2.681 1
14.3655 5.7344999 2.563 1
14.3695 5.8065 2.678 1
14.3695 5.6034999 2.701 1
14.3685 5.6824999 2.677 1
14.3705 5.8474998 2.6989999 1
14.3675 5.6434999 2.6559999 1
14.3645 5.7705002 2.5439999 1
14.3665 5.7424998 2.6059999 1
14.3685 5.6255002 2.6900001 1
14.3685 5.8455 2.648 1
14.3695 5.7305002 2.7019999 1
14.3685 5.7445002 2.674 1
14.3665 5.7354999 2.6129999 1
14.3695 5.8635001 2.6700001 1
14.3675 5.7005 2.6470001 1
14.3675 5.6925001 2.6459999 1
14.3685 5.8185 2.645 1
14.3705 5.9145002 2.6930001 1
14.3685 5.7245002 2.6570001 1
14.3695 5.8664999 2.6689999 1
14.3675 5.7735 2.6400001 1
14.3695 5.7744999 2.7049999 1
14.3655 5.7055001 2.5869999 1
14.3705 5.9254999 2.694 1
14.3665 5.7725 2.609 1
14.3695 5.8014998 2.7030001 1
14.3695 5.8515 2.6860001 1
14.3685 5.8695002 2.655 1
14.3695 5.7094998 2.6919999 1
14.3685 5.8655 2.655 1
14.3685 5.7034998 2.6730001 1
14.3705 5.8474998 2.7030001 1
14.3675 5.7335 2.6259999 1
14.3695 5.7505002 2.6960001 1
14.3685 5.8185 2.655 1
14.3675 5.6684999 2.6289999 1
14.3695 5.6314998 2.7049999 1
14.3695 5.8425002 2.6860001 1
14.3675 5.7564998 2.6389999 1
14.3675 5.8105001 2.6170001 1
14.3645 5.7414999 2.543 1
14.3695 5.8315001 2.697 1
14.3685 5.7735 2.651 1
14.3685 5.7865 2.661 1
14.3685 5.8674998 2.6459999 1
14.3665 5.7375002 2.596 1
14.3705 5.9085002 2.697 1
14.3675 5.7614999 2.6340001 1
14.3675 5.6094999 2.6600001 1
14.3685 5.7364998 2.674 1
14.3655 5.7435002 2.5880001 1
14.3655 5.7884998 2.572 1
14.3685 5.8225002 2.6600001 1
14.3665 5.6884999 2.596 1
14.3695 5.7045002 2.6930001 1
14.3705 5.8985 2.6960001 1
14.3695 5.6954999 2.7019999 1
14.3695 5.8695002 2.6919999 1
14.3675 5.6945 2.632 1
14.3635 5.7175002 2.5209999 1
14.3695 5.7775002 2.6949999 1
14.3675 5.8225002 2.625 1
