# .PCD v0.7 - Point Cloud Data file format
VERSION 0.7
FIELDS x y z label
SIZE 4 4 4 4
TYPE F F F U
COUNT 1 1 1 1
WIDTH 1661
HEIGHT 1
VIEWPOINT 0 0 0 1 0 0 0
POINTS 1661
DATA ascii
19.6085 2.4384999 2.1900001 1
19.6105 2.2925 2.1229999 1
19.6085 2.4105 2.178 1
19.6075 2.4914999 2.197 1
19.6075 2.5225 2.204 1
19.6085 2.3894999 2.263 1
19.6075 2.4115 2.2709999 1
19.6075 2.5014999 2.1440001 1
19.6085 2.3935001 2.1919999 1
19.6075 2.4944999 2.221 1
19.6085 2.3975 2.2090001 1
19.6075 2.4205 2.2449999 1
19.606501 2.4595001 2.365 1
19.6075 2.5244999 2.187 1
19.609501 2.3815 2.1429999 1
19.6075 2.4345 2.263 1
19.606501 2.4714999 2.293 1
19.6085 2.3905001 2.1600001 1
19.6075 2.5604999 2.1300001 1
19.606501 2.4844999 2.289 1
19.6085 2.3635001 2.2179999 1
19.606501 2.5065 2.2379999 1
19.606501 2.5285001 2.2060001 1
19.6075 2.5355 2.1500001 1
19.6085 2.4275 2.1589999 1
19.6075 2.4625001 2.2609999 1
19.6075 2.4875 2.2490001 1
19.6085 2.3664999 2.2130001 1
19.6075 2.4995 2.2320001 1
19.606501 2.4514999 2.3239999 1
19.6075 2.4535 2.2149999 1
19.606501 2.4744999 2.352 1
19.6075 2.4395001 2.2290001 1
19.609501 2.3534999 2.187 1
19.6075 2.5155001 2.168 1
19.6085 2.4085 2.2030001 1
19.6075 2.4795001 2.2420001 1
19.6105 2.2945001 2.1240001 1
19.6105 2.2865 2.1240001 1
19.6075 2.4365001 2.323 1
19.6085 2.4315 2.1400001 1
19.609501 2.3494999 2.1589999 1
19.6085 2.3494999 2.2249999 1
19.6085 2.4525001 2.108 1
19.6105 2.3074999 2.1429999 1
19.6085 2.3835001 2.247 1
19.6075 2.5244999 2.1170001 1
19.6085 2.3605001 2.214 1
19.6085 2.4575 2.125 1
19.6075 2.5215001 2.1340001 1
19.6075 2.5074999 2.1270001 1
19.606501 2.5385001 2.2 1
19.606501 2.4614999 2.3640001 1
19.609501 2.3295 2.1949999 1
19.6075 2.5025001 2.2360001 1
19.606501 2.4725001 2.3540001 1
19.606501 2.4825001 2.3329999 1
19.6085 2.4675 2.1259999 1
19.6075 2.4245 2.2720001 1
19.6085 2.4985001 2.1129999 1
19.6085 2.4054999 2.2019999 1
19.6075 2.5374999 2.158 1
19.6075 2.4565001 2.2820001 1
19.6075 2.5204999 2.171 1
19.6075 2.4855001 2.1559999 1
19.6075 2.4545 2.247 1
19.609501 2.3405001 2.2149999 1
19.6085 2.3935001 2.1789999 1
19.6085 2.3724999 2.2520001 1
19.6085 2.4765 2.142 1
19.606501 2.4995 2.279 1
19.606501 2.4744999 2.3310001 1
19.6105 2.3155 2.125 1
19.609501 2.3585 2.1210001 1
19.606501 2.4614999 2.349 1
19.6005 2.4995 0.46399999 1
19.599501 2.4925001 0.44299999 1
19.602501 2.3845 0.45500001 1
19.602501 2.3945 0.46799999 1
19.599501 2.4684999 0.42899999 1
19.6015 2.4505 0.477 1
19.602501 2.4805 0.49900001 1
19.599501 2.3594999 0.38800001 1
19.599501 2.4525001 0.42699999 1
19.6015 2.4035001 0.454 1
19.6015 2.3494999 0.42699999 1
19.6005 2.4605 0.44499999 1
19.599501 2.4365001 0.41999999 1
19.6015 2.3775001 0.447 1
19.6005 2.3534999 0.38999999 1
19.6005 2.4814999 0.46000001 1
19.602501 2.4835 0.50099999 1
19.598499 2.4914999 0.42199999 1
19.6005 2.5005 0.463 1
19.602501 2.4135001 0.48899999 1
19.6005 2.3855 0.42500001 1
19.6005 2.3924999 0.41499999 1
19.599501 2.4465001 0.426 1
19.602501 2.3724999 0.45300001 1
19.6035 2.4165001 0.51800001 1
19.6005 2.5385001 0.47799999 1
19.602501 2.4295001 0.49000001 1
19.6005 2.4875 0.46399999 1
19.598499 2.5404999 0.43799999 1
19.6005 2.4955001 0.465 1
19.6015 2.4265001 0.46000001 1
19.599501 2.4425001 0.417 1
19.598499 2.5385001 0.43799999 1
19.599501 2.5244999 0.44400001 1
19.602501 2.4254999 0.49599999 1
19.6015 2.4324999 0.47099999 1
19.602501 2.4835 0.50300002 1
19.599501 2.4775 0.43599999 1
19.6015 2.4345 0.45300001 1
19.599501 2.4085 0.403 1
19.599501 2.5044999 0.43900001 1
19.6005 2.3204999 0.38299999 1
19.6005 2.3545001 0.398 1
19.6005 2.4405 0.43399999 1
19.6035 2.3855 0.491 1
19.6035 2.4135001 0.51300001 1
19.6005 2.3585 0.41499999 1
19.6005 2.5385001 0.477 1
19.6005 2.3585 0.40900001 1
19.6035 2.3885 0.48500001 1
19.6005 2.5174999 0.479 1
19.6015 2.4324999 0.45100001 1
19.6035 2.4625001 0.528 1
19.599501 2.4755001 0.43099999 1
19.6015 2.3885 0.43000001 1
19.6005 2.4645 0.447 1
19.598499 2.5425 0.43200001 1
19.6005 2.3735001 0.39899999 1
19.6005 2.5035 0.47 1
19.6005 2.4625001 0.46000001 1
19.599501 2.5144999 0.45899999 1
19.599501 2.4995 0.43200001 1
19.602501 2.4825001 0.50700003 1
19.6015 2.3715 0.426 1
19.6035 2.4195001 0.49700001 1
19.6015 2.5055001 0.48800001 1
19.6045 2.4425001 0.53200001 1
19.6005 2.4855001 0.46399999 1
19.599501 2.4215 0.40900001 1
19.6005 2.3545001 0.39500001 1
19.6015 2.4995 0.48300001 1
19.602501 2.4665 0.51300001 1
19.602501 2.3605001 0.449 1
19.6015 2.4335001 0.472 1
19.6015 2.4545 0.472 1
19.602501 2.3985 0.465 1
19.602501 2.3485 0.43900001 1
19.6035 2.4124999 0.49399999 1
19.6005 2.5315001 0.479 1
19.6015 2.3525 0.421 1
19.6045 2.4425001 0.53399998 1
19.599501 2.4684999 0.42899999 1
19.599501 2.4765 0.42899999 1
19.6005 2.5144999 0.479 1
19.6005 2.3364999 0.38600001 1
19.6035 2.4405 0.52399999 1
19.6005 2.4814999 0.465 1
19.599501 2.5325 0.45699999 1
19.599501 2.5295 0.463 1
19.6035 2.4284999 0.50800002 1
19.6005 2.3204999 0.382 1
19.6015 2.5055001 0.49200001 1
19.6035 2.4395001 0.51499999 1
19.6005 2.3545001 0.39700001 1
19.6015 2.3585 0.428 1
19.6005 2.4475 0.44 1
19.6035 2.4245 0.51300001 1
19.6015 2.3594999 0.43700001 1
19.6005 2.4015 0.40900001 1
19.602501 2.4115 0.479 1
19.6005 2.3155 0.38299999 1
19.6005 2.3994999 0.41800001 1
19.6005 2.5074999 0.479 1
19.6015 2.3864999 0.43700001 1
19.602501 2.3694999 0.46799999 1
19.598499 2.5574999 0.43599999 1
19.6005 2.3534999 0.405 1
19.6015 2.3875 0.44499999 1
19.6015 2.4145 0.463 1
19.599501 2.5155001 0.44999999 1
19.6035 2.3755 0.477 1
19.599501 2.4795001 0.421 1
19.6015 2.4245 0.454 1
19.6015 2.3195 0.40099999 1
19.599501 2.5215001 0.45100001 1
19.6005 2.3645 0.396 1
19.598499 2.5025001 0.428 1
19.599501 2.5355 0.46799999 1
19.6015 2.4205 0.463 1
19.599501 2.5434999 0.449 1
19.6015 2.4035001 0.43599999 1
19.6005 2.3905001 0.41999999 1
19.602501 2.4154999 0.48500001 1
19.6035 2.4665 0.52499998 1
19.602501 2.4805 0.498 1
19.598499 2.5755 0.44100001 1
19.602501 2.3835001 0.46799999 1
19.599501 2.5485001 0.46799999 1
19.6015 2.3915 0.44299999 1
19.6015 2.3594999 0.42500001 1
19.599501 2.3905001 0.40000001 1
19.602501 2.3655 0.44999999 1
19.602501 2.4495001 0.49200001 1
19.6005 2.5215001 0.48800001 1
19.602501 2.4085 0.47799999 1
19.6015 2.4695001 0.48300001 1
19.6015 2.5005 0.495 1
19.599501 2.4625001 0.43000001 1
19.6015 2.4905 0.48899999 1
19.599501 2.5365 0.44800001 1
19.6005 2.3234999 0.38800001 1
19.6005 2.5225 0.47999999 1
19.6015 2.4795001 0.48699999 1
19.602501 2.4595001 0.50400001 1
19.6035 2.4454999 0.52600002 1
19.598499 2.5685 0.43700001 1
19.602501 2.3875 0.45699999 1
19.6015 2.4335001 0.45100001 1
19.6035 2.4384999 0.51200002 1
19.6005 2.3095 0.38 1
19.6005 2.3164999 0.37900001 1
19.6005 2.4625001 0.456 1
19.602501 2.4875 0.514 1
19.6005 2.4725001 0.45899999 1
19.6005 2.5025001 0.46399999 1
19.6005 2.5304999 0.47600001 1
19.6015 2.4425001 0.45899999 1
19.602501 2.3664999 0.45100001 1
19.599501 2.4905 0.426 1
19.6045 2.4205 0.52700001 1
19.6005 2.5325 0.47400001 1
19.602501 2.4024999 0.46399999 1
19.6005 2.3564999 0.398 1
19.6035 2.3924999 0.49700001 1
19.599501 2.4575 0.43200001 1
19.6015 2.4895 0.49399999 1
19.599501 2.5105 0.45699999 1
19.6015 2.4605 0.46700001 1
19.6005 2.3864999 0.40900001 1
19.598499 2.5185001 0.42699999 1
19.6015 2.4075 0.45899999 1
19.6005 2.4725001 0.45899999 1
19.602501 2.3785 0.47600001 1
19.6045 2.4475 0.537 1
19.6005 2.4595001 0.43700001 1
19.6045 2.4335001 0.54900002 1
19.6005 2.4005001 0.41499999 1
19.6035 2.4495001 0.51099998 1
19.6005 2.3945 0.414 1
19.6005 2.5005 0.47099999 1
19.6015 2.4254999 0.458 1
19.599501 2.4295001 0.414 1
19.599501 2.4805 0.42500001 1
19.602501 2.3575001 0.442 1
19.6005 2.4985001 0.463 1
19.6035 2.4565001 0.53200001 1
19.602501 2.4825001 0.49900001 1
19.6015 2.3304999 0.40599999 1
19.6005 2.5125 0.46399999 1
19.6035 2.4514999 0.52200001 1
19.6005 2.4445 0.44999999 1
19.6015 2.4085 0.44400001 1
19.599501 2.4914999 0.43399999 1
19.598499 2.5804999 0.43900001 1
19.6005 2.4135001 0.43599999 1
19.602501 2.4875 0.50099999 1
19.6005 2.4384999 0.43099999 1
19.6005 2.3935001 0.42500001 1
19.599501 2.5474999 0.46700001 1
19.6035 2.4514999 0.50999999 1
19.6015 2.4045 0.43700001 1
19.6005 2.4075 0.42699999 1
19.6015 2.3185 0.39700001 1
19.6005 2.4584999 0.44499999 1
19.599501 2.5455 0.46000001 1
19.602501 2.4645 0.50300002 1
19.6005 2.4425001 0.44999999 1
19.6035 2.4425001 0.523 1
19.6005 2.4844999 0.456 1
19.6005 2.5244999 0.46900001 1
19.598499 2.5675001 0.447 1
19.598499 2.5255001 0.428 1
19.602501 2.4354999 0.48800001 1
19.599501 2.4475 0.42300001 1
19.599501 2.5065 0.44499999 1
19.602501 2.3885 0.45699999 1
19.602501 2.3594999 0.44800001 1
19.6005 2.4974999 0.46900001 1
19.6035 2.3894999 0.491 1
19.6005 2.5195 0.486 1
19.598499 2.5295 0.42899999 1
19.6035 2.4675 0.52399999 1
19.602501 2.4115 0.69499999 1
19.6045 2.4505 0.65200001 1
19.6035 2.4575 0.76700002 1
19.6045 2.4284999 0.60600001 1
19.602501 2.4094999 0.759 1
19.6045 2.4245 0.60500002 1
19.6045 2.4384999 0.60299999 1
19.6035 2.4614999 0.71700001 1
19.6045 2.4445 0.653 1
19.6035 2.4465001 0.76599997 1
19.6035 2.4235001 0.68199998 1
19.6045 2.5185001 0.78100002 1
19.6035 2.4514999 0.76599997 1
19.6045 2.4365001 0.60100001 1
19.602501 2.4024999 0.73900002 1
19.6035 2.4384999 0.745 1
19.6045 2.4554999 0.63499999 1
19.6045 2.4675 0.66399997 1
19.6045 2.4795001 0.68099999 1
19.6045 2.4714999 0.66399997 1
19.6045 2.4635 0.667 1
19.6045 2.4545 0.63800001 1
19.6035 2.4625001 0.76899999 1
19.6035 2.4714999 0.77499998 1
19.6035 2.4215 0.62599999 1
19.6045 2.4614999 0.699 1
19.6035 2.4335001 0.73699999 1
19.6045 2.5185001 0.76700002 1
19.6035 2.4365001 0.736 1
19.6045 2.4484999 0.61900002 1
19.6035 2.4335001 0.69400001 1
19.6035 2.4345 0.708 1
19.602501 2.4135001 0.75 1
19.6035 2.4215 0.65100002 1
19.6035 2.4655001 0.727 1
19.6045 2.5025001 0.78200001 1
19.6035 2.4465001 0.73699999 1
19.602501 2.4145 0.71100003 1
19.605499 2.4395001 0.57200003 1
19.6045 2.4755001 0.68300003 1
19.6035 2.4625001 0.75 1
19.6035 2.4215 0.667 1
19.602501 2.4075 0.69199997 1
19.6045 2.4245 0.60900003 1
19.6045 2.4305 0.60299999 1
19.6035 2.4405 0.704 1
19.6035 2.4235001 0.67199999 1
19.602501 2.4105 0.76599997 1
19.6035 2.4435 0.68300003 1
19.6045 2.4505 0.60100001 1
19.6045 2.5174999 0.75999999 1
19.602501 2.4175 0.77700001 1
19.6035 2.4554999 0.773 1
19.6035 2.4695001 0.73699999 1
19.6035 2.4684999 0.76300001 1
19.602501 2.4205 0.75199997 1
19.6045 2.5035 0.741 1
19.6035 2.4914999 0.77999997 1
19.6045 2.4414999 0.65600002 1
19.6035 2.4395001 0.68199998 1
19.6035 2.4265001 0.71200001 1
19.6045 2.4885001 0.70200002 1
19.6045 2.4895 0.76499999 1
19.6045 2.4625001 0.66900003 1
19.6045 2.4795001 0.708 1
19.602501 2.4435 0.76800001 1
19.6045 2.4995 0.71399999 1
19.6045 2.4414999 0.64399999 1
19.6035 2.4124999 0.65100002 1
19.6035 2.4545 0.72000003 1
19.6045 2.4784999 0.67900002 1
19.6045 2.4684999 0.70700002 1
19.6045 2.5065 0.73400003 1
19.6045 2.4614999 0.63300002 1
19.6045 2.4885001 0.73299998 1
19.6045 2.4965 0.73199999 1
19.6045 2.4735 0.65700001 1
19.602501 2.4105 0.73400003 1
19.6035 2.4744999 0.77600002 1
19.6045 2.4705 0.70499998 1
19.602501 2.4015 0.727 1
19.6045 2.4955001 0.708 1
19.6045 2.4835 0.74199998 1
19.6035 2.4695001 0.73299998 1
19.6035 2.4445 0.69599998 1
19.6035 2.4554999 0.73699999 1
19.6035 2.4124999 0.68699998 1
19.602501 2.3985 0.75 1
19.6045 2.4614999 0.67199999 1
19.6045 2.5274999 0.78399998 1
19.6045 2.5144999 0.77899998 1
19.602501 2.4435 0.76499999 1
19.6035 2.4505 0.72399998 1
19.6035 2.4885001 0.78600001 1
19.6035 2.4725001 0.76499999 1
19.6045 2.4944999 0.74299997 1
19.6035 2.4625001 0.73699999 1
19.6035 2.4335001 0.70899999 1
19.6035 2.4484999 0.76499999 1
19.6035 2.4705 0.72600001 1
19.6045 2.4665 0.64700001 1
19.602501 2.4115 0.75800002 1
19.6035 2.4914999 0.78200001 1
19.6045 2.5174999 0.792 1
19.6035 2.4335001 0.69300002 1
19.6035 2.4535 0.76999998 1
19.6015 2.3945 0.77100003 1
19.6045 2.4914999 0.71100003 1
19.6035 2.4825001 0.75300002 1
19.6045 2.4645 0.66299999 1
19.602501 2.4115 0.75099999 1
19.6035 2.4445 0.72799999 1
19.6035 2.4335001 0.68699998 1
19.602501 2.4475 0.77499998 1
19.6045 2.5085001 0.77600002 1
19.6035 2.4154999 0.63 1
19.6015 2.4005001 0.77399999 1
19.6045 2.5185001 0.79000002 1
19.6035 2.4345 0.66900003 1
19.6045 2.5174999 0.78799999 1
19.602501 2.4345 0.76099998 1
19.6035 2.4085 0.67400002 1
19.6045 2.4215 0.616 1
19.6035 2.4955001 0.78200001 1
19.602501 2.4175 0.76099998 1
19.6035 2.4505 0.75700003 1
19.6045 2.5155001 0.78200001 1
19.6035 2.4895 0.77700001 1
19.602501 2.4165001 0.75300002 1
19.6035 2.4744999 0.778 1
19.6045 2.4554999 0.69599998 1
19.6035 2.4755001 0.74699998 1
19.6045 2.4885001 0.71200001 1
19.6045 2.4895 0.71600002 1
19.6045 2.4254999 0.59600002 1
19.602501 2.4445 0.77600002 1
19.6035 2.4865 0.77600002 1
19.6045 2.4465001 0.64899999 1
19.6045 2.4614999 0.66000003 1
19.6045 2.5095 0.736 1
19.6035 2.4605 0.76700002 1
19.6045 2.4405 0.653 1
19.6045 2.4284999 0.57599998 1
19.6035 2.4354999 0.72000003 1
19.6035 2.4445 0.75 1
19.602501 2.4094999 0.70899999 1
19.602501 2.4045 0.713 1
19.6035 2.4435 0.71700001 1
19.6045 2.5105 0.755 1
19.6035 2.4465001 0.727 1
19.6015 2.3915 0.764 1
19.6015 2.3965001 0.77399999 1
19.6035 2.4925001 0.78899997 1
19.6045 2.5085001 0.745 1
19.6035 2.4235001 0.69999999 1
19.6035 2.4165001 0.68000001 1
19.602501 2.4154999 0.71600002 1
19.6045 2.4565001 0.63999999 1
19.602501 2.4045 0.708 1
19.6045 2.4814999 0.72100002 1
19.6045 2.5105 0.76700002 1
19.6035 2.4135001 0.65799999 1
19.6045 2.4725001 0.69499999 1
19.6045 2.4525001 0.64499998 1
19.602501 2.4045 0.74400002 1
19.6035 2.4324999 0.68300003 1
19.6045 2.4855001 0.74900001 1
19.6035 2.4714999 0.76599997 1
19.6045 2.5044999 0.75099999 1
19.6035 2.4925001 0.78899997 1
19.6035 2.4165001 0.68900001 1
19.6035 2.4744999 0.74699998 1
19.6045 2.5044999 0.75800002 1
19.6045 2.4575 0.67299998 1
19.6035 2.4245 0.68099999 1
19.6035 2.4605 0.76999998 1
19.6045 2.4565001 0.61699998 1
19.602501 2.3965001 0.72600001 1
19.599501 2.5074999 0.32600001 1
19.598499 2.5875001 0.40799999 1
19.598499 2.4925001 0.412 1
19.599501 2.3965001 0.38100001 1
19.599501 2.4245 0.32600001 1
19.6005 2.3355 0.36300001 1
19.599501 2.4735 0.34999999 1
19.6005 2.3234999 0.354 1
19.599501 2.4925001 0.34599999 1
19.599501 2.5655 0.197 1
19.599501 2.4205 0.40000001 1
19.6005 2.3494999 0.38100001 1
19.599501 2.4245 0.31900001 1
19.599501 2.5005 0.35100001 1
19.599501 2.5244999 0.28400001 1
19.599501 2.4905 0.36300001 1
19.599501 2.4665 0.40200001 1
19.599501 2.4295001 0.389 1
19.599501 2.5095 0.264 1
19.598499 2.5445001 0.34099999 1
19.599501 2.4015 0.366 1
19.599501 2.5325 0.26499999 1
19.598499 2.5704999 0.39500001 1
19.599501 2.5005 0.29899999 1
19.599501 2.4784999 0.317 1
19.599501 2.5105 0.25999999 1
19.599501 2.4625001 0.39199999 1
19.6005 2.4454999 0.27000001 1
19.599501 2.5055001 0.23899999 1
19.6005 2.3175001 0.37400001 1
19.598499 2.5404999 0.41299999 1
19.599501 2.5685 0.19599999 1
19.599501 2.5065 0.243 1
19.599501 2.4405 0.35100001 1
19.6005 2.3994999 0.308 1
19.599501 2.4725001 0.36899999 1
19.598499 2.5035 0.40799999 1
19.599501 2.5634999 0.27200001 1
19.598499 2.5615001 0.35600001 1
19.6005 2.4535 0.257 1
19.598499 2.5785 0.39399999 1
19.599501 2.5274999 0.206 1
19.599501 2.5074999 0.255 1
19.599501 2.5495 0.23800001 1
19.6005 2.3694999 0.333 1
19.6005 2.3364999 0.345 1
19.6005 2.3315001 0.37599999 1
19.599501 2.4955001 0.28999999 1
19.599501 2.4354999 0.37400001 1
19.598499 2.5325 0.42199999 1
19.599501 2.4885001 0.26199999 1
19.599501 2.5074999 0.28400001 1
19.599501 2.5125 0.34900001 1
19.6005 2.3464999 0.352 1
19.598499 2.5834999 0.324 1
19.599501 2.4315 0.33000001 1
19.6005 2.4195001 0.29699999 1
19.6005 2.5244999 0.19499999 1
19.599501 2.4684999 0.29899999 1
19.599501 2.4175 0.345 1
19.599501 2.5114999 0.26499999 1
19.598499 2.5515001 0.41499999 1
19.599501 2.4925001 0.26800001 1
19.599501 2.5495 0.245 1
19.598499 2.5585001 0.35299999 1
19.599501 2.4795001 0.31099999 1
19.599501 2.4705 0.384 1
19.598499 2.4805 0.398 1
19.599501 2.5315001 0.211 1
19.599501 2.4705 0.377 1
19.599501 2.4805 0.28600001 1
19.598499 2.5504999 0.336 1
19.599501 2.5485001 0.287 1
19.599501 2.4775 0.359 1
19.599501 2.4914999 0.308 1
19.599501 2.4985001 0.25600001 1
19.599501 2.5385001 0.241 1
19.598499 2.5845001 0.34799999 1
19.6005 2.4284999 0.30199999 1
19.599501 2.5675001 0.223 1
19.598499 2.5155001 0.41800001 1
19.599501 2.4684999 0.38499999 1
19.6005 2.3175001 0.36500001 1
19.599501 2.5114999 0.245 1
19.599501 2.4775 0.34 1
19.598499 2.5555 0.32800001 1
19.599501 2.4254999 0.30599999 1
19.599501 2.4765 0.36000001 1
19.599501 2.5225 0.33700001 1
19.599501 2.4844999 0.368 1
19.6005 2.4525001 0.27599999 1
19.6005 2.4554999 0.249 1
19.598499 2.5335 0.414 1
19.599501 2.4855001 0.34400001 1
19.599501 2.4914999 0.33199999 1
19.599501 2.4354999 0.31099999 1
19.6005 2.3475001 0.366 1
19.599501 2.4705 0.37 1
19.599501 2.5604999 0.21600001 1
19.599501 2.4265001 0.31 1
19.598499 2.4974999 0.40599999 1
19.599501 2.5165 0.23800001 1
19.599501 2.4805 0.266 1
19.599501 2.5565 0.25400001 1
19.598499 2.5834999 0.361 1
19.599501 2.4345 0.37900001 1
19.599501 2.4235001 0.338 1
19.599501 2.5434999 0.204 1
19.6005 2.3245001 0.359 1
19.599501 2.4605 0.35800001 1
19.599501 2.5704999 0.242 1
19.599501 2.5035 0.292 1
19.599501 2.5315001 0.20200001 1
19.598499 2.5335 0.34799999 1
19.598499 2.5174999 0.42300001 1
19.599501 2.5255001 0.236 1
19.598499 2.4995 0.38 1
19.599501 2.5455 0.30399999 1
19.598499 2.5095 0.38299999 1
19.599501 2.5185001 0.322 1
19.6005 2.3994999 0.29499999 1
19.6005 2.3855 0.34200001 1
19.598499 2.5074999 0.41299999 1
19.599501 2.4085 0.384 1
19.599501 2.5374999 0.32100001 1
19.599501 2.5114999 0.35100001 1
19.598499 2.5105 0.419 1
19.599501 2.3864999 0.37799999 1
19.599501 2.4974999 0.34900001 1
19.6005 2.3735001 0.32800001 1
19.599501 2.4965 0.292 1
19.599501 2.5365 0.315 1
19.6005 2.4684999 0.23899999 1
19.598499 2.5374999 0.39399999 1
19.6005 2.4015 0.30500001 1
19.598499 2.5455 0.33000001 1
19.6005 2.3805001 0.35100001 1
19.599501 2.5725 0.228 1
19.599501 2.4154999 0.38999999 1
19.599501 2.5645001 0.257 1
19.598499 2.5685 0.345 1
19.598499 2.4974999 0.396 1
19.599501 2.4705 0.28400001 1
19.598499 2.5474999 0.38 1
19.6005 2.3885 0.336 1
19.6005 2.4805 0.23999999 1
19.599501 2.4235001 0.37599999 1
19.598499 2.4885001 0.40400001 1
19.598499 2.5025001 0.41600001 1
19.599501 2.5655 0.29899999 1
19.599501 2.4514999 0.336 1
19.599501 2.4375 0.32699999 1
19.599501 2.5374999 0.23899999 1
19.598499 2.5055001 0.40200001 1
19.6005 2.4625001 0.248 1
19.6005 2.4725001 0.25 1
19.599501 2.5035 0.236 1
19.598499 2.5565 0.331 1
19.598499 2.5625 0.322 1
19.599501 2.4765 0.34299999 1
19.598499 2.5395 0.405 1
19.599501 2.5065 0.292 1
19.598499 2.4825001 0.412 1
19.598499 2.5825 0.38299999 1
19.599501 2.4885001 0.33500001 1
19.599501 2.5445001 0.25600001 1
19.599501 2.4535 0.38800001 1
19.6005 2.4614999 0.26899999 1
19.599501 2.5144999 0.33000001 1
19.6005 2.4755001 0.25099999 1
19.599501 2.5125 0.27000001 1
19.598499 2.5585001 0.317 1
19.598499 2.5604999 0.38100001 1
19.599501 2.4825001 0.31299999 1
19.6005 2.3845 0.33899999 1
19.599501 2.4535 0.37 1
19.598499 2.4814999 0.398 1
19.599501 2.5055001 0.30199999 1
19.599501 2.5195 0.25299999 1
19.6005 2.4145 0.289 1
19.6005 2.4735 0.245 1
19.598499 2.5195 0.40000001 1
19.6005 2.5215001 0.204 1
19.6005 2.5365 0.18700001 1
19.6005 2.3824999 0.33899999 1
19.6005 2.3594999 0.34299999 1
19.6005 2.3494999 0.34299999 1
19.599501 2.4645 0.36899999 1
19.599501 2.4254999 0.37599999 1
19.6005 2.3255 0.359 1
19.598499 2.5664999 0.359 1
19.599501 2.5055001 0.236 1
19.599501 2.4505 0.29499999 1
19.599501 2.5244999 0.215 1
19.599501 2.5415001 0.30500001 1
19.599501 2.5274999 0.21699999 1
19.599501 2.5274999 0.32300001 1
19.598499 2.4885001 0.40599999 1
19.6005 2.4145 0.30700001 1
19.599501 2.5335 0.25400001 1
19.599501 2.4475 0.29499999 1
19.599501 2.5425 0.252 1
19.599501 2.5504999 0.28400001 1
19.6005 2.4195001 0.31099999 1
19.6005 2.4955001 0.233 1
19.599501 2.4865 0.25600001 1
19.599501 2.4145 0.35800001 1
19.599501 2.4124999 0.35299999 1
19.598499 2.5534999 0.37599999 1
19.6005 2.3735001 0.345 1
19.598499 2.5474999 0.42699999 1
19.598499 2.5185001 0.405 1
19.599501 2.5315001 0.235 1
19.598499 2.5215001 0.405 1
19.6005 2.4665 0.255 1
19.599501 2.5155001 0.29300001 1
19.598499 2.5244999 0.37099999 1
19.599501 2.5174999 0.31400001 1
19.6005 2.4335001 0.28099999 1
19.599501 2.5725 0.27900001 1
19.598499 2.5074999 0.38600001 1
19.599501 2.5025001 0.36500001 1
19.599501 2.5365 0.32100001 1
19.599501 2.5574999 0.23 1
19.598499 2.5465 0.41299999 1
19.5975 2.5925 0.42399999 1
19.6005 2.3545001 0.33700001 1
19.598499 2.5685 0.39500001 1
19.599501 2.4454999 0.368 1
19.599501 2.4885001 0.354 1
19.599501 2.5125 0.31 1
19.599501 2.4955001 0.271 1
19.598499 2.4755001 0.403 1
19.599501 2.4614999 0.36700001 1
19.598499 2.4985001 0.39399999 1
19.599501 2.4805 0.25600001 1
19.599501 2.4944999 0.361 1
19.599501 2.5685 0.27399999 1
19.599501 2.5135 0.255 1
19.599501 2.5235 0.236 1
19.599501 2.5465 0.204 1
19.599501 2.5704999 0.249 1
19.599501 2.4925001 0.30399999 1
19.599501 2.3915 0.34299999 1
19.598499 2.5715001 0.382 1
19.6005 2.4065001 0.301 1
19.6005 2.4545 0.255 1
19.599501 2.4375 0.29699999 1
19.599501 2.4825001 0.29499999 1
19.6005 2.3164999 0.37599999 1
19.599501 2.3994999 0.38800001 1
19.599501 2.5495 0.21699999 1
19.6005 2.5165 0.205 1
19.598499 2.5445001 0.389 1
19.599501 2.5014999 0.28400001 1
19.598499 2.5885 0.41100001 1
19.599501 2.4414999 0.30500001 1
19.599501 2.3735001 0.36899999 1
19.599501 2.3794999 0.389 1
19.599501 2.5235 0.26100001 1
19.599501 2.5695 0.2 1
19.599501 2.5074999 0.271 1
19.599501 2.4675 0.33000001 1
19.598499 2.5265 0.41100001 1
19.599501 2.4365001 0.38100001 1
19.599501 2.5525 0.25799999 1
19.598499 2.5465 0.41800001 1
19.598499 2.5704999 0.42399999 1
19.599501 2.4935 0.336 1
19.599501 2.4195001 0.33500001 1
19.6005 2.3525 0.34 1
19.599501 2.4425001 0.37 1
19.598499 2.5664999 0.336 1
19.599501 2.5035 0.25299999 1
19.599501 2.4284999 0.34999999 1
19.599501 2.4684999 0.333 1
19.599501 2.4235001 0.38499999 1
19.599501 2.4324999 0.361 1
19.598499 2.5704999 0.354 1
19.6005 2.3215001 0.368 1
19.6005 2.3464999 0.38100001 1
19.599501 2.4395001 0.382 1
19.599501 2.4484999 0.34099999 1
19.6005 2.3935001 0.30399999 1
19.599501 2.4545 0.32499999 1
19.598499 2.5755 0.42199999 1
19.6005 2.4775 0.252 1
19.599501 2.4414999 0.33199999 1
19.599501 2.5515001 0.25099999 1
19.599501 2.4735 0.36300001 1
19.6005 2.3794999 0.35299999 1
19.599501 2.5515001 0.317 1
19.598499 2.5864999 0.417 1
19.6005 2.3185 0.37 1
19.599501 2.5474999 0.23999999 1
19.6005 2.3325 0.37900001 1
19.598499 2.5534999 0.38699999 1
19.599501 2.4865 0.28299999 1
19.599501 2.4154999 0.39899999 1
19.599501 2.5385001 0.31600001 1
19.6005 2.4265001 0.27700001 1
19.598499 2.5775001 0.36500001 1
19.599501 2.3915 0.366 1
19.599501 2.4595001 0.29699999 1
19.6005 2.4575 0.26899999 1
19.599501 2.3794999 0.354 1
19.598499 2.4955001 0.405 1
19.598499 2.4965 0.40099999 1
19.6005 2.3935001 0.32600001 1
19.6005 2.3605001 0.34900001 1
19.599501 2.4245 0.32100001 1
19.599501 2.4795001 0.27900001 1
19.599501 2.5165 0.30199999 1
19.6005 2.4345 0.294 1
19.6005 2.4944999 0.21799999 1
19.599501 2.5615001 0.28 1
19.599501 2.4965 0.24699999 1
19.598499 2.5725 0.421 1
19.599501 2.3945 0.35600001 1
19.598499 2.5664999 0.389 1
19.598499 2.5485001 0.35699999 1
19.599501 2.4465001 0.33500001 1
19.6005 2.4844999 0.229 1
19.6005 2.3894999 0.32300001 1
19.598499 2.5325 0.421 1
19.599501 2.4224999 0.34299999 1
19.599501 2.5144999 0.30700001 1
19.6005 2.3924999 0.33399999 1
19.598499 2.5615001 0.345 1
19.599501 2.3965001 0.34999999 1
19.598499 2.5834999 0.417 1
19.599501 2.4665 0.30599999 1
19.599501 2.4315 0.33700001 1
19.599501 2.4614999 0.28600001 1
19.6005 2.4944999 0.23199999 1
19.599501 2.5404999 0.29499999 1
19.599501 2.4565001 0.35699999 1
19.599501 2.4885001 0.35499999 1
19.599501 2.5745001 0.244 1
19.599501 2.5385001 0.212 1
19.598499 2.5255001 0.34999999 1
19.599501 2.4035001 0.35800001 1
19.599501 2.3994999 0.375 1
19.599501 2.4744999 0.31799999 1
19.598499 2.5755 0.34 1
19.599501 2.5404999 0.23100001 1
19.6005 2.5355 0.189 1
19.599501 2.4575 0.329 1
19.599501 2.5014999 0.24699999 1
19.6005 2.5025001 0.22400001 1
19.599501 2.4805 0.31299999 1
19.599501 2.3905001 0.359 1
19.599501 2.4944999 0.27399999 1
19.599501 2.5725 0.25299999 1
19.599501 2.4575 0.33700001 1
19.598499 2.4944999 0.39700001 1
19.5975 2.5834999 0.433 1
19.599501 2.3965001 0.37799999 1
19.6005 2.4655001 0.242 1
19.6005 2.4275 0.271 1
19.598499 2.5645001 0.41800001 1
19.599501 2.5685 0.28 1
19.598499 2.5775001 0.426 1
19.599501 2.5265 0.244 1
19.598499 2.4985001 0.39199999 1
19.599501 2.4625001 0.33899999 1
19.6005 2.5304999 0.197 1
19.599501 2.4744999 0.34599999 1
19.6005 2.4175 0.287 1
19.6005 2.3385 0.37200001 1
19.599501 2.3875 0.34999999 1
19.599501 2.5065 0.26699999 1
19.599501 2.5664999 0.28099999 1
19.599501 2.5325 0.28 1
19.599501 2.4035001 0.35299999 1
19.598499 2.5595 0.38100001 1
19.599501 2.5745001 0.285 1
19.599501 2.5604999 0.19400001 1
19.599501 2.4094999 0.37200001 1
19.599501 2.5615001 0.27500001 1
19.598499 2.5465 0.35699999 1
19.6005 2.3485 0.354 1
19.599501 2.5734999 0.29499999 1
19.599501 2.5074999 0.296 1
19.599501 2.5055001 0.35600001 1
19.599501 2.4565001 0.296 1
19.598499 2.5755 0.32300001 1
19.599501 2.5495 0.207 1
19.598499 2.5834999 0.34200001 1
19.599501 2.4885001 0.30399999 1
19.598499 2.5434999 0.39399999 1
19.599501 2.5135 0.34799999 1
19.6005 2.4054999 0.31900001 1
19.599501 2.4065001 0.38299999 1
19.599501 2.5434999 0.228 1
19.599501 2.3885 0.37900001 1
19.6005 2.3505001 0.33399999 1
19.598499 2.4935 0.40799999 1
19.598499 2.5615001 0.38800001 1
19.598499 2.5795 0.35600001 1
19.598499 2.5755 0.301 1
19.6005 2.4184999 0.28200001 1
19.599501 2.5545001 0.206 1
19.6005 2.4365001 0.28600001 1
19.6005 2.3985 0.29800001 1
19.599501 2.4995 0.34299999 1
19.598499 2.5215001 0.40599999 1
19.599501 2.4725001 0.352 1
19.6045 2.5355 0.75099999 1
19.6045 2.5304999 0.74900001 1
19.6015 2.5335 0.579 1
19.598499 2.5864999 0.465 1
19.6015 2.5114999 0.50400001 1
19.598499 2.5895 0.47 1
19.6005 2.5504999 0.53600001 1
19.602501 2.5244999 0.57300001 1
19.6005 2.5365 0.51099998 1
19.602501 2.5025001 0.56300002 1
19.6005 2.5504999 0.54799998 1
19.6035 2.5025001 0.62599999 1
19.602501 2.5185001 0.61400002 1
19.6045 2.4535 0.54500002 1
19.6035 2.5325 0.67199999 1
19.6045 2.5055001 0.69800001 1
19.6045 2.4414999 0.54900002 1
19.602501 2.5325 0.63200003 1
19.598499 2.5845001 0.48100001 1
19.6035 2.5365 0.74299997 1
19.598499 2.5764999 0.461 1
19.6035 2.4944999 0.616 1
19.6005 2.5704999 0.55500001 1
19.6005 2.5685 0.54900002 1
19.599501 2.5585001 0.47099999 1
19.6045 2.4885001 0.67500001 1
19.6005 2.5625 0.56900001 1
19.6045 2.4675 0.57599998 1
19.6035 2.4885001 0.57999998 1
19.6015 2.5055001 0.51300001 1
19.6045 2.4675 0.60799998 1
19.6015 2.5515001 0.625 1
19.6015 2.5534999 0.59600002 1
19.602501 2.5285001 0.60600001 1
19.6015 2.5315001 0.56800002 1
19.6035 2.4775 0.55699998 1
19.602501 2.5105 0.53600001 1
19.6035 2.4705 0.537 1
19.6035 2.5044999 0.59200001 1
19.6045 2.4844999 0.61699998 1
19.6045 2.4925001 0.64399999 1
19.6035 2.5125 0.61000001 1
19.6005 2.5704999 0.55699998 1
19.6045 2.5274999 0.73500001 1
19.6045 2.4835 0.65499997 1
19.602501 2.5385001 0.66500002 1
19.602501 2.5055001 0.54500002 1
19.6045 2.5204999 0.74400002 1
19.6035 2.4965 0.63200003 1
19.6015 2.5285001 0.50599998 1
19.6035 2.5285001 0.653 1
19.6045 2.5065 0.69800001 1
19.6035 2.4755001 0.56999999 1
19.6015 2.5304999 0.55400002 1
19.602501 2.5095 0.54799998 1
19.598499 2.5834999 0.493 1
19.6045 2.4635 0.574 1
19.6005 2.5395 0.48800001 1
19.6015 2.5295 0.54900002 1
19.6015 2.5044999 0.514 1
19.6015 2.5255001 0.514 1
19.602501 2.5055001 0.546 1
19.602501 2.4944999 0.54000002 1
19.602501 2.5404999 0.61699998 1
19.6035 2.4875 0.55900002 1
19.6035 2.5025001 0.60100001 1
19.6035 2.5255001 0.70499998 1
19.6015 2.5135 0.50400001 1
19.6045 2.4914999 0.68800002 1
19.6005 2.5445001 0.50800002 1
19.602501 2.5244999 0.61799997 1
19.599501 2.5555 0.47600001 1
19.6015 2.5374999 0.53100002 1
19.599501 2.5545001 0.49000001 1
19.6045 2.5185001 0.72600001 1
19.598499 2.5795 0.472 1
19.6005 2.5365 0.51899999 1
19.6035 2.5125 0.67799997 1
19.602501 2.5355 0.65399998 1
19.6045 2.5344999 0.76599997 1
19.6045 2.4875 0.68400002 1
19.602501 2.4885001 0.54299998 1
19.6045 2.4505 0.58999997 1
19.599501 2.5645001 0.46900001 1
19.602501 2.5325 0.62 1
19.6005 2.5615001 0.56400001 1
19.6045 2.5005 0.69199997 1
19.6015 2.5044999 0.50999999 1
19.602501 2.5235 0.63599998 1
19.6035 2.5014999 0.59899998 1
19.599501 2.5815001 0.49599999 1
19.6045 2.4684999 0.61699998 1
19.598499 2.5704999 0.461 1
19.6045 2.4605 0.58899999 1
19.598499 2.5795 0.45899999 1
19.6035 2.4814999 0.57800001 1
19.6015 2.5165 0.505 1
19.599501 2.5725 0.528 1
19.6035 2.4974999 0.57300001 1
19.602501 2.5274999 0.62400001 1
19.6005 2.5515001 0.54100001 1
19.6045 2.4675 0.58700001 1
19.6035 2.5255001 0.69499999 1
19.6035 2.5195 0.68300003 1
19.599501 2.5615001 0.47600001 1
19.6035 2.5445001 0.73900002 1
19.6045 2.4925001 0.69300002 1
19.598499 2.5885 0.47999999 1
19.6035 2.4714999 0.542 1
19.602501 2.5074999 0.53600001 1
19.599501 2.5695 0.47600001 1
19.599501 2.5664999 0.48699999 1
19.6035 2.5005 0.588 1
19.599501 2.5534999 0.46900001 1
19.602501 2.5555 0.65100002 1
19.599501 2.5704999 0.493 1
19.602501 2.5035 0.57099998 1
19.6035 2.4974999 0.57999998 1
19.6035 2.4705 0.56099999 1
19.602501 2.5455 0.68300003 1
19.6015 2.5604999 0.60100001 1
19.6015 2.5244999 0.50199997 1
19.602501 2.4944999 0.50999999 1
19.6005 2.5565 0.565 1
19.602501 2.5465 0.62900001 1
19.6035 2.5105 0.62199998 1
19.6045 2.4635 0.62 1
19.6005 2.5534999 0.53200001 1
19.6035 2.5044999 0.65200001 1
19.6015 2.5385001 0.56300002 1
19.6015 2.5545001 0.625 1
19.6005 2.5455 0.51499999 1
19.6045 2.4875 0.66799998 1
19.6045 2.4565001 0.583 1
19.6005 2.5704999 0.56400001 1
19.602501 2.5374999 0.63499999 1
19.6035 2.4755001 0.57200003 1
19.602501 2.5325 0.60600001 1
19.6005 2.5534999 0.50400001 1
19.6035 2.4875 0.56900001 1
19.6045 2.5125 0.69999999 1
19.6005 2.5344999 0.48800001 1
19.602501 2.4944999 0.53899997 1
19.6015 2.5355 0.574 1
19.6045 2.5165 0.74800003 1
19.602501 2.5485001 0.68699998 1
19.6045 2.5135 0.704 1
19.602501 2.5434999 0.67900002 1
19.6015 2.5534999 0.58399999 1
19.6045 2.4465001 0.56999999 1
19.6005 2.5715001 0.57700002 1
19.6045 2.4505 0.597 1
19.6015 2.5574999 0.60799998 1
19.6035 2.5144999 0.65399998 1
19.599501 2.5815001 0.505 1
19.602501 2.5174999 0.602 1
19.6035 2.5105 0.62099999 1
19.6035 2.4944999 0.62099999 1
19.6015 2.5545001 0.59500003 1
19.6045 2.4565001 0.56 1
19.6005 2.5645001 0.58999997 1
19.6005 2.5474999 0.542 1
19.6005 2.5504999 0.53899997 1
19.6045 2.4605 0.59899998 1
19.6015 2.5404999 0.58700001 1
19.6045 2.5304999 0.75 1
19.6015 2.5185001 0.54400003 1
19.6015 2.5195 0.55299997 1
19.6035 2.4995 0.63999999 1
19.602501 2.4955001 0.528 1
19.602501 2.5174999 0.56999999 1
19.6005 2.5574999 0.50400001 1
19.6045 2.4895 0.62800002 1
19.602501 2.5144999 0.56199998 1
19.6035 2.5085001 0.65600002 1
19.6035 2.4655001 0.55500001 1
19.6045 2.4465001 0.54400003 1
19.6035 2.5255001 0.65100002 1
19.6035 2.4814999 0.57800001 1
19.6015 2.5565 0.59799999 1
19.6045 2.5315001 0.73299998 1
19.6035 2.5105 0.64099997 1
19.6005 2.5474999 0.52100003 1
19.6035 2.4925001 0.56999999 1
19.6005 2.5315001 0.48500001 1
19.6035 2.5195 0.67299998 1
19.599501 2.5704999 0.47 1
19.6045 2.4584999 0.56599998 1
19.6035 2.4905 0.56300002 1
19.6035 2.4684999 0.55699998 1
19.6005 2.5585001 0.54100001 1
19.6015 2.5365 0.54699999 1
19.6045 2.4825001 0.61699998 1
19.6045 2.4755001 0.63099998 1
19.6035 2.5225 0.66600001 1
19.6045 2.5344999 0.74900001 1
19.598499 2.5775001 0.47999999 1
19.6005 2.5634999 0.55500001 1
19.602501 2.4914999 0.52999997 1
19.6015 2.5555 0.60000002 1
19.602501 2.5385001 0.66000003 1
19.599501 2.5815001 0.51899999 1
19.6045 2.4705 0.63099998 1
19.6045 2.4995 0.66600001 1
19.6035 2.5395 0.69 1
19.6045 2.5125 0.74000001 1
19.6005 2.5534999 0.51599997 1
19.599501 2.5704999 0.495 1
19.6045 2.4584999 0.574 1
19.6015 2.5515001 0.57599998 1
19.6035 2.4645 0.53200001 1
19.6045 2.4565001 0.579 1
19.6045 2.4855001 0.62900001 1
19.602501 2.4835 0.52100003 1
19.6045 2.5155001 0.70599997 1
19.6035 2.5005 0.63800001 1
19.6015 2.5144999 0.50099999 1
19.598499 2.5785 0.47400001 1
19.6045 2.4645 0.58399999 1
19.599501 2.5704999 0.51700002 1
19.6015 2.5304999 0.551 1
19.6035 2.4675 0.53600001 1
19.598499 2.5804999 0.47799999 1
19.6015 2.5455 0.60000002 1
19.6005 2.5695 0.53399998 1
19.6045 2.5204999 0.72799999 1
19.6035 2.4895 0.56999999 1
19.6035 2.4985001 0.61699998 1
19.6005 2.5585001 0.57800001 1
19.6045 2.5014999 0.67699999 1
19.6035 2.5395 0.67900002 1
19.6005 2.5415001 0.52999997 1
19.6045 2.4435 0.56199998 1
19.6045 2.4875 0.62599999 1
19.6015 2.5455 0.56 1
19.598499 2.5785 0.454 1
19.6015 2.5574999 0.62599999 1
19.602501 2.4995 0.55800003 1
19.602501 2.5385001 0.662 1
19.602501 2.5525 0.66000003 1
19.602501 2.5415001 0.64300001 1
19.6005 2.5685 0.59399998 1
19.6035 2.5114999 0.62 1
19.6035 2.4705 0.57300001 1
19.6015 2.5204999 0.49399999 1
19.6045 2.4465001 0.57599998 1
19.6035 2.5215001 0.667 1
19.6005 2.5455 0.50199997 1
19.6015 2.5155001 0.52499998 1
19.6005 2.5545001 0.51899999 1
19.6005 2.5474999 0.505 1
19.6005 2.5604999 0.53200001 1
19.602501 2.5195 0.56699997 1
19.599501 2.5785 0.5 1
19.6005 2.5485001 0.50999999 1
19.6035 2.4935 0.60799998 1
19.602501 2.5155001 0.58399999 1
19.6035 2.5265 0.66299999 1
19.6035 2.4895 0.60299999 1
19.6045 2.4405 0.56699997 1
19.6045 2.4935 0.64700001 1
19.602501 2.5085001 0.574 1
19.6045 2.5174999 2.628 1
19.6045 2.6535001 2.48 1
19.6045 2.7025001 2.543 1
19.6045 2.6805 2.5829999 1
19.6045 2.5615001 2.622 1
19.6045 2.6905 2.5220001 1
19.6045 2.7565 2.5250001 1
19.6045 2.6105001 2.6029999 1
19.6045 2.6235001 2.5940001 1
19.6045 2.5355 2.6240001 1
19.6045 2.7514999 2.5469999 1
19.6045 2.5565 2.6489999 1
19.6045 2.7585001 2.5350001 1
19.6045 2.5734999 2.6400001 1
19.6045 2.5964999 2.6059999 1
19.6045 2.6605 2.451 1
19.6045 2.5615001 2.628 1
19.6045 2.6355 2.494 1
19.6045 2.7365 2.549 1
19.6045 2.5565 2.5739999 1
19.6045 2.7125001 2.552 1
19.6045 2.7395 2.5039999 1
19.6045 2.7355001 2.5090001 1
19.6045 2.5864999 2.6359999 1
19.6045 2.7075 2.517 1
19.6045 2.6245 2.5190001 1
19.6045 2.6735001 2.579 1
19.6045 2.6515 2.5380001 1
19.605499 2.4195001 2.701 1
19.6045 2.6045001 2.5009999 1
19.6045 2.6105001 2.5 1
19.6045 2.6454999 2.5309999 1
19.6045 2.5895 2.5680001 1
19.6045 2.4765 2.651 1
19.6045 2.7014999 2.5120001 1
19.6045 2.6294999 2.527 1
19.6045 2.6055 2.5109999 1
19.6045 2.7485001 2.5369999 1
19.6045 2.6865001 2.483 1
19.6045 2.5585001 2.5769999 1
19.6045 2.6245 2.513 1
19.6045 2.6635001 2.562 1
19.6045 2.5225 2.6099999 1
19.6045 2.5895 2.598 1
19.6045 2.5775001 2.6359999 1
19.605499 2.4514999 2.661 1
19.6045 2.5465 2.6259999 1
19.6045 2.6385 2.5669999 1
19.6045 2.7225001 2.516 1
19.6045 2.6805 2.4690001 1
19.6045 2.5795 2.5829999 1
19.6045 2.5125 2.5999999 1
19.6045 2.6824999 2.549 1
19.6045 2.5804999 2.5799999 1
19.605499 2.4565001 2.6559999 1
19.6045 2.7054999 2.526 1
19.6045 2.6435001 2.6059999 1
19.6045 2.6835001 2.474 1
19.6045 2.6025 2.6010001 1
19.6045 2.5114999 2.6670001 1
19.6045 2.7125001 2.5569999 1
19.6045 2.6185 2.5739999 1
19.6045 2.6194999 2.5880001 1
19.6045 2.7565 2.556 1
19.6045 2.4944999 2.6289999 1
19.6045 2.5165 2.6619999 1
19.6045 2.6264999 2.517 1
19.6045 2.7465 2.5569999 1
19.6045 2.4565001 2.675 1
19.6045 2.4625001 2.6900001 1
19.6045 2.6624999 2.4820001 1
19.6045 2.6684999 2.507 1
19.6045 2.6945 2.5439999 1
19.6045 2.6094999 2.6059999 1
19.6045 2.5664999 2.618 1
19.6045 2.6914999 2.5840001 1
19.6045 2.7244999 2.573 1
19.6045 2.7405 2.5539999 1
19.6045 2.4974999 2.6159999 1
19.6045 2.6015 2.5469999 1
19.6045 2.6345 2.552 1
19.6045 2.5634999 2.5599999 1
19.6045 2.4584999 2.681 1
19.6045 2.7005 2.5669999 1
19.6045 2.5395 2.6140001 1
19.6045 2.6064999 2.5190001 1
19.6045 2.6895001 2.5829999 1
19.6045 2.4955001 2.655 1
19.605499 2.4935 2.6210001 1
19.6045 2.6765001 2.4690001 1
19.6045 2.5465 2.618 1
19.6045 2.5715001 2.612 1
19.6045 2.4324999 2.704 1
19.6045 2.6784999 2.5190001 1
19.6045 2.6505001 2.576 1
19.6045 2.5085001 2.631 1
19.6045 2.5044999 2.6300001 1
19.6045 2.7695 2.517 1
19.6045 2.6335001 2.4760001 1
19.6045 2.6585 2.5940001 1
19.6045 2.6255 2.612 1
19.6045 2.5885 2.553 1
19.6045 2.6185 2.602 1
19.6045 2.7365 2.5090001 1
19.6045 2.5785 2.527 1
19.6045 2.7165 2.5369999 1
19.6045 2.6355 2.523 1
19.6045 2.4865 2.655 1
19.6045 2.6815 2.5009999 1
19.6045 2.5934999 2.562 1
19.6045 2.6684999 2.517 1
19.6045 2.5415001 2.655 1
19.6045 2.4345 2.7019999 1
19.6045 2.6135001 2.4890001 1
19.6045 2.7054999 2.5669999 1
19.6045 2.6135001 2.494 1
19.6045 2.5815001 2.6070001 1
19.6045 2.6684999 2.473 1
19.6045 2.4944999 2.6500001 1
19.6045 2.5344999 2.5910001 1
19.605499 2.4985001 2.609 1
19.6045 2.6135001 2.5969999 1
19.6045 2.6895001 2.51 1
19.6045 2.6445 2.599 1
19.6045 2.6485 2.5090001 1
19.605499 2.4835 2.6289999 1
19.6045 2.5035 2.6489999 1
19.6045 2.4565001 2.6860001 1
19.6045 2.7244999 2.5139999 1
19.6045 2.6215 2.569 1
19.6045 2.5114999 2.6459999 1
19.6045 2.7114999 2.4860001 1
19.6045 2.7715001 2.5220001 1
19.6045 2.6545 2.5880001 1
19.6045 2.5695 2.589 1
19.6045 2.5374999 2.575 1
19.6045 2.6375 2.471 1
19.6045 2.4675 2.675 1
19.6045 2.6424999 2.4809999 1
19.6045 2.5725 2.5639999 1
19.6045 2.6935 2.543 1
19.6045 2.6264999 2.605 1
19.6045 2.5215001 2.608 1
19.6045 2.6224999 2.612 1
19.6045 2.5215001 2.6400001 1
19.6045 2.6094999 2.5350001 1
19.6045 2.6795001 2.467 1
19.6045 2.7405 2.5669999 1
19.6045 2.5725 2.595 1
19.6045 2.6045001 2.6259999 1
19.6045 2.6805 2.5780001 1
19.6045 2.6194999 2.54 1
19.6045 2.6125 2.6170001 1
19.6045 2.5785 2.556 1
19.6045 2.6415 2.5840001 1
19.6045 2.5905001 2.5469999 1
19.6045 2.5385001 2.648 1
19.6045 2.7295001 2.5580001 1
19.6045 2.6105001 2.5409999 1
19.6045 2.6335001 2.5910001 1
19.6045 2.4914999 2.6440001 1
19.6045 2.5355 2.654 1
19.6045 2.5825 2.563 1
19.6045 2.6485 2.4990001 1
19.6045 2.6355 2.5899999 1
19.6045 2.6315 2.575 1
19.6045 2.5565 2.576 1
19.6045 2.5785 2.5639999 1
19.6045 2.5395 2.602 1
19.6045 2.5485001 2.5580001 1
19.6045 2.6724999 2.517 1
19.6045 2.6724999 2.5090001 1
19.6045 2.5855 2.5309999 1
19.6045 2.4965 2.645 1
19.6045 2.7635 2.553 1
19.6045 2.5044999 2.6559999 1
19.6045 2.6424999 2.5220001 1
19.6045 2.6805 2.4649999 1
19.6045 2.7555001 2.523 1
19.6045 2.5775001 2.539 1
19.6045 2.6575 2.494 1
19.6045 2.5335 2.6370001 1
19.6045 2.5504999 2.5869999 1
19.6045 2.5485001 2.5940001 1
19.6045 2.5125 2.6400001 1
19.6045 2.6695001 2.5680001 1
19.6045 2.6665001 2.494 1
19.6045 2.6055 2.5550001 1
19.6045 2.4825001 2.681 1
19.6045 2.7084999 2.4809999 1
19.6045 2.6645 2.4990001 1
19.6045 2.5065 2.6199999 1
19.6045 2.6285 2.4690001 1
19.6045 2.7165 2.572 1
19.605499 2.4935 2.618 1
19.6045 2.5574999 2.5569999 1
19.6045 2.7375 2.5339999 1
19.6045 2.7265 2.517 1
19.6045 2.6475 2.4560001 1
19.6045 2.7045 2.546 1
19.6045 2.4985001 2.658 1
19.6045 2.5344999 2.6070001 1
19.6045 2.6675 2.5369999 1
19.6045 2.7265 2.5050001 1
19.6045 2.6815 2.5639999 1
19.6045 2.6515 2.595 1
19.6045 2.6075001 2.5380001 1
19.6045 2.5285001 2.632 1
19.6045 2.6275001 2.523 1
19.6045 2.5225 2.6489999 1
19.6045 2.7014999 2.573 1
19.6045 2.6245 2.487 1
19.6045 2.5295 2.648 1
19.6045 2.5815001 2.602 1
19.6045 2.6424999 2.5450001 1
19.6045 2.7365 2.569 1
19.6045 2.6485 2.4960001 1
19.6045 2.6815 2.566 1
19.6045 2.6765001 2.4990001 1
19.6045 2.6784999 2.5469999 1
19.6045 2.6345 2.5710001 1
19.6045 2.6385 2.497 1
19.605499 2.4275 2.704 1
19.6045 2.5745001 2.592 1
19.6045 2.5685 2.5450001 1
19.6045 2.5885 2.605 1
19.6045 2.7145 2.559 1
19.6045 2.5905001 2.53 1
19.6045 2.5285001 2.5869999 1
19.6045 2.6735001 2.5680001 1
19.6045 2.6545 2.5940001 1
19.6045 2.6765001 2.5250001 1
19.6045 2.6145 2.4849999 1
19.6045 2.7605 2.54 1
19.6045 2.6724999 2.5929999 1
19.6045 2.6435001 2.5420001 1
19.6045 2.7704999 2.543 1
19.6045 2.6545 2.4590001 1
19.6045 2.6615 2.592 1
19.6045 2.6975 2.563 1
19.6045 2.5804999 2.53 1
19.6045 2.7565 2.546 1
19.6045 2.5825 2.618 1
19.6045 2.7145 2.5280001 1
19.6045 2.5174999 2.612 1
19.6045 2.5385001 2.6229999 1
19.6045 2.6305001 2.5190001 1
19.6045 2.5955 2.556 1
19.6045 2.6424999 2.5090001 1
19.6045 2.7874999 2.5309999 1
19.6045 2.4885001 2.6470001 1
19.6045 2.6765001 2.572 1
19.6045 2.6705 2.4649999 1
19.6045 2.5325 2.6570001 1
19.6045 2.4855001 2.6589999 1
19.6045 2.7235 2.5020001 1
19.6045 2.5445001 2.589 1
19.6045 2.6515 2.506 1
19.6045 2.6784999 2.5799999 1
19.6045 2.5864999 2.6159999 1
19.6045 2.7585001 2.543 1
19.6045 2.4695001 2.6670001 1
19.6045 2.6975 2.5109999 1
19.6045 2.5304999 2.6400001 1
19.6045 2.6355 2.529 1
19.6045 2.5574999 2.642 1
19.6045 2.6445 2.4920001 1
19.6045 2.6424999 2.4690001 1
19.6045 2.7225001 2.493 1
19.6045 2.5864999 2.5769999 1
19.6045 2.4805 2.6670001 1
19.6045 2.6135001 2.5940001 1
19.6045 2.5755 2.5910001 1
19.6045 2.5734999 2.556 1
19.6045 2.7014999 2.553 1
19.6045 2.6145 2.494 1
19.6045 2.7335 2.497 1
19.6045 2.6324999 2.579 1
19.6045 2.5725 2.55 1
19.6045 2.6485 2.543 1
19.6045 2.7555001 2.526 1
19.6045 2.6824999 2.4979999 1
19.6045 2.5585001 2.6159999 1
19.6045 2.6635001 2.4719999 1
19.6045 2.5465 2.635 1
19.6045 2.7635 2.5510001 1
19.6045 2.7495 2.529 1
19.6045 2.6285 2.5190001 1
19.6045 2.6645 2.553 1
19.6045 2.6275001 2.484 1
19.6045 2.5144999 2.6270001 1
19.6045 2.6875 2.559 1
19.6045 2.5955 2.5309999 1
19.6045 2.6075001 2.5880001 1
19.6045 2.7465 2.5439999 1
19.6045 2.6795001 2.566 1
19.6045 2.6305001 2.4760001 1
19.6045 2.4584999 2.6760001 1
19.6045 2.6965001 2.5409999 1
19.6045 2.6594999 2.4460001 1
19.6045 2.6675 2.5469999 1
19.6045 2.7385001 2.5569999 1
19.6045 2.6475 2.5409999 1
19.6045 2.4814999 2.645 1
19.6045 2.5395 2.5929999 1
19.6045 2.5875001 2.6340001 1
19.605499 2.4265001 2.6889999 1
19.6045 2.6735001 2.55 1
19.6045 2.4855001 2.6719999 1
19.6045 2.6375 2.5090001 1
19.6045 2.5885 2.5599999 1
19.6045 2.6405001 2.546 1
19.6045 2.4375 2.7019999 1
19.6045 2.5515001 2.638 1
19.6045 2.7225001 2.5079999 1
19.6045 2.4744999 2.671 1
19.6045 2.6925001 2.529 1
19.6045 2.7035 2.4909999 1
19.6045 2.7155001 2.5469999 1
19.6045 2.5915 2.6040001 1
19.6045 2.5555 2.582 1
19.6045 2.5395 2.585 1
19.6045 2.5415001 2.5699999 1
19.6045 2.6735001 2.5880001 1
19.6045 2.6554999 2.4760001 1
19.6045 2.6905 2.562 1
19.605499 2.4855001 2.6270001 1
19.6045 2.6255 2.602 1
19.6045 2.6324999 2.4809999 1
19.6045 2.6235001 2.536 1
19.6045 2.7214999 2.5309999 1
19.6045 2.6315 2.529 1
19.6045 2.6394999 2.6029999 1
19.6045 2.7395 2.5190001 1
19.6045 2.7335 2.507 1
19.6045 2.6575 2.6010001 1
19.6005 2.5915 0.198 1
19.598499 2.5905001 0.347 1
19.6015 2.6375 0.25 1
19.599501 2.5955 0.33199999 1
19.599501 2.6175001 0.361 1
19.6015 2.6424999 0.26300001 1
19.6015 2.6424999 0.255 1
19.599501 2.6094999 0.29300001 1
19.6005 2.5915 0.193 1
19.599501 2.6135001 0.36899999 1
19.6005 2.5804999 0.19400001 1
19.599501 2.5815001 0.23100001 1
19.599501 2.5964999 0.25 1
19.6015 2.6235001 0.219 1
19.599501 2.5875001 0.255 1
19.598499 2.6005001 0.35699999 1
19.6005 2.5905001 0.192 1
19.599501 2.5785 0.21799999 1
19.599501 2.6155 0.31299999 1
19.6005 2.5795 0.182 1
19.6015 2.6294999 0.233 1
19.598499 2.6034999 0.38999999 1
19.599501 2.5934999 0.28200001 1
19.599501 2.6034999 0.27399999 1
19.6005 2.6085 0.21799999 1
19.6005 2.5885 0.204 1
19.598499 2.6094999 0.377 1
19.599501 2.6085 0.28400001 1
19.598499 2.5975001 0.34400001 1
19.599501 2.6015 0.25999999 1
19.599501 2.6105001 0.31299999 1
19.599501 2.5845001 0.215 1
19.599501 2.6215 0.35600001 1
19.6005 2.6264999 0.30399999 1
19.599501 2.5815001 0.271 1
19.599501 2.6055 0.30199999 1
19.599501 2.5895 0.28799999 1
19.599501 2.6125 0.322 1
19.599501 2.5925 0.29100001 1
19.598499 2.5934999 0.398 1
19.599501 2.5895 0.27399999 1
19.599501 2.5945001 0.27700001 1
19.598499 2.5975001 0.39300001 1
19.599501 2.5734999 0.199 1
19.599501 2.5834999 0.292 1
19.599501 2.5864999 0.25099999 1
19.6005 2.6115 0.26100001 1
19.598499 2.5945001 0.377 1
19.6015 2.6405001 0.264 1
19.598499 2.6094999 0.39500001 1
19.599501 2.5785 0.249 1
19.6005 2.6275001 0.266 1
19.6005 2.5955 0.237 1
19.6005 2.6064999 0.235 1
19.599501 2.6155 0.33399999 1
19.6005 2.6294999 0.26899999 1
19.599501 2.5975001 0.255 1
19.6005 2.6045001 0.233 1
19.6015 2.6205001 0.215 1
19.6005 2.6085 0.243 1
19.6005 2.6105001 0.20299999 1
19.6005 2.6345 0.26100001 1
19.599501 2.6025 0.35299999 1
19.599501 2.5834999 0.26499999 1
19.599501 2.5864999 0.29100001 1
19.6005 2.6034999 0.25600001 1
19.599501 2.6015 0.28600001 1
19.599501 2.6164999 0.315 1
19.6005 2.5804999 0.183 1
19.6005 2.6155 0.27000001 1
19.599501 2.6194999 0.32800001 1
19.598499 2.5925 0.36399999 1
19.6005 2.5745001 0.177 1
19.6005 2.6315 0.31900001 1
19.6005 2.6255 0.25400001 1
19.598499 2.5875001 0.33399999 1
19.598499 2.5915 0.34599999 1
19.6005 2.6355 0.27200001 1
19.6005 2.6005001 0.229 1
19.6015 2.6424999 0.241 1
19.599501 2.5875001 0.23800001 1
19.6005 2.5885 0.211 1
19.6005 2.6064999 0.211 1
19.6005 2.6064999 0.20200001 1
19.599501 2.6215 0.338 1
19.6005 2.6245 0.28600001 1
19.599501 2.6264999 0.33399999 1
19.6005 2.6245 0.249 1
19.6005 2.6245 0.26899999 1
19.598499 2.5934999 0.375 1
19.6005 2.5755 0.183 1
19.599501 2.6055 0.31600001 1
19.599501 2.6215 0.32600001 1
19.6005 2.5764999 0.177 1
19.599501 2.5775001 0.192 1
19.6005 2.5975001 0.235 1
19.599501 2.5895 0.237 1
19.599501 2.6045001 0.303 1
19.6005 2.6205001 0.26100001 1
19.6005 2.6264999 0.25799999 1
19.599501 2.5875001 0.22499999 1
19.599501 2.6145 0.35100001 1
19.599501 2.5834999 0.22499999 1
19.598499 2.5975001 0.417 1
19.599501 2.5775001 0.197 1
19.6015 2.6505001 0.27500001 1
19.599501 2.5925 0.27500001 1
19.6005 2.6155 0.29800001 1
19.599501 2.6194999 0.33500001 1
19.6005 2.6164999 0.266 1
19.598499 2.5915 0.38299999 1
19.598499 2.5945001 0.39199999 1
19.599501 2.5864999 0.28 1
19.599501 2.5905001 0.24699999 1
19.598499 2.5985 0.40000001 1
19.6015 2.6594999 0.25999999 1
19.6015 2.6565001 0.28200001 1
19.6015 2.6494999 0.30399999 1
19.599501 2.6264999 0.373 1
19.6015 2.6575 0.31099999 1
19.6015 2.6554999 0.28 1
19.6005 2.6345 0.33500001 1
19.598499 2.5985 0.43399999 1
19.6005 2.6375 0.35499999 1
19.6005 2.6394999 0.34400001 1
19.6005 2.6324999 0.35699999 1
19.6005 2.6435001 0.33000001 1
19.6005 2.6364999 0.33199999 1
19.6005 2.6345 0.35299999 1
19.6005 2.6375 0.333 1
19.599501 2.6235001 0.36500001 1
19.599501 2.6245 0.373 1
19.599501 2.6215 0.38 1
19.599501 2.6255 0.35600001 1
19.6005 2.6175001 0.57599998 1
19.599501 2.6255 0.514 1
19.6015 2.6805 0.57999998 1
19.6045 2.5474999 0.77499998 1
19.6005 2.7514999 0.52399999 1
19.599501 2.6245 0.495 1
19.602501 2.6135001 0.64600003 1
19.6015 2.7455001 0.53200001 1
19.599501 2.5855 0.54299998 1
19.6015 2.5764999 0.64899999 1
19.6005 2.6824999 0.523 1
19.6005 2.7005 0.51200002 1
19.6005 2.7325001 0.48899999 1
19.599501 2.6695001 0.48899999 1
19.598499 2.6675 0.463 1
19.599501 2.7195001 0.458 1
19.6015 2.6305001 0.579 1
19.6015 2.6215 0.62099999 1
19.6015 2.6945 0.55900002 1
19.6005 2.6435001 0.52399999 1
19.6015 2.6075001 0.61000001 1
19.6015 2.6185 0.62099999 1
19.6005 2.5804999 0.58899999 1
19.598499 2.6475 0.47299999 1
19.598499 2.6315 0.45100001 1
19.599501 2.6594999 0.50800002 1
19.6005 2.6064999 0.55900002 1
19.599501 2.7265 0.48300001 1
19.599501 2.5945001 0.53600001 1
19.6035 2.5485001 0.74400002 1
19.599501 2.6675 0.498 1
19.6045 2.5725 0.755 1
19.6015 2.6005001 0.62699997 1
19.6015 2.5715001 0.61400002 1
19.599501 2.6835001 0.48500001 1
19.6035 2.6115 0.69700003 1
19.6035 2.5775001 0.70300001 1
19.6005 2.6654999 0.54799998 1
19.599501 2.6175001 0.51300001 1
19.602501 2.5964999 0.66299999 1
19.599501 2.7435 0.458 1
19.602501 2.6255 0.63599998 1
19.6015 2.6845 0.574 1
19.6005 2.7395 0.505 1
19.6015 2.6034999 0.597 1
19.599501 2.7305 0.45899999 1
