# .PCD v0.7 - Point Cloud Data file format
VERSION 0.7
FIELDS x y z label
SIZE 4 4 4 4
TYPE F F F U
COUNT 1 1 1 1
WIDTH 1692
HEIGHT 1
VIEWPOINT 0 0 0 1 0 0 0
POINTS 1692
DATA ascii
15.5625 2.1364999 0.68099999 2
15.5285 2.1385 0.73000002 2
15.5155 2.1494999 0.73500001 2
15.5705 2.1215 0.69099998 2
15.5005 2.1505001 0.75599998 2
15.5215 2.1355 0.74699998 2
15.5065 2.1385 0.76499999 2
15.5075 2.1505001 0.74599999 2
15.5525 2.1424999 0.68599999 2
15.5275 2.1605 0.69800001 2
15.5375 2.1925001 0.63 2
15.4955 2.1424999 0.77600002 2
15.5715 2.1435001 0.65499997 2
15.5845 2.1105001 0.68599999 2
15.5645 2.1554999 0.64700001 2
15.5055 2.1665001 0.722 2
15.5385 2.1795001 0.64999998 2
15.5445 2.1445 0.69499999 2
15.5695 2.1294999 0.68000001 2
15.5415 2.1535001 0.68599999 2
15.5725 2.1294999 0.67500001 2
15.5035 2.1715 0.71700001 2
15.5545 2.1615 0.653 2
15.5495 2.1575 0.667 2
15.5665 2.1164999 0.70499998 2
15.5155 2.1805 0.685 2
15.5505 2.1735001 0.63999999 2
15.5675 2.1465001 0.65600002 2
15.5135 2.1364999 0.75700003 2
15.5485 2.1275001 0.71700001 2
15.5755 2.1164999 0.69099998 2
15.5155 2.1355 0.755 2
15.4995 2.1624999 0.73900002 2
15.5675 2.1164999 0.70499998 2
15.5155 2.1605 0.71700001 2
15.5415 2.1605 0.67500001 2
15.5695 2.1085 0.71399999 2
15.5815 2.1025 0.704 2
15.5485 2.1615 0.662 2
15.5755 2.1115 0.699 2
15.5835 2.1094999 0.68900001 2
15.5185 2.1364999 0.74800003 2
15.5715 2.1135001 0.70200002 2
15.5635 2.1524999 0.65200001 2
15.5385 2.1285 0.73100001 2
15.5585 2.1605 0.64899999 2
15.5065 2.1665001 0.72000003 2
15.5475 2.1294999 0.71600002 2
15.5405 2.1405001 0.708 2
15.5515 2.1435001 0.68699998 2
15.5395 2.1765001 0.65399998 2
15.5135 2.1835001 0.68400002 2
15.5595 2.1135001 0.722 2
15.4875 2.1515 0.77499998 2
15.5325 2.1285 0.74000001 2
15.5385 2.1424999 0.708 2
15.5235 2.1815 0.66900003 2
15.4885 2.1624999 0.75700003 2
15.5075 2.1554999 0.73799998 2
15.5975 2.1255 0.579 2
15.6025 2.1155 0.58600003 2
15.5915 2.1105001 0.67000002 2
15.5705 2.1515 0.62900001 2
15.5855 2.1405001 0.58600003 2
15.5945 2.1105001 0.65499997 2
15.5855 2.1335001 0.61400002 2
15.6155 2.0994999 0.574 2
15.5715 2.1605 0.58600003 2
15.6105 2.1015 0.60000002 2
15.5945 2.1075001 0.667 2
15.5675 2.1615 0.602 2
15.6165 2.1034999 0.55800003 2
15.6185 2.1025 0.54900002 2
15.5815 2.1275001 0.65899998 2
15.6025 2.1105001 0.61199999 2
15.5585 2.1695001 0.625 2
15.6005 2.1034999 0.64399999 2
15.6085 2.1094999 0.57599998 2
15.6205 2.0994999 0.54799998 2
15.5975 2.1245 0.58499998 2
15.6025 2.1085 0.61799997 2
15.5765 2.1364999 0.65100002 2
15.5735 2.1575 0.58999997 2
15.5965 2.1085 0.64600003 2
15.5675 2.1524999 0.64200002 2
15.5935 2.1185 0.62900001 2
15.6035 2.1235001 0.55199999 2
15.5665 2.1585 0.62199998 2
15.5935 2.1315 0.57499999 2
15.5995 2.0975001 0.67699999 2
15.6235 2.0945001 0.551 2
15.6075 2.1055 0.59799999 2
15.5675 2.1505001 0.64899999 2
15.5725 2.1605 0.58499998 2
15.5735 2.1445 0.639 2
15.6105 2.1025 0.597 2
15.5755 2.1545 0.588 2
15.5665 2.1524999 0.648 2
15.5715 2.1524999 0.616 2
15.5765 2.1515 0.59399998 2
15.5785 2.1465001 0.59899998 2
15.5485 2.1875 0.61400002 2
15.5765 2.1524999 0.58999997 2
15.5825 2.1355 0.625 2
15.6075 2.1115 0.574 2
15.5845 2.1375 0.602 2
15.5915 2.1135001 0.65799999 2
15.6085 2.1045001 0.59799999 2
15.5955 2.1245 0.59200001 2
15.5965 2.1224999 0.59399998 2
15.6035 2.1205001 0.56199998 2
15.6115 2.1085 0.56699997 2
15.5685 2.1515 0.63499999 2
15.6085 2.1155 0.551 2
15.6225 2.0955 0.55500001 2
15.6075 2.0945001 0.64200002 2
15.5855 2.1445 0.574 2
15.5905 2.1145 0.65899998 2
15.6095 2.1094999 0.56800002 2
15.5755 2.1454999 0.62099999 2
15.5775 2.1424999 0.62 2
15.6125 2.0994999 0.597 2
15.6205 2.0964999 0.56300002 2
15.5885 2.1315 0.60500002 2
15.6105 2.1145 0.55000001 2
15.5935 2.1135001 0.64399999 2
15.6065 2.1145 0.56900001 2
15.5755 2.1465001 0.62 2
15.5515 2.1824999 0.611 2
15.5995 2.1285 0.55500001 2
15.5815 2.1445 0.58999997 2
15.5545 2.1735001 0.63099998 2
15.5815 2.1375 0.62099999 2
15.5875 2.1364999 0.59299999 2
15.6055 2.1034999 0.61799997 2
15.6025 2.1015 0.64399999 2
15.6055 2.0975001 0.64099997 2
15.5965 2.1194999 0.611 2
15.5935 2.1275001 0.59100002 2
15.6125 2.0955 0.61199999 2
15.5965 2.1264999 0.57700002 2
15.5715 2.1594999 0.59399998 2
15.6015 2.1164999 0.58999997 2
15.5935 2.1155 0.64099997 2
15.6175 2.1064999 0.53899997 2
15.6115 2.1085 0.565 2
15.5945 2.1175001 0.62599999 2
15.5845 2.1264999 0.64600003 2
15.5525 2.1775 0.62699997 2
15.6085 2.0985 0.61900002 2
15.5715 2.1445 0.64899999 2
15.5915 2.1285 0.59899998 2
15.5515 2.1795001 0.62800002 2
15.6105 2.1025 0.59799999 2
15.5575 2.1695001 0.63 2
15.6065 2.0964999 0.63800001 2
15.5505 2.1835001 0.61199999 2
15.5745 2.1424999 0.64099997 2
15.5625 2.1705 0.60299999 2
15.5795 2.1454999 0.59899998 2
15.5775 2.1405001 0.62800002 2
15.5935 2.1064999 0.67900002 2
15.5495 2.1865001 0.60900003 2
15.5915 2.1235001 0.61900002 2
15.5595 2.1705 0.61500001 2
15.6245 2.0975001 0.537 2
15.6095 2.1064999 0.58399999 2
15.6465 2.0515001 0.72600001 2
15.7105 2.0374999 0.70200002 2
15.7405 2.0255001 0.69999999 2
15.7015 2.0174999 0.745 2
15.6325 2.0675001 0.708 2
15.7325 2.0204999 0.71399999 2
15.6685 2.0545001 0.704 2
15.6315 2.0675001 0.70999998 2
15.6525 2.0525 0.71899998 2
15.6135 2.0725 0.71399999 2
15.6875 2.0555 0.68699998 2
15.6255 2.0604999 0.727 2
15.6465 2.0274999 0.76899999 2
15.6945 2.0315001 0.72399998 2
15.6125 2.0855 0.69199997 2
15.6525 2.0295 0.75999999 2
15.7095 2.0315001 0.71399999 2
15.7275 2.0304999 0.70200002 2
15.6325 2.0465 0.745 2
15.6095 2.0725 0.71799999 2
15.6555 2.0645001 0.69700003 2
15.7365 2.0365 0.68400002 2
15.6665 2.0495 0.71399999 2
15.6095 2.0775001 0.70899999 2
15.6155 2.0745001 0.70899999 2
15.6345 2.0725 0.69800001 2
15.6475 2.0325 0.759 2
15.6675 2.0545001 0.70599997 2
15.6965 2.0195 0.74400002 2
15.6905 2.0445001 0.70300001 2
15.7185 2.0165 0.73199999 2
15.6915 2.0335 0.72299999 2
15.6725 2.0304999 0.74299997 2
15.6865 2.0415001 0.71200001 2
15.6375 2.0265 0.77600002 2
15.6975 2.0515001 0.68699998 2
15.6425 2.0585001 0.71799999 2
15.6755 2.0425 0.71899998 2
15.7415 2.0255001 0.699 2
15.6485 2.0685 0.69499999 2
15.7165 2.0295 0.71200001 2
15.6525 2.0455 0.73199999 2
15.7215 2.0225 0.72000003 2
15.6975 2.0215001 0.74000001 2
15.6595 2.0595 0.70200002 2
15.7185 2.0244999 0.71799999 2
15.6575 2.0374999 0.741 2
15.6685 2.0195 0.76499999 2
15.6465 2.0595 0.71200001 2
15.6215 2.0625 0.72500002 2
15.6705 2.0474999 0.71399999 2
15.7365 2.0155001 0.72000003 2
15.6615 2.0274999 0.75700003 2
15.6185 2.0565 0.73900002 2
15.7295 2.0315001 0.69800001 2
15.7705 2.0135 0.69499999 2
15.6935 2.0515001 0.68900001 2
15.6285 2.0385001 0.76200002 2
15.6865 2.0225 0.74699998 2
15.7295 2.0204999 0.71700001 2
15.6075 2.0764999 0.713 2
15.6355 2.0335 0.76599997 2
15.7125 2.0255001 0.72100002 2
15.7225 2.0295 0.70599997 2
15.6605 2.0545001 0.70899999 2
15.7255 2.0385001 0.68900001 2
15.7485 2.0225 0.699 2
15.6315 2.0335 0.76899999 2
15.7115 2.0404999 0.69599998 2
15.6335 2.0574999 0.72500002 2
15.7675 2.0144999 0.69700003 2
15.6175 2.0715001 0.71399999 2
15.6485 2.0695 0.69400001 2
15.7545 2.0265 0.68800002 2
15.6455 2.0595 0.71200001 2
15.6345 2.0574999 0.72600001 2
15.6535 2.0585001 0.708 2
15.7555 2.0174999 0.69999999 2
15.6345 2.0695 0.704 2
15.6865 2.0195 0.75199997 2
15.7265 2.0285001 0.70599997 2
15.7295 2.0325 0.69499999 2
15.6205 2.0545001 0.74000001 2
15.6275 2.0704999 0.708 2
15.6455 2.0185001 0.78500003 2
15.7375 2.0265 0.70099998 2
15.7745 2.0185001 0.68300003 2
15.6645 2.0385001 0.73500001 2
15.6785 2.0315001 0.73699999 2
15.7175 2.0265 0.71600002 2
15.6585 2.0495 0.72000003 2
15.7365 2.0225 0.708 2
15.6715 2.0415001 0.72399998 2
15.7285 2.0285001 0.704 2
15.7115 2.0434999 0.69 2
15.6955 2.0474999 0.69599998 2
15.7595 2.0304999 0.67400002 2
15.6505 2.0645001 0.70099998 2
15.6495 2.0415001 0.741 2
15.6185 2.0465 0.75599998 2
15.7235 2.0174999 0.727 2
15.7305 2.0265 0.70700002 2
15.6565 2.0385001 0.741 2
15.6395 2.0265 0.77499998 2
15.6895 2.0325 0.727 2
15.6135 2.0745001 0.71100003 2
15.6415 2.0525 0.72899997 2
15.6795 2.0415001 0.71899998 2
15.6335 2.0704999 0.70300001 2
15.6655 2.0465 0.72000003 2
15.7405 2.0365 0.68099999 2
15.6485 2.0255001 0.77100003 2
15.6975 2.0525 0.685 2
15.6285 2.0445001 0.75300002 2
15.6665 2.0285001 0.75 2
15.6625 2.0325 0.74699998 2
15.6705 2.0655 0.68400002 2
15.6545 2.0235 0.76899999 2
15.6375 2.0315001 0.76899999 2
15.6495 2.0545001 0.71799999 2
15.6245 2.0344999 0.773 2
15.6865 2.0215001 0.74800003 2
15.6615 2.0565 0.70599997 2
15.6885 2.0165 0.755 2
15.6475 2.0685 0.69499999 2
15.7195 2.0315001 0.70499998 2
15.7145 2.0374999 0.699 2
15.6515 2.0604999 0.70599997 2
15.6695 2.0425 0.72500002 2
15.7085 2.0195 0.73400003 2
15.7095 2.0344999 0.708 2
15.6385 2.0634999 0.71100003 2
15.7495 2.0335 0.67799997 2
15.6385 2.0664999 0.70700002 2
15.6195 2.0715001 0.713 2
15.7815 2.0225 0.67199999 2
15.6375 2.0335 0.764 2
15.6795 2.0404999 0.72000003 2
15.7805 2.0204999 0.676 2
15.7115 2.0385001 0.69800001 2
15.7465 2.0304999 0.68599999 2
15.6465 2.0355 0.75400001 2
15.6605 2.0215001 0.76899999 2
15.7385 2.0265 0.69999999 2
15.6795 2.0645001 0.66000003 2
15.6275 2.0864999 0.63 2
15.7655 2.0295 0.67199999 2
15.7095 2.0565 0.61199999 2
15.7305 2.0474999 0.61799997 2
15.6255 2.0905001 0.57999998 2
15.6545 2.0734999 0.65899998 2
15.6665 2.0704999 0.64200002 2
15.6245 2.0895 0.60399997 2
15.6945 2.0604999 0.62900001 2
15.6335 2.0864999 0.59500003 2
15.6855 2.0675001 0.57800001 2
15.7555 2.0344999 0.65200001 2
15.6755 2.0725 0.57099998 2
15.6405 2.0815001 0.63300002 2
15.6145 2.0905001 0.65100002 2
15.6975 2.0574999 0.65600002 2
15.6785 2.0645001 0.65899998 2
15.7405 2.0425 0.63099998 2
15.6265 2.0864999 0.63599998 2
15.6535 2.0764999 0.63599998 2
15.6555 2.0755 0.634 2
15.6915 2.0615001 0.63 2
15.6425 2.0764999 0.68199998 2
15.7005 2.0574999 0.64700001 2
15.6665 2.0695 0.65799999 2
15.6865 2.0675001 0.57499999 2
15.7445 2.0385001 0.67000002 2
15.6565 2.0795 0.57700002 2
15.6905 2.0634999 0.616 2
15.6195 2.0855 0.68199998 2
15.6395 2.0804999 0.64300001 2
15.6175 2.0885 0.64899999 2
15.6605 2.0775001 0.57099998 2
15.6355 2.0885 0.551 2
15.6925 2.0585001 0.671 2
15.7405 2.0415001 0.65700001 2
15.7645 2.0295 0.67199999 2
15.6745 2.0675001 0.64999998 2
15.7385 2.0425 0.653 2
15.6405 2.0834999 0.59299999 2
15.6805 2.0704999 0.56400001 2
15.6975 2.0634999 0.57800001 2
15.6935 2.0615001 0.62599999 2
15.7035 2.0555 0.65499997 2
15.7795 2.0255001 0.65499997 2
15.7565 2.0344999 0.65100002 2
15.6085 2.0905001 0.67699999 2
15.7575 2.0344999 0.66100001 2
15.6775 2.0655 0.64899999 2
15.7125 2.0525 0.64200002 2
15.6465 2.0785 0.63599998 2
15.6945 2.0585001 0.65899998 2
15.6955 2.0574999 0.662 2
15.6235 2.0845001 0.685 2
15.6355 2.0815001 0.65700001 2
15.7485 2.0385001 0.64999998 2
15.7035 2.0565 0.64300001 2
15.6435 2.0855 0.56099999 2
15.6925 2.0625 0.62199998 2
15.7605 2.0325 0.65200001 2
15.7325 2.0425 0.67500001 2
15.6945 2.0595 0.65100002 2
15.6735 2.0655 0.67199999 2
15.6455 2.0855 0.546 2
15.6875 2.0655 0.60900003 2
15.6765 2.0655 0.65600002 2
15.6755 2.0655 0.66799998 2
15.7065 2.0534999 0.65899998 2
15.7265 2.0474999 0.64099997 2
15.7135 2.0545001 0.60699999 2
15.6155 2.0875001 0.68000001 2
15.7505 2.0365 0.66799998 2
15.7705 2.0295 0.64099997 2
15.6785 2.0685 0.61199999 2
15.6555 2.0804999 0.56 2
15.6345 2.0804999 0.67299998 2
15.6165 2.0895 0.65100002 2
15.7895 2.0215001 0.65899998 2
15.6985 2.0555 0.67400002 2
15.7085 2.0585001 0.583 2
15.6905 2.0645001 0.59500003 2
15.6885 2.0634999 0.62099999 2
15.7545 2.0355 0.66299999 2
15.6295 2.0875001 0.602 2
15.6105 2.0915 0.65600002 2
15.6525 2.0755 0.64300001 2
15.7045 2.0545001 0.65899998 2
15.6385 2.0825 0.62599999 2
15.7015 2.0595 0.61500001 2
15.6915 2.0604999 0.64700001 2
15.7145 2.0515001 0.64899999 2
15.6245 2.0845001 0.67000002 2
15.6975 2.0625 0.597 2
15.6815 2.0645001 0.64999998 2
15.7835 2.0235 0.65499997 2
15.6405 2.0885 0.53899997 2
15.7115 2.0504999 0.67699999 2
15.6575 2.0755 0.61299998 2
15.6675 2.0695 0.64999998 2
15.7495 2.0395 0.634 2
15.6195 2.0915 0.59899998 2
15.6415 2.0795 0.65200001 2
15.7725 2.0285001 0.639 2
15.7035 2.0604999 0.58700001 2
15.7605 2.0335 0.63999999 2
15.6845 2.0625 0.66100001 2
15.6655 2.0704999 0.64499998 2
15.6535 2.0825 0.54000002 2
15.6815 2.0655 0.63099998 2
15.6425 2.0864999 0.55500001 2
15.6475 2.0795 0.62 2
15.6745 2.0704999 0.59899998 2
15.6145 2.0885 0.67699999 2
15.6645 2.0764999 0.56599998 2
15.7455 2.0385001 0.662 2
15.6855 2.0655 0.60699999 2
15.7155 2.0534999 0.61900002 2
15.7075 2.0534999 0.65700001 2
15.6665 2.0734999 0.60000002 2
15.7205 2.0504999 0.634 2
15.6735 2.0655 0.68099999 2
15.6385 2.0785 0.68099999 2
15.6745 2.0645001 0.67699999 2
15.6905 2.0645001 0.59200001 2
15.6295 2.0864999 0.61699998 2
15.6105 2.0925 0.63499999 2
15.6275 2.0875001 0.62 2
15.6135 2.0915 0.63499999 2
15.6085 2.0925 0.64899999 2
15.6915 2.0634999 0.61199999 2
15.7075 2.0574999 0.60299999 2
15.6185 2.0875001 0.66600001 2
15.6565 2.0745001 0.648 2
15.7425 2.0404999 0.653 2
15.7155 2.0525 0.63800001 2
15.7625 2.0315001 0.66000003 2
15.6905 2.0585001 0.67400002 2
15.6585 2.0715001 0.67299998 2
15.6805 2.0695 0.57499999 2
15.6175 2.0915 0.60900003 2
15.7185 2.0504999 0.65200001 2
15.6935 2.0585001 0.66399997 2
15.6715 2.0755 0.55199999 2
15.7065 2.0555 0.64399999 2
15.6985 2.0604999 0.61400002 2
15.7105 2.0545001 0.63300002 2
15.6375 2.0845001 0.59899998 2
15.6955 2.0625 0.59500003 2
15.7855 2.0235 0.64999998 2
15.7725 2.0295 0.639 2
15.6955 2.0574999 0.66900003 2
15.6615 2.0745001 0.61699998 2
15.6715 2.0695 0.63099998 2
15.7175 2.0545001 0.59200001 2
15.6185 2.0915 0.60399997 2
15.6945 2.0645001 0.58200002 2
15.6595 2.0725 0.64600003 2
15.6875 2.0604999 0.671 2
15.6515 2.0795 0.59399998 2
15.7135 2.0515001 0.65600002 2
15.7785 2.0265 0.64899999 2
15.6975 2.0595 0.63300002 2
15.7405 2.0434999 0.61500001 2
15.6225 2.0875001 0.63700002 2
15.6525 2.0785 0.60299999 2
15.7115 2.0534999 0.64399999 2
15.7325 2.0434999 0.67000002 2
15.6415 2.0815001 0.62699997 2
15.6265 2.0855 0.64300001 2
15.6115 2.0895 0.66900003 2
15.6605 2.0755 0.60799998 2
15.6785 2.0704999 0.58600003 2
15.6895 2.0615001 0.64499998 2
15.7155 2.0534999 0.61799997 2
15.6595 2.0755 0.60699999 2
15.7065 2.0534999 0.65899998 2
15.6715 2.0685 0.64099997 2
15.6385 2.0795 0.67199999 2
15.7815 2.0244999 0.65600002 2
15.6635 2.0775001 0.56400001 2
15.7045 2.0565 0.63099998 2
15.6525 2.0785 0.611 2
15.7135 2.0555 0.59899998 2
15.7305 2.0465 0.63700002 2
15.7345 2.0434999 0.65399998 2
15.6325 2.0905001 0.54000002 2
15.6415 2.0785 0.66000003 2
15.7775 2.0265 0.65600002 2
15.6475 2.0815001 0.59200001 2
15.6665 2.0725 0.61000001 2
15.7625 2.0335 0.61500001 2
15.7795 2.0265 0.61500001 2
15.6855 2.0685 0.546 2
15.7505 2.0404999 0.58999997 2
15.7855 2.0235 0.56199998 2
15.7785 2.0265 0.56099999 2
15.7725 2.0295 0.61299998 2
15.7905 2.0215001 0.602 2
15.7075 2.0595 0.57300001 2
15.7825 2.0255001 0.61799997 2
15.7065 2.0595 0.55299997 2
15.7695 2.0304999 0.60299999 2
15.7825 2.0255001 0.58899999 2
15.7005 2.0625 0.55199999 2
15.7655 2.0325 0.59100002 2
15.7025 2.0615001 0.55199999 2
15.7795 2.0265 0.62 2
15.7825 2.0255001 0.56 2
15.7955 2.0195 0.64499998 2
15.7835 2.0244999 0.55699998 2
15.7745 2.0285001 0.62800002 2
15.7435 2.0434999 0.54500002 2
15.7365 2.0465 0.602 2
15.7565 2.0374999 0.574 2
15.7485 2.0404999 0.57200003 2
15.7775 2.0274999 0.60600001 2
15.7555 2.0374999 0.57200003 2
15.6665 2.0775001 0.54500002 2
15.7875 2.0225 0.59799999 2
15.7885 2.0225 0.58099997 2
15.7785 2.0265 0.60799998 2
15.7555 2.0374999 0.55400002 2
15.7765 2.0274999 0.62199998 2
15.6815 2.0704999 0.55000001 2
15.7175 2.0545001 0.54699999 2
15.7805 2.0265 0.59200001 2
15.7085 2.0585001 0.54100001 2
15.7455 2.0425 0.57800001 2
15.7285 2.0495 0.58499998 2
15.8025 2.0165 0.634 2
15.7575 2.0374999 0.57800001 2
15.7785 2.0265 0.63599998 2
15.7055 2.0595 0.57099998 2
15.7975 2.0185001 0.61699998 2
15.7265 2.0504999 0.57200003 2
15.7745 2.0285001 0.59200001 2
15.7595 2.0355 0.55000001 2
15.7245 2.0515001 0.56400001 2
15.7855 2.0235 0.61500001 2
15.6975 2.0634999 0.55000001 2
15.7875 2.0225 0.58999997 2
15.7575 2.0355 0.61900002 2
15.7705 2.0304999 0.60799998 2
15.7855 2.0235 0.58700001 2
15.6875 2.0675001 0.53799999 2
15.7165 2.0555 0.55699998 2
15.7355 2.0465 0.55900002 2
15.7165 2.0555 0.58399999 2
15.7865 2.0225 0.60500002 2
15.7855 2.0235 0.56400001 2
15.7595 2.0355 0.57800001 2
15.6695 2.0755 0.54400003 2
15.7885 2.0225 0.63999999 2
15.8055 2.0144999 0.648 2
15.7795 2.0265 0.63599998 2
15.7565 2.0374999 0.579 2
15.7775 2.0274999 0.61500001 2
15.7435 2.0434999 0.56699997 2
15.7715 2.0295 0.61799997 2
15.7225 2.0525 0.54900002 2
15.7865 2.0235 0.56599998 2
15.6965 2.0634999 0.54100001 2
15.7165 2.0555 0.55500001 2
15.7865 2.0235 0.63599998 2
15.7855 2.0235 0.58700001 2
15.7475 2.0415001 0.58600003 2
15.6705 2.0755 0.54100001 2
15.7755 2.0274999 0.57200003 2
15.7025 2.0615001 0.56199998 2
15.6875 2.0685 0.537 2
15.7515 2.0395 0.58600003 2
15.7065 2.0595 0.56699997 2
15.6915 2.0664999 0.54799998 2
15.7325 2.0485001 0.54400003 2
15.7755 2.0274999 0.58099997 2
15.7985 2.0174999 0.61299998 2
15.6725 2.0745001 0.53200001 2
15.7515 2.0395 0.55299997 2
15.7695 2.0304999 0.55199999 2
15.7885 2.0225 0.61000001 2
15.7695 2.0304999 0.56699997 2
15.7695 2.0304999 0.588 2
15.8115 2.0125 0.66100001 2
15.7745 2.0285001 0.551 2
15.7435 1.9515001 0.76899999 2
15.6885 2.0025001 0.76700002 2
15.7185 1.9955 0.75 2
15.6505 2.0165 0.78299999 2
15.6885 1.9965 0.77200001 2
15.7175 1.9835 0.76200002 2
15.6735 1.9985 0.78100002 2
15.6565 2.0005 0.79299998 2
15.7295 1.9515001 0.77999997 2
15.6495 2.0144999 0.78600001 2
15.7575 1.9685 0.74400002 2
15.7655 1.9965 0.71399999 2
15.6555 2.0035 0.79100001 2
15.7925 2.0065 0.68599999 2
15.7485 1.9445 0.77200001 2
15.7275 1.9605 0.773 2
15.7555 1.9965 0.722 2
15.7135 1.9665 0.77899998 2
15.7805 2.0105 0.69199997 2
15.7235 1.9895 0.75199997 2
15.7455 1.9615 0.759 2
15.7175 1.9655 0.77600002 2
15.7455 1.9685 0.75300002 2
15.7135 1.9735 0.773 2
15.6805 1.9895 0.78399998 2
15.6835 1.9825 0.787 2
15.7225 2.0155001 0.73100001 2
15.6775 1.9985 0.778 2
15.7575 1.9665 0.745 2
15.6765 2.0085001 0.77100003 2
15.7425 1.9445 0.77600002 2
15.7825 1.9965 0.70200002 2
15.7265 1.9785 0.759 2
15.6765 1.9995 0.778 2
15.7155 1.9655 0.778 2
15.6975 1.9795001 0.77999997 2
15.7955 1.9935 0.69400001 2
15.7325 1.9575 0.77200001 2
15.7465 1.9435 0.77399999 2
15.6805 1.9885 0.78500003 2
15.7885 1.9945 0.699 2
15.7045 1.9995 0.75800002 2
15.7195 1.9585 0.78100002 2
15.7435 1.9535 0.76800001 2
15.7005 1.9895 0.76899999 2
15.7755 1.9815 0.71899998 2
15.6915 2.0025001 0.76499999 2
15.7275 1.9615 0.77200001 2
15.8055 2.0055001 0.67699999 2
15.7605 1.9815 0.73000002 2
15.7315 1.9935 0.74199998 2
15.7575 1.9935 0.72299999 2
15.7655 1.9815 0.727 2
15.7715 1.9744999 0.72799999 2
15.7825 2.0105 0.69099998 2
15.6595 2.0014999 0.78899997 2
15.7265 1.9775 0.75999999 2
15.7195 2.0025001 0.74400002 2
15.7065 1.9965 0.759 2
15.7425 2.0035 0.72600001 2
15.7795 1.9895 0.70999998 2
15.7835 1.9835 0.713 2
15.7545 1.9915 0.72799999 2
15.6865 1.9885 0.77999997 2
15.7585 1.9945 0.72100002 2
15.7025 1.9805 0.77499998 2
15.7215 1.9905 0.75300002 2
15.6435 2.0174999 0.78799999 2
15.6555 2.0105 0.78399998 2
15.6775 2.0114999 0.76700002 2
15.7095 1.9725 0.77700001 2
15.7055 1.9765 0.77600002 2
15.7585 1.9545 0.755 2
15.6345 2.0174999 0.79400003 2
15.7615 2.0014999 0.713 2
15.6635 1.9955 0.79100001 2
15.6905 2.0065 0.76300001 2
15.6365 2.0155001 0.79400003 2
15.7195 1.9615 0.778 2
15.7005 1.9865 0.77100003 2
15.7525 1.9655 0.75 2
15.7555 1.9505 0.76099998 2
15.7525 1.9515001 0.76200002 2
15.7165 1.9924999 0.75400001 2
15.7425 1.9565001 0.76599997 2
15.7535 1.9895 0.73000002 2
15.7255 1.9645 0.77100003 2
15.7035 1.9865 0.76899999 2
15.6985 1.9845001 0.77499998 2
15.7345 1.9525 0.77499998 2
15.7405 2.0114999 0.722 2
15.7085 1.9895 0.76300001 2
15.7335 1.9845001 0.74900001 2
15.7285 1.9735 0.76200002 2
15.7105 2.0095 0.745 2
15.7445 2.0014999 0.727 2
15.7575 1.9615 0.75099999 2
15.6825 2.0144999 0.76200002 2
15.6725 2.0005 0.78100002 2
15.7355 2.0014999 0.73299998 2
15.7185 1.9875 0.75800002 2
15.6955 2.0074999 0.75800002 2
15.7395 1.9855 0.74299997 2
15.7575 1.9974999 0.72000003 2
15.7185 1.9755 0.76800001 2
15.7435 2.0135 0.71700001 2
15.7855 1.9625 0.72899997 2
15.7695 1.9535 0.74699998 2
15.7505 1.9375 0.77600002 2
15.8145 1.9805 0.69499999 2
15.7865 1.9765 0.71600002 2
15.7775 1.9655 0.73199999 2
15.8015 1.9464999 0.73400003 2
15.8075 1.9905 0.69 2
15.8115 1.9875 0.69 2
15.8115 1.9455 0.72799999 2
15.7885 1.9395 0.74900001 2
15.7825 1.9435 0.74800003 2
15.7875 1.9675 0.72399998 2
15.8105 1.9455 0.72799999 2
15.7605 1.9445 0.76200002 2
15.8135 1.9805 0.69499999 2
15.8065 1.9924999 0.68900001 2
15.7685 1.9575 0.74400002 2
15.8085 1.9795001 0.699 2
15.7915 1.9705 0.71799999 2
15.8135 1.9414999 0.73100001 2
15.8095 1.9605 0.71499997 2
15.7715 1.9515001 0.74900001 2
15.7955 1.9625 0.722 2
15.7935 1.9575 0.72799999 2
15.7765 1.9495 0.74699998 2
15.8035 1.9585 0.722 2
15.7995 1.9595 0.72399998 2
15.7645 1.9425 0.76099998 2
15.8115 1.9464999 0.72799999 2
15.7835 1.9495 0.74199998 2
15.8055 1.9545 0.72399998 2
15.7645 1.9435 0.75999999 2
15.8055 1.9565001 0.72100002 2
15.8035 1.9875 0.69499999 2
15.7685 1.9414999 0.759 2
15.8455 2.0125 0.64200002 2
15.8345 2.0065 0.65499997 2
15.8585 1.9935 0.64999998 2
15.8475 2.0085001 0.64399999 2
15.8635 2.0135 0.62699997 2
15.8685 2.0025001 0.634 2
15.8365 2.0055001 0.65499997 2
15.8685 1.9924999 0.64399999 2
15.8575 2.0215001 0.62400001 2
15.8615 1.9965 0.64499998 2
15.8395 2.0125 0.64700001 2
15.8785 1.9905 0.63800001 2
15.8445 1.9995 0.65499997 2
15.8805 1.9905 0.63599998 2
15.8885 1.9865 0.634 2
15.8315 2.0114999 0.653 2
15.8625 1.9974999 0.64300001 2
15.8825 1.9955 0.63 2
15.8295 2.0095 0.65600002 2
15.8265 2.0155001 0.653 2
15.8435 2.0135 0.64300001 2
15.8475 2.0144999 0.639 2
15.8665 2.0185001 0.62 2
15.8555 2.0185001 0.62900001 2
15.8185 2.0085001 0.66600001 2
15.8495 1.9744999 0.67400002 2
15.8365 1.9885 0.671 2
15.8425 1.9895 0.66500002 2
15.8325 1.9865 0.676 2
15.8525 1.9855 0.662 2
15.8445 1.9875 0.66600001 2
15.8325 1.9815 0.68000001 2
15.8455 1.9965 0.65700001 2
15.8535 1.9715 0.67400002 2
15.8895 1.9705 0.648 2
15.8525 1.9775 0.66900003 2
15.8265 1.9885 0.67799997 2
15.8755 1.9765 0.653 2
15.8675 1.9665 0.66799998 2
15.8195 1.9845001 0.68599999 2
15.8615 1.9735 0.66600001 2
15.8375 1.9625 0.69400001 2
15.8245 1.9805 0.68699998 2
15.8405 1.9744999 0.68099999 2
15.8615 1.9875 0.65399998 2
15.8755 1.9715 0.65799999 2
15.8495 1.9755 0.67299998 2
15.8325 1.9755 0.685 2
15.8195 1.9755 0.69599998 2
15.8545 1.9565001 0.68699998 2
15.8905 1.9744999 0.64399999 2
15.8345 1.9625 0.69599998 2
15.8655 1.9655 0.671 2
15.8665 1.9875 0.64999998 2
15.8245 1.9945 0.67400002 2
15.8185 1.9815 0.69 2
15.8305 1.9515001 0.70899999 2
15.8175 1.9455 0.72399998 2
15.8865 1.9715 0.64899999 2
15.8175 1.9815 0.69099998 2
15.8555 1.9725 0.671 2
15.8375 1.9585 0.69800001 2
15.8605 1.9705 0.67000002 2
15.8145 2.0035 0.67400002 2
15.8655 1.9625 0.67299998 2
15.8605 1.9595 0.68000001 2
15.8775 1.9755 0.65200001 2
15.8175 1.9605 0.70999998 2
15.8495 1.9785 0.67000002 2
15.8245 1.9735 0.69300002 2
15.8185 2.0225 0.58999997 2
15.8185 2.0174999 0.62699997 2
15.8255 2.0185001 0.62900001 2
15.8185 2.0215001 0.59299999 2
15.8195 2.0185001 0.61900002 2
15.8025 2.0195 0.59100002 2
15.8395 2.0195 0.63800001 2
15.8455 2.0225 0.62 2
15.8145 2.0204999 0.60100001 2
15.8285 2.0204999 0.61699998 2
15.8075 2.0204999 0.59200001 2
15.8105 2.0215001 0.58399999 2
15.8195 2.0174999 0.625 2
15.8055 2.0174999 0.61000001 2
15.8215 2.0215001 0.602 2
15.8055 2.0185001 0.60399997 2
15.8185 2.0165 0.63499999 2
15.8275 2.0185001 0.63099998 2
15.8065 2.0215001 0.579 2
15.8205 2.0235 0.58399999 2
15.8235 2.0185001 0.62199998 2
15.8345 2.0195 0.63 2
15.8135 2.0155001 0.63300002 2
15.8335 2.0204999 0.61900002 2
15.8075 2.0204999 0.58899999 2
15.8125 2.0204999 0.59200001 2
15.8255 2.0235 0.59100002 2
15.8495 2.0244999 0.611 2
15.8195 2.0174999 0.625 2
15.8325 2.0195 0.63099998 2
15.8165 2.0165 0.63300002 2
15.8295 2.0225 0.59899998 2
15.8445 2.0225 0.61799997 2
15.7975 2.0215001 0.57499999 2
15.4855 2.2685001 0.44800001 2
15.4965 2.2765 0.45100001 2
15.4625 2.2365 0.449 2
15.4605 2.2465 0.44499999 2
15.4565 2.2385001 0.44499999 2
15.5265 2.3015001 0.45500001 2
15.5035 2.2915001 0.449 2
15.4685 2.2635 0.44299999 2
15.4375 2.2284999 0.44100001 2
15.4665 2.2595 0.44299999 2
15.4425 2.2184999 0.44600001 2
15.4835 2.2695 0.44800001 2
15.4835 2.2674999 0.44800001 2
15.4565 2.2165 0.45300001 2
15.5095 2.2835 0.454 2
15.4795 2.2395 0.45500001 2
15.4795 2.2414999 0.45500001 2
15.5265 2.2955 0.45699999 2
15.4885 2.2535 0.454 2
15.4735 2.2465 0.44999999 2
15.5085 2.2855 0.45300001 2
15.4455 2.2095001 0.44999999 2
15.4585 2.2335 0.44800001 2
15.5075 2.2785001 0.454 2
15.4655 2.2335 0.45100001 2
15.4895 2.2704999 0.44999999 2
15.4845 2.2685001 0.44800001 2
15.5165 2.3004999 0.45100001 2
15.4935 2.2744999 0.44999999 2
15.5025 2.2885001 0.449 2
15.5115 2.2855 0.454 2
15.4345 2.2125001 0.44400001 2
15.4685 2.2465 0.44800001 2
15.4485 2.2355001 0.44299999 2
15.4445 2.2395 0.44 2
15.4885 2.2795 0.44600001 2
15.5415 2.3164999 0.45699999 2
15.4395 2.1954999 0.45199999 2
15.4935 2.2755001 0.44999999 2
15.4485 2.2214999 0.44800001 2
15.4625 2.2284999 0.45100001 2
15.4645 2.2314999 0.45100001 2
15.4625 2.2565 0.442 2
15.4835 2.2555001 0.45199999 2
15.4715 2.2804999 0.43799999 2
15.4825 2.2885001 0.44 2
15.4745 2.2974999 0.433 2
15.4665 2.2725 0.43900001 2
15.4405 2.2514999 0.43399999 2
15.4665 2.2795 0.43599999 2
15.5465 2.3234999 0.45699999 2
15.5075 2.3385 0.43399999 2
15.5045 2.3004999 0.44600001 2
15.4395 2.2574999 0.43200001 2
15.5035 2.3155 0.44 2
15.4625 2.2804999 0.43399999 2
15.4795 2.2865 0.44 2
15.4335 2.2495 0.43200001 2
15.5105 2.3095 0.44499999 2
15.4905 2.2925 0.442 2
15.5045 2.3355 0.433 2
15.4815 2.3045001 0.43399999 2
15.4795 2.2855 0.44 2
15.4705 2.2855 0.43599999 2
15.4565 2.2695 0.435 2
15.5115 2.3245001 0.44 2
15.5015 2.3104999 0.44100001 2
15.4765 2.2985001 0.43399999 2
15.4645 2.2685001 0.43900001 2
15.5225 2.3185 0.44800001 2
15.4675 2.2815001 0.43599999 2
15.5205 2.3345001 0.44100001 2
15.4715 2.2925 0.433 2
15.4855 2.3145001 0.43200001 2
15.5175 2.3085001 0.449 2
15.4725 2.2885001 0.435 2
15.4705 2.2865 0.435 2
15.5285 2.3255 0.44800001 2
15.4965 2.3215001 0.43399999 2
15.4615 2.2825 0.43200001 2
15.4875 2.2974999 0.43900001 2
15.5175 2.1795001 0.463 2
15.5295 2.2955 0.458 2
15.4455 2.1905 0.45500001 2
15.5325 2.2145 0.463 2
15.4585 2.2105 0.45500001 2
15.5425 2.3004999 0.45899999 2
15.5235 2.1835001 0.46399999 2
15.4935 2.2014999 0.45899999 2
15.5205 2.2414999 0.46000001 2
15.5365 2.2735 0.46000001 2
15.4865 2.1875 0.45899999 2
15.4925 2.2514999 0.456 2
15.5075 2.2084999 0.461 2
15.4915 2.2095001 0.45899999 2
15.5385 2.2574999 0.461 2
15.4875 2.1914999 0.45899999 2
15.5425 2.2755001 0.461 2
15.5445 2.2934999 0.46000001 2
15.4995 2.2145 0.45899999 2
15.5245 2.2825 0.458 2
15.5235 2.2505 0.46000001 2
15.5195 2.2284999 0.461 2
15.5065 2.1914999 0.46200001 2
15.5475 2.3015001 0.46000001 2
15.5115 2.2305 0.46000001 2
15.5235 2.2195001 0.46200001 2
15.5405 2.2765 0.46000001 2
15.4555 2.2065001 0.45500001 2
15.5495 2.3185 0.45899999 2
15.5205 2.2795 0.458 2
15.4935 2.2275 0.458 2
15.5095 2.1654999 0.463 2
15.5205 2.2054999 0.46200001 2
15.5055 2.1775 0.46200001 2
15.5115 2.2744999 0.45699999 2
15.5045 2.2205 0.46000001 2
15.5185 2.1585 0.465 2
15.5185 2.2265 0.461 2
15.5415 2.2825 0.46000001 2
15.5125 2.2514999 0.45899999 2
15.5445 2.3065 0.45899999 2
15.4955 2.2555001 0.456 2
15.5345 2.2815001 0.45899999 2
15.5485 2.3025 0.46000001 2
15.5065 2.2495 0.458 2
15.4825 2.2054999 0.458 2
15.4815 2.2385001 0.456 2
15.5305 2.2505 0.461 2
15.4745 2.1935 0.458 2
15.5105 2.2005 0.461 2
15.5015 2.2474999 0.458 2
15.4955 2.2065001 0.45899999 2
15.5255 2.2405 0.461 2
15.5385 2.2795 0.46000001 2
15.4585 2.2075 0.45500001 2
15.5095 2.1805 0.46200001 2
15.5325 2.2595 0.46000001 2
15.5125 2.1675 0.46399999 2
15.5205 2.2474999 0.46000001 2
15.5175 2.1735001 0.46399999 2
15.5335 2.2175 0.463 2
15.5135 2.1854999 0.463 2
15.5265 2.2165 0.46200001 2
15.4945 2.2535 0.456 2
15.4945 2.2495 0.45699999 2
15.5035 2.2065001 0.46000001 2
15.4875 2.1815 0.46000001 2
15.4825 2.1815 0.45899999 2
15.5345 2.2945001 0.45899999 2
15.4925 2.2505 0.456 2
15.5345 2.2625 0.46000001 2
15.4925 2.2255001 0.458 2
15.5115 2.2474999 0.45899999 2
15.4555 2.1815 0.456 2
15.4725 2.1884999 0.458 2
15.4775 2.2035 0.458 2
15.4725 2.1905 0.458 2
15.4715 2.2054999 0.45699999 2
15.5125 2.2555001 0.458 2
15.6025 2.0825 0.46200001 2
15.5265 2.1505001 0.465 2
15.5295 2.1285 0.458 2
15.5015 2.1565001 0.46000001 2
15.5185 2.1505001 0.463 2
15.4655 2.1724999 0.456 2
15.5375 2.1335001 0.46200001 2
15.5705 2.1125 0.463 2
15.5495 2.1164999 0.45899999 2
15.5475 2.1264999 0.46200001 2
15.4965 2.1575 0.45899999 2
15.4955 2.1554999 0.458 2
15.5535 2.1235001 0.463 2
15.5205 2.1565001 0.465 2
15.4915 2.1665001 0.461 2
15.5385 2.1394999 0.46399999 2
15.5005 2.1524999 0.45899999 2
15.4705 2.1745 0.458 2
15.5575 2.1175001 0.46200001 2
15.5705 2.1105001 0.463 2
15.5175 2.1364999 0.458 2
15.5395 2.1745 0.461 2
15.5635 2.2785001 0.45500001 2
15.6425 2.2135 0.43099999 2
15.5515 2.3095 0.45899999 2
15.5435 2.2744999 0.461 2
15.5435 2.1995001 0.46000001 2
15.5395 2.2165 0.46200001 2
15.5665 2.2965 0.45500001 2
15.5935 2.2025001 0.44600001 2
15.5875 2.1905 0.447 2
15.6135 2.2025001 0.44 2
15.6385 2.1965001 0.43200001 2
15.5855 2.2595 0.44800001 2
15.5795 2.2414999 0.44999999 2
15.6065 2.1805 0.442 2
15.5875 2.2014999 0.447 2
15.5985 2.2685001 0.44499999 2
15.5365 2.1624999 0.46200001 2
15.5685 2.2915001 0.454 2
15.5565 2.2375 0.45699999 2
15.5825 2.1975 0.449 2
15.6325 2.1954999 0.43399999 2
15.5955 2.2265 0.44499999 2
15.5325 2.1754999 0.463 2
15.6145 2.2284999 0.44 2
15.5455 2.1954999 0.46000001 2
15.5825 2.2135 0.449 2
15.5805 2.2704999 0.44999999 2
15.5915 2.2335 0.44600001 2
15.5635 2.2255001 0.45500001 2
15.5505 2.2535 0.45899999 2
15.6085 2.2465 0.442 2
15.5475 2.2275 0.46000001 2
15.5335 2.1905 0.463 2
15.6125 2.2244999 0.44 2
15.5745 2.1784999 0.45100001 2
15.6225 2.2184999 0.43700001 2
15.6285 2.2125001 0.435 2
15.5635 2.2695 0.45500001 2
15.5835 2.2295001 0.449 2
15.5925 2.2685001 0.44600001 2
15.5455 2.2225001 0.46000001 2
15.5385 2.1635001 0.46200001 2
15.6285 2.2235 0.435 2
15.6395 2.2105 0.43200001 2
15.6275 2.2014999 0.43599999 2
15.5395 2.2045 0.46200001 2
15.5575 2.3034999 0.45699999 2
15.5605 2.1705 0.45500001 2
15.5995 2.1965001 0.44400001 2
15.6175 2.2265 0.43900001 2
15.5345 2.1645 0.463 2
15.5645 2.2005 0.454 2
15.5785 2.2474999 0.44999999 2
15.5545 2.3034999 0.458 2
15.6465 2.2045 0.43000001 2
15.5965 2.2635 0.44499999 2
15.5525 2.1695001 0.458 2
15.5895 2.1754999 0.447 2
15.6025 2.1815 0.44299999 2
15.5895 2.2054999 0.447 2
15.5605 2.2865 0.456 2
15.6135 2.2135 0.44 2
15.5625 2.2835 0.456 2
15.5965 2.2414999 0.44499999 2
15.5445 2.2225001 0.46000001 2
15.5605 2.2095001 0.45500001 2
15.5925 2.2284999 0.44600001 2
15.5665 2.3085001 0.45500001 2
15.6095 2.2184999 0.44100001 2
15.5605 2.1695001 0.45500001 2
15.6075 2.1965001 0.44100001 2
15.6025 2.2225001 0.44299999 2
15.6125 2.2165 0.44 2
15.6125 2.2265 0.44 2
15.5825 2.2244999 0.449 2
15.5585 2.2934999 0.45699999 2
15.5595 2.1925001 0.456 2
15.5995 2.1925001 0.44400001 2
15.6155 2.1954999 0.43900001 2
15.5865 2.2735 0.44800001 2
15.6005 2.2405 0.44400001 2
15.6175 2.1854999 0.43799999 2
15.6195 2.2105 0.43799999 2
15.5925 2.2365 0.44600001 2
15.5445 2.1925001 0.46000001 2
15.5455 2.2825 0.461 2
15.5705 2.2184999 0.45300001 2
15.5785 2.2865 0.45100001 2
15.6055 2.2344999 0.442 2
15.5595 2.3004999 0.45699999 2
15.5375 2.2005 0.46200001 2
15.6065 2.2125001 0.442 2
15.5505 2.3055 0.45899999 2
15.5395 2.2295001 0.46200001 2
15.5645 2.1884999 0.454 2
15.5725 2.1895001 0.45199999 2
15.5445 2.1724999 0.46000001 2
15.5645 2.2165 0.454 2
15.5765 2.2974999 0.45199999 2
15.5625 2.1695001 0.45500001 2
15.6055 2.2405 0.442 2
15.5425 2.1735001 0.461 2
15.6285 2.2035 0.435 2
15.6145 2.1954999 0.43900001 2
15.6025 2.2435 0.44299999 2
15.6465 2.2114999 0.43000001 2
15.5545 2.3095 0.458 2
15.5845 2.2635 0.449 2
15.5775 2.2175 0.45100001 2
15.5455 2.1735001 0.46000001 2
15.5495 2.1905 0.45899999 2
15.5815 2.2035 0.449 2
15.6285 2.2155001 0.435 2
15.5575 2.1875 0.456 2
15.5815 2.2535 0.449 2
15.5495 2.2974999 0.45899999 2
15.5855 2.1895001 0.44800001 2
15.5725 2.4324999 0.44 2
15.5565 2.3805001 0.44600001 2
15.5425 2.3534999 0.44600001 2
15.5435 2.3635001 0.44400001 2
15.5295 2.3755 0.43399999 2
15.5395 2.3915 0.43399999 2
15.5555 2.3385 0.45699999 2
15.5225 2.3594999 0.435 2
15.5605 2.3945 0.44400001 2
15.5725 2.4275 0.44100001 2
15.5645 2.3745 0.45100001 2
15.5215 2.3625 0.433 2
15.5475 2.3285 0.456 2
15.5315 2.3375001 0.44499999 2
15.5705 2.4235001 0.44100001 2
15.5695 2.3885 0.44999999 2
15.5435 2.3805001 0.43900001 2
15.5875 2.4554999 0.44100001 2
15.5685 2.3965001 0.44800001 2
15.5545 2.3645 0.449 2
15.5845 2.4435 0.44299999 2
15.5775 2.4165001 0.44600001 2
15.5445 2.3794999 0.44 2
15.5335 2.3585 0.44 2
15.5755 2.4165001 0.44499999 2
15.5745 2.4315 0.44100001 2
15.5325 2.3555 0.44100001 2
15.5255 2.3395 0.442 2
15.5465 2.3625 0.44600001 2
15.5615 2.3605001 0.454 2
15.5475 2.3375001 0.45300001 2
15.5575 2.3594999 0.45199999 2
15.5645 2.3764999 0.45100001 2
15.5585 2.4165001 0.43700001 2
15.5205 2.3525 0.435 2
15.5365 2.3455 0.44499999 2
15.5435 2.3315001 0.45199999 2
15.5485 2.3625 0.447 2
15.5475 2.3785 0.442 2
15.5335 2.3434999 0.44499999 2
15.5545 2.4024999 0.43900001 2
15.5865 2.1554999 0.45100001 2
15.5985 2.1115 0.45699999 2
15.5625 2.1315 0.46200001 2
15.6035 2.1624999 0.44499999 2
15.5965 2.0905001 0.46200001 2
15.6155 2.1355 0.44800001 2
15.6245 2.1624999 0.44100001 2
15.5865 2.1665001 0.449 2
15.5925 2.1164999 0.45699999 2
15.5975 2.1385 0.45199999 2
15.6145 2.1405001 0.447 2
15.5605 2.1364999 0.461 2
15.5565 2.1485 0.45899999 2
15.5855 2.1135001 0.46000001 2
15.5585 2.1465001 0.45899999 2
15.5675 2.1315 0.46000001 2
15.6005 2.1385 0.45100001 2
15.5985 2.1324999 0.45300001 2
15.6115 2.1784999 0.44 2
15.5585 2.1594999 0.45699999 2
15.5895 2.0964999 0.46200001 2
15.5995 2.1715 0.44499999 2
15.5435 2.1585 0.461 2
15.6125 2.1724999 0.44100001 2
15.6235 2.1545 0.442 2
15.6095 2.1094999 0.45500001 2
15.5545 2.1475 0.46000001 2
15.6015 2.1025 0.458 2
15.6125 2.1255 0.45100001 2
15.5765 2.1315 0.458 2
15.6065 2.1105001 0.45500001 2
15.5755 2.1145 0.46200001 2
15.6205 2.1145 0.45100001 2
15.6045 2.1034999 0.45699999 2
15.6085 2.0934999 0.458 2
15.6015 2.1245 0.454 2
15.6205 2.1164999 0.45100001 2
15.6295 2.1805 0.43599999 2
15.6155 2.1215 0.45100001 2
15.5895 2.1075001 0.46000001 2
15.6055 2.1305001 0.45100001 2
15.5885 2.1575 0.44999999 2
15.6015 2.1175001 0.45500001 2
15.5855 2.1475 0.45300001 2
15.5815 2.1045001 0.46200001 2
15.6155 2.1415 0.447 2
15.5375 2.1435001 0.465 2
15.5915 2.1125 0.45899999 2
15.6355 2.1445 0.442 2
15.5665 2.1624999 0.454 2
15.5465 2.1575 0.46000001 2
15.5495 2.1524999 0.46000001 2
15.6285 2.1795001 0.43599999 2
15.6315 2.1735001 0.43700001 2
15.5385 2.1505001 0.463 2
15.6435 2.1665001 0.435 2
15.6185 2.1055 0.454 2
15.5775 2.1194999 0.46000001 2
15.6005 2.1194999 0.45500001 2
15.5435 2.1494999 0.46200001 2
15.6065 2.0975001 0.458 2
15.5875 2.0994999 0.46200001 2
15.5785 2.1415 0.456 2
15.5365 2.1454999 0.465 2
15.6225 2.1575 0.442 2
15.6095 2.1185 0.45300001 2
15.5455 2.1594999 0.46000001 2
15.5935 2.1415 0.45199999 2
15.5535 2.1505001 0.46000001 2
15.6115 2.1155 0.45300001 2
15.5615 2.3455 0.458 2
15.5665 2.3675001 0.454 2
15.6045 2.4744999 0.44299999 2
15.5605 2.3494999 0.456 2
15.5555 2.3345001 0.458 2
15.6065 2.4335001 0.45300001 2
15.6195 2.4625001 0.45100001 2
15.6185 2.4835 0.44600001 2
15.6485 2.5155001 0.449 2
15.6075 2.4584999 0.44800001 2
15.5995 2.4425001 0.44800001 2
15.6315 2.4795001 0.45100001 2
15.6005 2.4275 0.45199999 2
15.6015 2.4375 0.44999999 2
15.6155 2.4795001 0.44499999 2
15.6405 2.4995 0.449 2
15.5875 2.4284999 0.447 2
15.5645 2.3664999 0.454 2
15.6285 2.4985001 0.44499999 2
15.5585 2.3434999 0.45699999 2
15.5955 2.4165001 0.45300001 2
15.5935 2.4414999 0.44600001 2
15.6115 2.4454999 0.45199999 2
15.5865 2.4145 0.44999999 2
15.6085 2.4775 0.44400001 2
15.5855 2.3954999 0.454 2
15.6565 2.5304999 0.44800001 2
15.6405 2.5044999 0.44800001 2
15.5775 2.3985 0.45100001 2
15.5785 2.3994999 0.45100001 2
15.5875 2.4054999 0.45300001 2
15.5625 2.3505001 0.45699999 2
15.6515 2.5204999 0.449 2
15.6325 2.4995 0.447 2
15.6075 2.4775 0.44299999 2
15.5895 2.4265001 0.449 2
15.5885 2.4414999 0.44499999 2
15.6075 2.4765 0.44299999 2
15.7225 2.5085001 0.44999999 2
15.7125 2.4584999 0.45199999 2
15.7245 2.5025001 0.44999999 2
15.7135 2.4755001 0.45100001 2
15.6185 2.4085 0.45500001 2
15.7085 2.4805 0.45100001 2
15.7725 2.4695001 0.45100001 2
15.6515 2.4985001 0.45100001 2
15.7535 2.4805 0.45100001 2
15.7225 2.4625001 0.45199999 2
15.6585 2.4015 0.45500001 2
15.6865 2.4795001 0.45100001 2
15.6855 2.4024999 0.454 2
15.7065 2.4625001 0.45199999 2
15.6665 2.4115 0.454 2
15.6675 2.5085001 0.44999999 2
15.7255 2.4814999 0.45100001 2
15.7115 2.4614999 0.45199999 2
15.6585 2.3935001 0.45500001 2
15.6155 2.3745 0.456 2
15.7365 2.4635 0.45100001 2
15.5805 2.3735001 0.45699999 2
15.8115 2.4705 0.45100001 2
15.6715 2.5274999 0.449 2
15.7205 2.4784999 0.45100001 2
15.6795 2.4405 0.45300001 2
15.6195 2.4205 0.454 2
15.7195 2.4695001 0.45100001 2
15.6455 2.4735 0.45199999 2
15.5725 2.3415 0.458 2
15.6865 2.4595001 0.45199999 2
15.7175 2.4974999 0.44999999 2
15.6275 2.4425001 0.45300001 2
15.6615 2.4554999 0.45199999 2
15.6255 2.4514999 0.45300001 2
15.7075 2.4205 0.454 2
15.6585 2.4805 0.45100001 2
15.7445 2.4925001 0.44999999 2
15.8025 2.4655001 0.45100001 2
15.6495 2.5095 0.44999999 2
15.6065 2.3564999 0.45699999 2
15.6855 2.4224999 0.454 2
15.6955 2.5315001 0.449 2
15.7275 2.4875 0.45100001 2
15.6895 2.4335001 0.45300001 2
15.6945 2.5304999 0.449 2
15.6825 2.4595001 0.45199999 2
15.7535 2.4465001 0.45199999 2
15.6215 2.4085 0.45500001 2
15.6295 2.4595001 0.45199999 2
15.7575 2.4755001 0.45100001 2
15.6945 2.4735 0.45100001 2
15.7895 2.4635 0.45100001 2
15.6775 2.4614999 0.45199999 2
15.6625 2.4584999 0.45199999 2
15.8075 2.4695001 0.45100001 2
15.7105 2.5125 0.44999999 2
15.6865 2.4925001 0.45100001 2
15.5605 2.3385 0.458 2
15.7175 2.4725001 0.45100001 2
15.7655 2.4535 0.45199999 2
15.7355 2.4765 0.45100001 2
15.6765 2.4735 0.45100001 2
15.6685 2.4675 0.45199999 2
15.6485 2.3985 0.45500001 2
15.7225 2.5204999 0.449 2
15.7085 2.5204999 0.449 2
15.7615 2.4895 0.44999999 2
15.6565 2.5125 0.44999999 2
15.6755 2.4445 0.45300001 2
15.7365 2.4905 0.44999999 2
15.6675 2.5225 0.449 2
15.7205 2.4995 0.44999999 2
15.7785 2.4645 0.45100001 2
15.6455 2.4315 0.454 2
15.7385 2.4905 0.44999999 2
15.7485 2.4814999 0.45100001 2
15.6305 2.3915 0.45500001 2
15.7325 2.4705 0.45100001 2
15.7655 2.4635 0.45100001 2
15.7425 2.4665 0.45100001 2
15.7555 2.4425001 0.45199999 2
15.7375 2.5125 0.449 2
15.7545 2.4705 0.45100001 2
15.6665 2.4184999 0.454 2
15.6725 2.4595001 0.45199999 2
15.6445 2.4825001 0.45100001 2
15.7935 2.4814999 0.44999999 2
15.7205 2.4784999 0.45100001 2
15.7305 2.4655001 0.45100001 2
15.5905 2.3475001 0.458 2
15.6735 2.4275 0.454 2
15.6305 2.3694999 0.456 2
15.6365 2.3924999 0.45500001 2
15.6785 2.4675 0.45199999 2
15.7035 2.4784999 0.45100001 2
15.6575 2.5144999 0.44999999 2
15.7285 2.5074999 0.44999999 2
15.6065 2.3864999 0.456 2
15.7985 2.4705 0.45100001 2
15.7385 2.4414999 0.45199999 2
15.6785 2.5125 0.44999999 2
15.6695 2.4535 0.45199999 2
15.7855 2.4835 0.44999999 2
15.6755 2.4505 0.45199999 2
15.6585 2.4345 0.45300001 2
15.7735 2.4914999 0.44999999 2
15.8255 2.4805 0.44999999 2
15.7265 2.4365001 0.45300001 2
15.7895 2.4825001 0.44999999 2
15.6105 2.3835001 0.456 2
15.6075 2.3764999 0.456 2
15.6705 2.4245 0.454 2
15.6915 2.4925001 0.45100001 2
15.7235 2.4384999 0.45300001 2
15.6685 2.5344999 0.449 2
15.6195 2.4094999 0.45500001 2
15.6325 2.4425001 0.45300001 2
15.6395 2.4565001 0.45300001 2
15.6615 2.4035001 0.45500001 2
15.7745 2.4855001 0.44999999 2
15.7285 2.4805 0.45100001 2
15.7335 2.4315 0.45300001 2
15.7015 2.4094999 0.454 2
15.7785 2.4935 0.44999999 2
15.7015 2.5155001 0.44999999 2
15.7195 2.4775 0.45100001 2
15.6305 2.3805001 0.456 2
15.7225 2.4435 0.45199999 2
15.6695 2.4245 0.454 2
15.6695 2.4914999 0.45100001 2
15.6245 2.3775001 0.456 2
15.6735 2.4645 0.45199999 2
15.7675 2.4545 0.45199999 2
15.7915 2.4765 0.44999999 2
15.6525 2.4805 0.45100001 2
15.7385 2.4395001 0.45199999 2
15.5635 2.3425 0.458 2
15.7665 2.4914999 0.44999999 2
15.7155 2.4324999 0.45300001 2
15.6845 2.4045 0.454 2
15.5905 2.3745 0.456 2
15.6845 2.4495001 0.45199999 2
15.6005 2.3975 0.45500001 2
15.6835 2.4365001 0.45300001 2
15.7175 2.4354999 0.45300001 2
15.6275 2.3885 0.456 2
15.6605 2.5114999 0.44999999 2
15.6215 2.3645 0.45699999 2
15.6655 2.4405 0.45300001 2
15.8015 2.4844999 0.44999999 2
15.7335 2.4755001 0.45100001 2
15.7535 2.4835 0.44999999 2
15.6315 2.4094999 0.45500001 2
15.5935 2.3915 0.456 2
15.6725 2.5204999 0.44999999 2
15.6665 2.5374999 0.449 2
15.6825 2.5135 0.44999999 2
15.5855 2.3505001 0.45699999 2
15.7855 2.4695001 0.45100001 2
15.7175 2.4895 0.44999999 2
15.7525 2.4565001 0.45199999 2
15.7985 2.4744999 0.44999999 2
15.7235 2.5074999 0.44999999 2
15.7535 2.4575 0.45199999 2
15.7015 2.4705 0.45100001 2
15.7115 2.5005 0.44999999 2
15.7205 2.5185001 0.449 2
15.7245 2.4835 0.45100001 2
15.6755 2.4675 0.45199999 2
15.5855 2.3794999 0.456 2
15.6415 2.4675 0.45199999 2
15.5995 2.3724999 0.456 2
15.5885 2.3915 0.456 2
15.7035 2.4235001 0.45300001 2
15.6065 2.4115 0.45500001 2
15.6385 2.4254999 0.454 2
15.6305 2.4695001 0.45199999 2
15.6865 2.4454999 0.45300001 2
15.6265 2.4215 0.454 2
15.7595 2.4525001 0.45199999 2
15.7095 2.5195 0.449 2
15.6875 2.4684999 0.45199999 2
15.7525 2.4775 0.45100001 2
15.7045 2.4844999 0.45100001 2
15.5645 2.3464999 0.458 2
15.6265 2.4635 0.45199999 2
15.6345 2.4215 0.454 2
15.7075 2.4695001 0.45100001 2
15.6285 2.4275 0.454 2
15.7265 2.4584999 0.45199999 2
15.6955 2.4445 0.45300001 2
15.7285 2.4965 0.44999999 2
15.6205 2.4205 0.454 2
15.7725 2.4605 0.45100001 2
15.6835 2.4965 0.44999999 2
15.6345 2.4024999 0.45500001 2
15.6225 2.3735001 0.456 2
15.7465 2.5055001 0.44999999 2
15.7095 2.4295001 0.45300001 2
15.7495 2.4435 0.45199999 2
15.6615 2.3994999 0.45500001 2
15.6385 2.4465001 0.45300001 2
15.7425 2.4695001 0.45100001 2
15.5875 2.3464999 0.458 2
15.6985 2.4175 0.454 2
15.7085 2.4775 0.45100001 2
15.7265 2.4675 0.45100001 2
15.6815 2.4765 0.45100001 2
15.7515 2.4735 0.45100001 2
15.7165 2.4595001 0.45199999 2
15.6375 2.4484999 0.45300001 2
15.7105 2.5174999 0.449 2
15.7275 1.9675 0.428 2
15.7435 1.9735 0.44 2
15.7085 2.0105 0.45199999 2
15.7095 1.9965 0.442 2
15.6965 1.9965 0.43700001 2
15.7195 1.9985 0.44800001 2
15.6685 2.0265 0.44800001 2
15.6975 2.0085001 0.447 2
15.7615 1.9835 0.45500001 2
15.7385 1.9855 0.44600001 2
15.7125 1.9705 0.42399999 2
15.6835 2.0155001 0.44499999 2
15.6395 2.0574999 0.45899999 2
15.7765 1.9795001 0.458 2
15.7495 1.9955 0.458 2
15.7355 1.9735 0.43599999 2
15.7565 1.9924999 0.45899999 2
15.6655 2.0215001 0.44299999 2
15.7365 1.9965 0.45300001 2
15.7625 1.9795001 0.45199999 2
15.6995 2.0155001 0.45199999 2
15.7185 1.9755 0.43000001 2
15.7565 1.9585 0.43399999 2
15.7305 1.9995 0.45300001 2
15.6795 2.0095 0.44 2
15.7165 2.0065 0.45300001 2
15.7285 2.0055001 0.45699999 2
15.7215 1.9965 0.447 2
15.7455 1.9535 0.42500001 2
15.7355 1.9865 0.44600001 2
15.7555 1.9785 0.44800001 2
15.7455 1.9525 0.42399999 2
15.6895 2.0255001 0.456 2
15.7775 1.9815 0.46000001 2
15.7275 1.9735 0.433 2
15.6965 2.0055001 0.44400001 2
15.6905 2.0125 0.447 2
15.7095 2.0014999 0.44600001 2
15.7445 1.9515001 0.42300001 2
15.7165 2.0005 0.44800001 2
15.7425 1.9655 0.433 2
15.6905 2.0204999 0.45300001 2
15.6285 2.0574999 0.454 2
15.7425 1.9405 0.414 2
15.6555 2.0455 0.45699999 2
15.7785 1.9665 0.449 2
15.6545 2.0385001 0.45100001 2
15.7535 1.9615 0.43399999 2
15.7335 1.9885 0.447 2
15.7425 1.9485 0.41999999 2
15.7145 2.0144999 0.458 2
15.7375 1.9755 0.43799999 2
15.7035 1.9875 0.433 2
15.6825 2.0135 0.44400001 2
15.6505 2.0525 0.46000001 2
15.6925 1.9945 0.43399999 2
15.7025 1.9965 0.44 2
15.6145 2.0734999 0.461 2
15.6985 1.9855 0.42899999 2
15.7575 1.9505 0.428 2
15.7235 2.0014999 0.45199999 2
15.6865 1.9995 0.435 2
15.6155 2.0715001 0.45899999 2
15.7295 1.9875 0.44400001 2
15.6515 2.0365 0.44800001 2
15.7355 1.9974999 0.454 2
15.7555 1.9955 0.461 2
15.6615 2.0235 0.442 2
15.6715 2.0125 0.43799999 2
15.7175 2.0014999 0.449 2
15.7665 1.9885 0.461 2
15.7275 1.9645 0.426 2
15.6795 2.0125 0.442 2
15.7535 1.9945 0.45899999 2
15.7355 2.0044999 0.45899999 2
15.7165 1.9875 0.43799999 2
15.7175 2.0144999 0.45899999 2
15.7415 1.9475 0.419 2
15.7575 1.9475 0.426 2
15.7345 1.9585 0.42500001 2
15.6605 2.0425 0.456 2
15.6905 1.9985 0.43599999 2
15.7225 1.9915 0.44299999 2
15.7575 2.3115001 0.44800001 2
15.6835 2.3325 0.456 2
15.6825 2.2525001 0.43799999 2
15.6315 2.3125 0.45300001 2
15.6255 2.2605 0.44100001 2
15.6665 2.3515 0.46000001 2
15.6235 2.3385 0.45899999 2
15.7225 2.2874999 0.44400001 2
15.6425 2.3004999 0.44999999 2
15.6855 2.2625 0.43900001 2
15.5835 2.3325 0.45899999 2
15.7665 2.3555 0.458 2
15.7735 2.3295 0.45199999 2
15.6965 2.3275001 0.454 2
15.7665 2.2995 0.44499999 2
15.6655 2.3164999 0.45199999 2
15.6965 2.3564999 0.46000001 2
15.6345 2.3085001 0.45199999 2
15.7805 2.3505001 0.456 2
15.7415 2.3625 0.46000001 2
15.7855 2.3655 0.45899999 2
15.7475 2.3764999 0.463 2
15.7015 2.2605 0.43900001 2
15.5955 2.2755001 0.44600001 2
15.6315 2.3275001 0.456 2
15.6865 2.3494999 0.45899999 2
15.7285 2.2865 0.44299999 2
15.6145 2.2955 0.44999999 2
15.7835 2.3625 0.45899999 2
15.6865 2.2385001 0.43399999 2
15.6165 2.3295 0.45699999 2
15.7345 2.3605001 0.46000001 2
15.7625 2.3515 0.45699999 2
15.6065 2.3225 0.456 2
15.7105 2.3364999 0.45500001 2
15.7045 2.3115001 0.44999999 2
15.6675 2.3125 0.45199999 2
15.5775 2.3045001 0.45300001 2
15.6075 2.2885001 0.44800001 2
15.5865 2.3185 0.456 2
15.6845 2.2455001 0.43599999 2
15.7595 2.3345001 0.45300001 2
15.6425 2.3285 0.456 2
15.7775 2.3415 0.454 2
15.6795 2.3204999 0.45300001 2
15.7995 2.3775001 0.46200001 2
15.6485 2.2135 0.43000001 2
15.7755 2.3134999 0.44800001 2
15.6915 2.3315001 0.45500001 2
15.7745 2.3104999 0.447 2
15.7625 2.3315001 0.45199999 2
15.7605 2.3434999 0.45500001 2
15.8105 2.3505001 0.45500001 2
15.7445 2.3405001 0.45500001 2
15.6715 2.2444999 0.43599999 2
15.8015 2.3494999 0.45500001 2
15.7135 2.3485 0.458 2
15.7185 2.3045001 0.44800001 2
15.6325 2.2644999 0.442 2
15.6835 2.2474999 0.43599999 2
15.6925 2.3334999 0.45500001 2
15.8135 2.3685 0.45899999 2
15.6175 2.2674999 0.44299999 2
15.7345 2.3325 0.454 2
15.6385 2.2395 0.43599999 2
15.6075 2.2774999 0.44600001 2
15.6655 2.3534999 0.461 2
15.6195 2.3375001 0.45899999 2
15.6145 2.3134999 0.454 2
15.7755 2.3525 0.45699999 2
15.7535 2.3004999 0.44600001 2
15.6955 2.2514999 0.43700001 2
15.6975 2.2355001 0.433 2
15.6145 2.3334999 0.458 2
15.6995 2.2865 0.44400001 2
15.6815 2.2335 0.433 2
15.6145 2.3115001 0.45300001 2
15.6885 2.3475001 0.45899999 2
15.6895 2.3025 0.44800001 2
15.7365 2.3195 0.45100001 2
15.7415 2.3645 0.461 2
15.6935 2.3455 0.458 2
15.6425 2.2565 0.44 2
15.6575 2.3405001 0.458 2
15.6345 2.3004999 0.44999999 2
15.5875 2.3215001 0.45699999 2
15.7825 2.3615 0.45899999 2
15.6965 2.2585001 0.43799999 2
15.6625 2.3395 0.458 2
15.7455 2.3345001 0.454 2
15.7925 2.3615 0.458 2
15.7925 2.3325 0.45199999 2
15.7425 2.3104999 0.44800001 2
15.7805 2.3494999 0.456 2
15.8395 2.3935001 0.46399999 2
15.7155 2.2485001 0.435 2
15.6625 2.3364999 0.45699999 2
15.6525 2.2084999 0.42899999 2
15.6975 2.3555 0.46000001 2
15.6145 2.2955 0.44999999 2
15.6785 2.2915001 0.44600001 2
15.6445 2.2755001 0.44400001 2
15.8085 2.3555 0.456 2
15.6625 2.2774999 0.44400001 2
15.7015 2.2405 0.43399999 2
15.7195 2.2655001 0.43900001 2
