# .PCD v0.7 - Point Cloud Data file format
VERSION 0.7
FIELDS x y z label
SIZE 4 4 4 4
TYPE F F F U
COUNT 1 1 1 1
WIDTH 1628
HEIGHT 1
VIEWPOINT 0 0 0 1 0 0 0
POINTS 1628
DATA ascii
16.6075 2.7005 0.46399999 2
16.6535 2.7414999 0.44999999 2
16.5145 2.6975 0.458 2
16.7155 2.7365 0.45699999 2
16.5345 2.7155001 0.45199999 2
16.5835 2.7075 0.45899999 2
16.5035 2.6815 0.46399999 2
16.6085 2.7065001 0.46200001 2
16.5875 2.7365 0.44800001 2
16.6625 2.7414999 0.45100001 2
16.6805 2.7344999 0.45500001 2
16.501499 2.6805 0.46399999 2
16.6215 2.7314999 0.45199999 2
16.6325 2.7395 0.44999999 2
16.6085 2.7045 0.46200001 2
16.7055 2.7284999 0.46000001 2
16.546499 2.7084999 0.456 2
16.491501 2.6824999 0.46200001 2
16.634501 2.7495 0.44600001 2
16.564501 2.7365 0.44600001 2
16.650499 2.2874999 0.796 2
16.5625 2.3045001 0.78600001 2
16.6485 2.2785001 0.80000001 2
16.5945 2.3055 0.787 2
16.5895 2.2925 0.792 2
16.6675 2.2915001 0.79500002 2
16.6255 2.2665 0.80299997 2
16.5205 2.3175001 0.77899998 2
16.6175 2.3045001 0.78799999 2
16.584499 2.2874999 0.79299998 2
16.584499 2.3015001 0.78799999 2
16.6285 2.3095 0.787 2
16.623501 2.3065 0.78799999 2
16.623501 2.2965 0.792 2
16.650499 2.2844999 0.79699999 2
16.571501 2.2874999 0.79299998 2
16.5735 2.3125 0.78299999 2
16.678499 2.2755001 0.80199999 2
16.637501 2.2815001 0.79799998 2
16.5875 2.3095 0.78500003 2
16.599501 2.2915001 0.792 2
16.5735 2.3115001 0.78399998 2
16.6015 2.2855 0.79500002 2
16.609501 2.2765 0.79900002 2
16.7255 2.2825 0.801 2
16.6485 2.2544999 0.80900002 2
16.657499 2.2565 0.80800003 2
16.501499 2.3304999 0.773 2
16.5805 2.3185 0.78100002 2
16.6565 2.2735 0.80199999 2
16.584499 2.2925 0.79100001 2
16.622499 2.3074999 0.787 2
16.561501 2.3104999 0.78299999 2
16.570499 2.2915001 0.79100001 2
16.5035 2.3255 0.77499998 2
16.6015 2.2795 0.79699999 2
16.6075 2.3104999 0.78500003 2
16.6665 2.2495 0.81099999 2
16.620501 2.3055 0.78799999 2
16.550501 2.3104999 0.78299999 2
16.4795 2.3364999 0.76999998 2
16.6415 2.2605 0.80599999 2
16.5975 2.3025 0.78799999 2
16.6105 2.2995 0.79000002 2
16.6175 2.3055 0.78799999 2
16.7045 2.2885001 0.79799998 2
16.6595 2.2595 0.80699998 2
16.6315 2.2514999 0.80900002 2
16.543501 2.3204999 0.77899998 2
16.7115 2.2925 0.79699999 2
16.6255 2.2585001 0.80599999 2
16.5355 2.3095 0.78299999 2
16.5825 2.2804999 0.796 2
16.634501 2.2644999 0.80400002 2
16.717501 2.2885001 0.79900002 2
16.547501 2.3034999 0.78500003 2
16.7005 2.2725 0.80400002 2
16.6385 2.2595 0.80599999 2
16.654499 2.2535 0.80900002 2
16.508499 2.3195 0.77700001 2
16.703501 2.2735 0.80400002 2
16.6485 2.2725 0.80199999 2
16.644501 2.2635 0.80500001 2
16.679501 2.2995 0.79299998 2
16.497499 2.3304999 0.773 2
16.5835 2.3095 0.78500003 2
16.657499 2.2574999 0.80800003 2
16.6385 2.2995 0.79100001 2
16.6455 2.3034999 0.79000002 2
16.6695 2.2565 0.80900002 2
16.717501 2.2865 0.79900002 2
16.6695 2.2695 0.80400002 2
16.6625 2.2835 0.79799998 2
16.627501 2.2514999 0.80900002 2
16.6145 2.2644999 0.80299997 2
16.567499 2.3045001 0.78600001 2
16.6675 2.2605 0.80699998 2
16.5245 2.3204999 0.778 2
16.599501 2.3015001 0.78799999 2
16.5945 2.3145001 0.78299999 2
16.612499 2.2725 0.80000001 2
16.664499 2.2505 0.81099999 2
16.675501 2.2614999 0.80699998 2
16.5805 2.3134999 0.78299999 2
16.7225 2.2874999 0.79900002 2
16.629499 2.2795 0.79799998 2
16.6695 2.2865 0.79699999 2
16.678499 2.2755001 0.80199999 2
16.6015 2.2674999 0.80199999 2
16.672501 2.2835 0.79900002 2
16.5495 2.3025 0.78600001 2
16.5625 2.3034999 0.78600001 2
16.6075 2.2655001 0.80199999 2
16.630501 2.2674999 0.80299997 2
16.564501 2.3355 0.458 2
16.5585 2.3275001 0.46200001 2
16.571501 2.3405001 0.45500001 2
16.5455 2.3475001 0.45899999 2
16.5585 2.3475001 0.456 2
16.5585 2.3345001 0.46000001 2
16.5305 2.3445001 0.463 2
16.5375 2.3364999 0.46399999 2
16.5355 2.3345001 0.465 2
16.5515 2.3505001 0.45699999 2
16.5315 2.3445001 0.463 2
16.5555 2.3285 0.46200001 2
16.5905 2.3315001 0.454 2
16.592501 2.3204999 0.45699999 2
16.5555 2.3334999 0.461 2
16.5235 2.3334999 0.46799999 2
16.5595 2.5895 0.449 2
16.6145 2.5675001 0.44400001 2
16.509501 2.6454999 0.46000001 2
16.6425 2.5404999 0.43799999 2
16.622499 2.5534999 0.44100001 2
16.532499 2.6305001 0.45699999 2
16.665501 2.5685 0.44299999 2
16.619499 2.5625 0.44299999 2
16.6605 2.5804999 0.44499999 2
16.6625 2.4944999 0.42899999 2
16.661501 2.5504999 0.44 2
16.640499 2.5455 0.43900001 2
16.5945 2.5685 0.44400001 2
16.6905 2.5725 0.44299999 2
16.564501 2.5675001 0.44400001 2
16.5455 2.6294999 0.45699999 2
16.592501 2.5964999 0.449 2
16.526501 2.6215 0.45500001 2
16.585501 2.5964999 0.44999999 2
16.5755 2.6034999 0.45100001 2
16.7055 2.5725 0.44299999 2
16.588499 2.6164999 0.45300001 2
16.620501 2.6034999 0.44999999 2
16.5965 2.6125 0.45300001 2
16.5975 2.5895 0.44800001 2
16.5005 2.6445 0.46000001 2
16.6485 2.5044999 0.43099999 2
16.6385 2.5374999 0.43799999 2
16.5975 2.5655 0.44400001 2
16.6395 2.5845001 0.44600001 2
16.668501 2.5925 0.447 2
16.5585 2.6264999 0.456 2
16.695499 2.5645001 0.442 2
16.4995 2.6345 0.458 2
16.5945 2.5864999 0.44800001 2
16.5215 2.6235001 0.456 2
16.6355 2.5255001 0.435 2
16.585501 2.5985 0.44999999 2
16.525499 2.6285 0.45699999 2
16.6765 2.5595 0.44100001 2
16.703501 2.5755 0.44400001 2
16.515499 2.6185 0.45500001 2
16.651501 2.5895 0.447 2
16.6565 2.5804999 0.44499999 2
16.6835 2.5344999 0.43599999 2
16.525499 2.6294999 0.45699999 2
16.5975 2.5465 0.44 2
16.6385 2.5044999 0.43099999 2
16.685499 2.5615001 0.44100001 2
16.686501 2.5745001 0.44400001 2
16.5825 2.6224999 0.45500001 2
16.6245 2.5785 0.44499999 2
16.606501 2.5734999 0.44499999 2
16.7055 2.5775001 0.44400001 2
16.5655 2.6224999 0.45500001 2
16.570499 2.6015 0.45100001 2
16.615499 2.5715001 0.44400001 2
16.6555 2.5495 0.44 2
16.6015 2.5845001 0.447 2
16.703501 2.5685 0.442 2
16.4865 2.6524999 0.46200001 2
16.5455 2.6105001 0.45300001 2
16.6245 2.6045001 0.44999999 2
16.6985 2.5595 0.44100001 2
16.581499 2.5885 0.44800001 2
16.599501 2.5625 0.44299999 2
16.567499 2.5945001 0.449 2
16.6765 2.5875001 0.44600001 2
16.671499 2.5144999 0.433 2
16.6285 2.5804999 0.44600001 2
16.678499 2.5895 0.447 2
16.591499 2.6034999 0.45100001 2
16.675501 2.5785 0.44499999 2
16.5525 2.6235001 0.45500001 2
16.6285 2.5545001 0.44100001 2
16.6325 2.5905001 0.44800001 2
16.630501 2.5225 0.435 2
16.5175 2.6115 0.454 2
16.5795 2.5975001 0.44999999 2
16.5145 2.6255 0.456 2
16.5805 2.5795 0.447 2
16.6215 2.5404999 0.43799999 2
16.6695 2.5715001 0.44299999 2
16.5875 2.6064999 0.45100001 2
16.685499 2.5755 0.44400001 2
16.6555 2.5775001 0.44499999 2
16.553499 2.5864999 0.44800001 2
16.6495 2.5125 0.433 2
16.6115 2.5434999 0.43900001 2
16.5035 2.6305001 0.45699999 2
16.518499 2.6454999 0.46000001 2
16.629499 2.6015 0.44999999 2
16.592501 2.5925 0.449 2
16.5065 2.6315 0.458 2
16.588499 2.5775001 0.44600001 2
16.6105 2.5534999 0.44100001 2
16.5585 2.5734999 0.44600001 2
16.6175 2.5634999 0.44299999 2
16.6415 2.4995 0.43000001 2
16.504499 2.6294999 0.45699999 2
16.6245 2.5615001 0.442 2
16.689501 2.5864999 0.44600001 2
16.5695 2.6075001 0.45199999 2
16.5905 2.5785 0.44600001 2
16.511499 2.6394999 0.45899999 2
16.615499 2.6025 0.44999999 2
16.4935 2.6485 0.461 2
16.536501 2.6135001 0.454 2
16.6215 2.5235 0.435 2
16.6905 2.5504999 0.43900001 2
16.578501 2.5855 0.44800001 2
16.5975 2.5495 0.44 2
16.6285 2.5185001 0.43399999 2
16.665501 2.5485001 0.43900001 2
16.6535 2.5855 0.44600001 2
16.526501 2.6245 0.456 2
16.5765 2.5925 0.449 2
16.615499 2.5504999 0.44 2
16.6455 2.5155001 0.433 2
16.595501 2.5455 0.44 2
16.6765 2.5764999 0.44400001 2
16.613501 2.5255001 0.43599999 2
16.588499 2.6025 0.45100001 2
16.6835 2.5725 0.44299999 2
16.634501 2.5615001 0.442 2
16.6775 2.5905001 0.447 2
16.619499 2.5204999 0.435 2
16.6535 2.5485001 0.43900001 2
16.606501 2.6075001 0.45100001 2
16.650499 2.5655 0.44299999 2
16.5765 2.6145 0.45300001 2
16.598499 2.5485001 0.44 2
16.5355 2.6105001 0.45300001 2
16.5965 2.6015 0.44999999 2
16.525499 2.6264999 0.456 2
16.6635 2.5225 0.43399999 2
16.664499 2.5404999 0.43799999 2
16.6015 2.5504999 0.44100001 2
16.650499 2.5585001 0.44100001 2
16.6175 2.5374999 0.43799999 2
16.6525 2.5474999 0.43900001 2
16.626499 2.5725 0.44400001 2
16.605499 2.5525 0.44100001 2
16.5975 2.5925 0.449 2
16.616501 2.5834999 0.447 2
16.6455 2.5055001 0.43099999 2
16.644501 2.5335 0.43700001 2
16.6455 2.5315001 0.43599999 2
16.671499 2.5915 0.447 2
16.658501 2.5225 0.43399999 2
16.671499 2.5804999 0.44499999 2
16.644501 2.5365 0.43700001 2
16.529499 2.6415 0.45899999 2
16.606501 2.3234999 0.75199997 2
16.5965 2.3304999 0.736 2
16.5805 2.3375001 0.72100002 2
16.679501 2.3115001 0.75700003 2
16.592501 2.3264999 0.75099999 2
16.512501 2.3395 0.74699998 2
16.508499 2.3355 0.76099998 2
16.5865 2.3375001 0.72000003 2
16.647499 2.3104999 0.77499998 2
16.6625 2.3255 0.72000003 2
16.6415 2.3085001 0.78399998 2
16.637501 2.3085001 0.78600001 2
16.626499 2.3364999 0.70099998 2
16.647499 2.3164999 0.75599998 2
16.602501 2.3225 0.75800002 2
16.6635 2.3315001 0.70099998 2
16.570499 2.3264999 0.75999999 2
16.6875 2.3095 0.759 2
16.630501 2.3415 0.685 2
16.5315 2.3304999 0.76700002 2
16.6525 2.3175001 0.75099999 2
16.6015 2.3255 0.74900001 2
16.658501 2.3104999 0.76700002 2
16.6315 2.3195 0.75199997 2
16.613501 2.3264999 0.74000001 2
16.6285 2.3464999 0.67000002 2
16.6775 2.3015001 0.787 2
16.7055 2.2985001 0.78399998 2
16.599501 2.3195 0.76800001 2
16.612499 2.3145001 0.77899998 2
16.6395 2.3395 0.68599999 2
16.591499 2.3255 0.755 2
16.6105 2.3134999 0.78100002 2
16.6285 2.3155 0.76599997 2
16.5945 2.3385 0.71100003 2
16.616501 2.3455 0.67900002 2
16.5945 2.3204999 0.76700002 2
16.5285 2.3285 0.77399999 2
16.6975 2.3065 0.76300001 2
16.615499 2.3264999 0.73799998 2
16.6245 2.3134999 0.77499998 2
16.5895 2.3245001 0.75800002 2
16.5165 2.3405001 0.74199998 2
16.5975 2.3175001 0.77600002 2
16.536501 2.3415 0.72899997 2
16.689501 2.3155 0.73699999 2
16.6735 2.3164999 0.74299997 2
16.5135 2.3325 0.76899999 2
16.588499 2.3455 0.69099998 2
16.5935 2.3234999 0.75800002 2
16.564501 2.3405001 0.71899998 2
16.554501 2.3285 0.76300001 2
16.6175 2.3405001 0.69499999 2
16.703501 2.2955 0.79500002 2
16.6245 2.3215001 0.75199997 2
16.5135 2.3325 0.76899999 2
16.585501 2.3345001 0.727 2
16.598499 2.3364999 0.71499997 2
16.584499 2.3204999 0.77100003 2
16.5735 2.3275001 0.75599998 2
16.508499 2.3355 0.75999999 2
16.6245 2.3115001 0.78200001 2
16.686501 2.3055 0.77100003 2
16.539499 2.3405001 0.73100001 2
16.633499 2.3425 0.68099999 2
16.6525 2.3204999 0.741 2
16.6015 2.3295 0.73699999 2
16.5695 2.3364999 0.72899997 2
16.615499 2.3304999 0.72500002 2
16.5585 2.3264999 0.76700002 2
16.682501 2.3055 0.77200001 2
16.616501 2.3164999 0.77100003 2
16.536501 2.3415 0.72799999 2
16.668501 2.3285 0.70700002 2
16.6105 2.3255 0.745 2
16.7045 2.2995 0.77999997 2
16.6845 2.3025 0.78299999 2
16.671499 2.3025 0.787 2
16.5865 2.3255 0.755 2
16.5555 2.3275001 0.76300001 2
16.6805 2.3155 0.741 2
16.6005 2.3315001 0.72899997 2
16.4855 2.3375001 0.76599997 2
16.6415 2.3155 0.76200002 2
16.634501 2.3375001 0.69499999 2
16.4795 2.3385 0.76499999 2
16.6425 2.3104999 0.77700001 2
16.5765 2.3445001 0.70200002 2
16.5945 2.3225 0.76300001 2
16.629499 2.3125 0.77700001 2
16.5355 2.3425 0.72799999 2
16.6975 2.3034999 0.773 2
16.584499 2.3334999 0.73000002 2
16.595501 2.3215001 0.76300001 2
16.6035 2.3255 0.74900001 2
16.7155 2.2955 0.78899997 2
16.6915 2.3145001 0.741 2
16.571501 2.3425 0.71100003 2
16.688499 2.3164999 0.736 2
16.598499 2.3375001 0.713 2
16.5975 2.3434999 0.69499999 2
16.599501 2.3215001 0.764 2
16.5305 2.3405001 0.73500001 2
16.622499 2.3234999 0.745 2
16.6775 2.3145001 0.74800003 2
16.5105 2.3395 0.74699998 2
16.5795 2.3264999 0.75700003 2
16.6695 2.3175001 0.74199998 2
16.532499 2.3355 0.75099999 2
16.4995 2.3334999 0.77100003 2
16.5415 2.3285 0.76800001 2
16.615499 2.3255 0.74199998 2
16.6805 2.3025 0.78299999 2
16.6485 2.3285 0.71700001 2
16.563499 2.3315001 0.74800003 2
16.636499 2.3145001 0.76800001 2
16.581499 2.3385 0.71600002 2
16.5865 2.3185 0.778 2
16.681499 2.3134999 0.74699998 2
16.518499 2.3385 0.74800003 2
16.6495 2.3245001 0.72899997 2
16.584499 2.3364999 0.72299999 2
16.525499 2.3385 0.74299997 2
16.5175 2.3364999 0.75599998 2
16.5905 2.3215001 0.76499999 2
16.5835 2.3275001 0.75199997 2
16.6905 2.2985001 0.792 2
16.6395 2.3095 0.78200001 2
16.533501 2.3385 0.74199998 2
16.623501 2.3385 0.69599998 2
16.546499 2.3375001 0.736 2
16.7055 2.3025 0.773 2
16.6385 2.3134999 0.76899999 2
16.5665 2.3295 0.75400001 2
16.689501 2.3115001 0.75199997 2
16.6675 2.3215001 0.72899997 2
16.5415 2.3304999 0.76300001 2
16.5285 2.3334999 0.75800002 2
16.636499 2.3115001 0.77600002 2
16.6115 2.3295 0.73199999 2
16.730499 2.2925 0.792 2
16.6625 2.3275001 0.71200001 2
16.634501 2.3234999 0.74000001 2
16.4785 2.3385 0.76700002 2
16.6845 2.3164999 0.73699999 2
16.682501 2.3045001 0.77499998 2
16.636499 2.3155 0.76200002 2
16.620501 2.3295 0.72799999 2
16.6455 2.3215001 0.73900002 2
16.5935 2.3345001 0.72399998 2
16.6425 2.3355 0.69800001 2
16.6015 2.3334999 0.72399998 2
16.4895 2.3385 0.76099998 2
16.599501 2.3285 0.741 2
16.5795 2.3425 0.70499998 2
16.6015 2.3455 0.685 2
16.695499 2.2985001 0.78899997 2
16.5555 2.3425 0.71899998 2
16.5075 2.3395 0.74800003 2
16.612499 2.3125 0.78399998 2
16.643499 2.3285 0.71899998 2
16.5835 2.3455 0.69599998 2
16.7155 2.2934999 0.796 2
16.6215 2.3315001 0.71899998 2
16.657499 2.3155 0.75400001 2
16.6635 2.3085001 0.773 2
16.675501 2.3065 0.773 2
16.699499 2.3085001 0.75400001 2
16.658501 2.3264999 0.71799999 2
16.599501 2.3415 0.69999999 2
16.561501 2.3325 0.74599999 2
16.5065 2.3355 0.76200002 2
16.605499 2.3195 0.76599997 2
16.664499 2.3155 0.75 2
16.6705 2.3164999 0.74400002 2
16.519501 2.3345001 0.759 2
16.6035 2.3494999 0.44999999 2
16.6315 2.4275 0.43700001 2
16.630501 2.3924999 0.442 2
16.585501 2.3735001 0.449 2
16.6455 2.4405 0.43399999 2
16.626499 2.4015 0.44100001 2
16.6005 2.4005001 0.44400001 2
16.629499 2.4514999 0.435 2
16.615499 2.3835001 0.44400001 2
16.627501 2.3715 0.44400001 2
16.5935 2.3855 0.447 2
16.5735 2.3585 0.45300001 2
16.588499 2.3724999 0.449 2
16.636499 2.4454999 0.43399999 2
16.6415 2.4154999 0.43700001 2
16.622499 2.4254999 0.43900001 2
16.6035 2.3525 0.44999999 2
16.5665 2.3764999 0.45199999 2
16.627501 2.3905001 0.442 2
16.636499 2.4135001 0.43799999 2
16.574499 2.3534999 0.45300001 2
16.6185 2.3715 0.44600001 2
16.650499 2.4554999 0.43200001 2
16.6425 2.4425001 0.43399999 2
16.5875 2.3375001 0.45300001 2
16.5935 2.3985 0.44600001 2
16.584499 2.3965001 0.447 2
16.6245 2.4345 0.43700001 2
16.6495 2.4675 0.43000001 2
16.630501 2.4015 0.44 2
16.570499 2.3434999 0.45500001 2
16.6415 2.4324999 0.435 2
16.616501 2.3655 0.447 2
16.627501 2.3585 0.44600001 2
16.6395 2.4354999 0.435 2
16.547501 2.3575001 0.456 2
16.622499 2.3735001 0.44499999 2
16.616501 2.4054999 0.442 2
16.5965 2.4115 0.44299999 2
16.567499 2.3715 0.45199999 2
16.6035 2.3625 0.449 2
16.6105 2.3915 0.44400001 2
16.5725 2.3864999 0.44999999 2
16.5975 2.4145 0.44299999 2
16.6485 2.4514999 0.43200001 2
16.6005 2.3954999 0.44499999 2
16.599501 2.3764999 0.447 2
16.6325 2.3815 0.44299999 2
16.5795 2.3905001 0.44800001 2
16.626499 2.3605001 0.44600001 2
16.6085 2.3345001 0.45100001 2
16.612499 2.4354999 0.43900001 2
16.6425 2.4445 0.43399999 2
16.5695 2.3485 0.454 2
16.606501 2.3885 0.44499999 2
16.5735 2.3694999 0.45100001 2
16.6255 2.3575001 0.44600001 2
16.5695 2.3515 0.454 2
16.5735 2.3585 0.45300001 2
16.571501 2.3505001 0.454 2
16.6465 2.4425001 0.43399999 2
16.6105 2.3805001 0.44499999 2
16.620501 2.4035001 0.44100001 2
16.5585 2.3635001 0.454 2
16.6175 2.3515 0.44800001 2
16.574499 2.3855 0.449 2
16.6255 2.4475 0.43599999 2
16.571501 2.3485 0.454 2
16.571501 2.3805001 0.44999999 2
16.630501 2.4514999 0.43399999 2
16.612499 2.3615 0.447 2
16.6015 2.4075 0.44299999 2
16.633499 2.4405 0.435 2
16.560499 2.3494999 0.456 2
16.6395 2.4215 0.43700001 2
16.6465 2.4525001 0.43200001 2
16.6255 2.3434999 0.44800001 2
16.5865 2.3405001 0.45300001 2
16.556499 2.3735001 0.45300001 2
16.5735 2.6415 0.46000001 2
16.5805 2.6264999 0.45500001 2
16.7255 2.5985 0.44999999 2
16.7215 2.5925 0.44800001 2
16.7265 2.5985 0.44999999 2
16.7115 2.5975001 0.449 2
16.529499 2.6485 0.461 2
16.7225 2.5925 0.44800001 2
16.7155 2.6064999 0.45199999 2
16.6015 2.6215 0.454 2
16.6595 2.6164999 0.454 2
16.4865 2.6585 0.463 2
16.5315 2.6445 0.46000001 2
16.706499 2.5885 0.44600001 2
16.5495 2.6405001 0.45899999 2
16.5215 2.6515 0.46200001 2
16.7215 2.6055 0.45199999 2
16.574499 2.6394999 0.45899999 2
16.564501 2.6435001 0.46000001 2
16.716499 2.6055 0.45199999 2
16.6495 2.6105001 0.45199999 2
16.5825 2.6245 0.45500001 2
16.6765 2.6164999 0.45500001 2
16.689501 2.6045001 0.45100001 2
16.710501 2.5955 0.449 2
16.7075 2.5864999 0.44600001 2
16.654499 2.6164999 0.454 2
16.686501 2.6175001 0.45500001 2
16.6005 2.6394999 0.46000001 2
16.6495 2.6235001 0.456 2
16.7155 2.5885 0.447 2
16.518499 2.6505001 0.461 2
16.563499 2.6415 0.46000001 2
16.7125 2.5864999 0.44600001 2
16.6255 2.6215 0.45500001 2
16.6525 2.6034999 0.44999999 2
16.553499 2.6415 0.46000001 2
16.671499 2.6164999 0.454 2
16.7155 2.6045001 0.45199999 2
16.706499 2.6045001 0.45100001 2
16.688499 2.5975001 0.449 2
16.688499 2.5905001 0.447 2
16.5595 2.6415 0.46000001 2
16.6115 2.6175001 0.454 2
16.6385 2.6075001 0.45100001 2
16.6315 2.6175001 0.454 2
16.5525 2.6405001 0.45899999 2
16.6245 2.6135001 0.45199999 2
16.650499 2.6125 0.45300001 2
16.7225 2.5985 0.44999999 2
16.713499 2.5994999 0.44999999 2
16.6535 2.6215 0.45500001 2
16.571501 2.6394999 0.45899999 2
16.7045 2.6145 0.454 2
16.682501 2.5925 0.447 2
16.6735 2.6345 0.458 2
16.477501 2.6705 0.465 2
16.540501 2.6654999 0.463 2
16.706499 2.6554999 0.458 2
16.6745 2.6505001 0.45899999 2
16.7185 2.6185 0.45500001 2
16.738501 2.6405001 0.456 2
16.6605 2.6615 0.46000001 2
16.724501 2.6394999 0.45699999 2
16.7185 2.6594999 0.458 2
16.5285 2.6635001 0.463 2
16.613501 2.6965001 0.463 2
16.5485 2.6585 0.46200001 2
16.6355 2.6394999 0.45899999 2
16.6415 2.6724999 0.461 2
16.748501 2.7284999 0.46200001 2
16.4825 2.6654999 0.465 2
16.678499 2.6594999 0.45899999 2
16.6975 2.6245 0.456 2
16.6215 2.6875 0.463 2
16.578501 2.6675 0.46200001 2
16.495501 2.6594999 0.46399999 2
16.7295 2.7244999 0.46200001 2
16.686501 2.6925001 0.461 2
16.6245 2.6775 0.46200001 2
16.501499 2.6635001 0.46399999 2
16.713499 2.6624999 0.45899999 2
16.7195 2.6615 0.458 2
16.693501 2.7165 0.463 2
16.6915 2.6385 0.458 2
16.563499 2.6535001 0.46200001 2
16.7005 2.6954999 0.461 2
16.6455 2.6954999 0.463 2
16.731501 2.7235 0.46200001 2
16.626499 2.6405001 0.45899999 2
16.498501 2.6624999 0.46399999 2
16.495501 2.6715 0.465 2
16.518499 2.6635001 0.46399999 2
16.7125 2.6515 0.458 2
16.706499 2.6824999 0.46000001 2
16.6665 2.6805 0.461 2
16.5725 2.6565001 0.46200001 2
16.723499 2.7084999 0.46200001 2
16.658501 2.6965001 0.46200001 2
16.7145 2.7114999 0.46200001 2
16.561501 2.6884999 0.46399999 2
16.4835 2.6675 0.465 2
16.634501 2.6594999 0.46000001 2
16.7225 2.6624999 0.458 2
16.6945 2.7175 0.463 2
16.6735 2.6275001 0.45699999 2
16.7085 2.6445 0.45699999 2
16.6495 2.6315 0.458 2
16.613501 2.6925001 0.463 2
16.5735 2.6645 0.46200001 2
16.568501 2.6724999 0.463 2
16.6085 2.6535001 0.461 2
16.6075 2.6984999 0.46399999 2
16.741501 2.6194999 0.45500001 2
16.5825 2.6615 0.46200001 2
16.7425 2.6724999 0.45899999 2
16.623501 2.6914999 0.463 2
16.473499 2.6715 0.465 2
16.685499 2.7135 0.463 2
16.7055 2.7165 0.46200001 2
16.5935 2.6585 0.461 2
16.720501 2.6624999 0.458 2
16.7085 2.6324999 0.45699999 2
16.5215 2.6635001 0.463 2
16.7055 2.6285 0.45699999 2
16.734501 2.7225001 0.46200001 2
16.5175 2.6705 0.46399999 2
16.741501 2.6875 0.46000001 2
16.7115 2.6775 0.46000001 2
16.717501 2.6684999 0.45899999 2
16.748501 2.6884999 0.45899999 2
16.7365 2.6835001 0.45899999 2
16.5455 2.6795001 0.46399999 2
16.6805 2.7065001 0.46200001 2
16.6175 2.6784999 0.46200001 2
16.622499 2.6454999 0.46000001 2
16.522499 2.6705 0.46399999 2
16.644501 2.6724999 0.461 2
16.699499 2.6305001 0.45699999 2
16.4865 2.6645 0.46399999 2
16.6775 2.7125001 0.463 2
16.702499 2.6594999 0.45899999 2
16.6535 2.6835001 0.46200001 2
16.689501 2.7165 0.463 2
16.563499 2.6594999 0.46200001 2
16.6905 2.6594999 0.45899999 2
16.6045 2.6745 0.46200001 2
16.6005 2.6775 0.46200001 2
16.6045 2.6715 0.46200001 2
16.741501 2.7284999 0.46200001 2
16.6525 2.6815 0.461 2
16.706499 2.6394999 0.45699999 2
16.529499 2.6545 0.463 2
16.6115 2.6445 0.46000001 2
16.5585 2.6505001 0.46200001 2
16.7185 2.7105 0.46200001 2
16.602501 2.6575 0.461 2
16.6745 2.6554999 0.45899999 2
16.741501 2.7135 0.461 2
16.6045 2.6405001 0.46000001 2
16.6735 2.6264999 0.45699999 2
16.6115 2.6745 0.46200001 2
16.620501 2.6665001 0.461 2
16.5965 2.6585 0.461 2
16.6915 2.6845 0.461 2
16.6325 2.6745 0.461 2
16.7255 2.6255 0.456 2
16.567499 2.6695001 0.463 2
16.5215 2.6805 0.465 2
16.738501 2.7155001 0.46200001 2
16.6085 2.6454999 0.46000001 2
16.682501 2.6954999 0.46200001 2
16.5895 2.6594999 0.46200001 2
16.668501 2.6975 0.46200001 2
16.7225 2.6435001 0.45699999 2
16.5875 2.6845 0.463 2
16.6695 2.6905 0.46200001 2
16.494499 2.6754999 0.465 2
16.6765 2.6615 0.45899999 2
16.716499 2.6735001 0.45899999 2
16.6835 2.6945 0.461 2
16.6975 2.6565001 0.45899999 2
16.5495 2.6775 0.46399999 2
16.5425 2.6735001 0.46399999 2
16.473499 2.6684999 0.465 2
16.5075 2.6754999 0.465 2
16.5555 2.6815 0.46399999 2
16.540501 2.6824999 0.46399999 2
16.7215 2.6524999 0.458 2
16.644501 2.6684999 0.461 2
16.741501 2.7075 0.461 2
16.658501 2.6765001 0.461 2
16.745501 2.6524999 0.45699999 2
16.5655 2.6465001 0.461 2
16.730499 2.7125001 0.46200001 2
16.6425 2.7025001 0.463 2
16.7465 2.6394999 0.456 2
16.6635 2.6475 0.45899999 2
16.647499 2.6775 0.461 2
16.6705 2.6975 0.46200001 2
16.747499 2.7255001 0.46200001 2
16.7295 2.7184999 0.46200001 2
16.6015 2.6784999 0.463 2
16.7465 2.7075 0.461 2
16.5065 2.6715 0.46399999 2
16.695499 2.6654999 0.45899999 2
16.7145 2.6965001 0.461 2
16.7195 2.6925001 0.461 2
16.525499 2.6545 0.463 2
16.633499 2.6905 0.46200001 2
16.7325 2.6754999 0.45899999 2
16.6465 2.6695001 0.461 2
16.7425 2.6145 0.45500001 2
16.665501 2.6515 0.45899999 2
16.6915 2.6465001 0.458 2
16.6385 2.6324999 0.458 2
16.5595 2.6545 0.46200001 2
16.6765 2.6385 0.458 2
16.6565 2.6594999 0.46000001 2
16.6745 2.6914999 0.46200001 2
16.709499 2.6845 0.46000001 2
16.734501 2.6575 0.458 2
16.588499 2.6824999 0.463 2
16.5515 2.6545 0.46200001 2
16.7185 2.6285 0.456 2
16.5445 2.6654999 0.463 2
16.654499 2.6895001 0.46200001 2
16.7295 2.6605 0.458 2
16.6565 2.6535001 0.45899999 2
16.501499 2.6654999 0.46399999 2
16.7265 2.6914999 0.46000001 2
16.7155 2.3905001 0.565 2
16.6945 2.3894999 0.56599998 2
16.696501 2.3924999 0.59500003 2
16.6395 2.3905001 0.60500002 2
16.650499 2.3915 0.61199999 2
16.5935 2.3885 0.62099999 2
16.7155 2.3905001 0.56300002 2
16.6595 2.3894999 0.58999997 2
16.6105 2.3894999 0.61299998 2
16.6245 2.3885 0.59899998 2
16.5275 2.3875 0.648 2
16.696501 2.3894999 0.56400001 2
16.647499 2.3894999 0.59899998 2
16.591499 2.3894999 0.62599999 2
16.657499 2.3894999 0.58600003 2
16.5945 2.3885 0.62300003 2
16.737499 2.3935001 0.58600003 2
16.6115 2.3885 0.60600001 2
16.6285 2.3894999 0.60399997 2
16.560499 2.3885 0.63700002 2
16.6595 2.3894999 0.58899999 2
16.682501 2.3894999 0.57099998 2
16.723499 2.3924999 0.57499999 2
16.563499 2.3875 0.63 2
16.693501 2.3894999 0.56599998 2
16.633499 2.3885 0.59500003 2
16.585501 2.3894999 0.63099998 2
16.636499 2.3894999 0.60100001 2
16.7185 2.3905001 0.56099999 2
16.6805 2.3905001 0.57999998 2
16.592501 2.3885 0.61500001 2
16.7285 2.3915 0.56699997 2
16.6555 2.3905001 0.60500002 2
16.6005 2.3894999 0.62 2
16.651501 2.3894999 0.58999997 2
16.6665 2.3915 0.60500002 2
16.685499 2.3915 0.59100002 2
16.6975 2.3905001 0.56599998 2
16.626499 2.3894999 0.61199999 2
16.6605 2.3915 0.60399997 2
16.6525 2.3894999 0.58600003 2
16.6625 2.3915 0.60799998 2
16.717501 2.3924999 0.57999998 2
16.7185 2.3915 0.57499999 2
16.6745 2.3894999 0.57499999 2
16.678499 2.3905001 0.583 2
16.7045 2.3915 0.57499999 2
16.695499 2.3915 0.58200002 2
16.657499 2.7614999 0.44100001 2
16.706499 2.7874999 0.42399999 2
16.710501 2.7595 0.44299999 2
16.7435 2.7435 0.45300001 2
16.713499 2.7635 0.44100001 2
16.6605 2.7774999 0.43099999 2
16.7005 2.7614999 0.442 2
16.7505 2.7414999 0.45500001 2
16.734501 2.7674999 0.43799999 2
16.7465 2.7804999 0.42899999 2
16.7155 2.7904999 0.42300001 2
16.6325 2.7774999 0.43000001 2
16.7535 2.8025 0.41499999 2
16.7395 2.7344999 0.45899999 2
16.740499 2.7355001 0.45899999 2
16.7255 2.7744999 0.433 2
16.686501 2.7774999 0.43099999 2
16.7495 2.7825 0.428 2
16.720501 2.7465 0.45199999 2
16.661501 2.7725 0.43399999 2
16.6625 2.7635 0.44 2
16.717501 2.7945001 0.41999999 2
16.696501 2.7765 0.43200001 2
16.6735 2.7755001 0.433 2
16.731501 2.7555001 0.44499999 2
16.7075 2.7665 0.43799999 2
16.7465 2.8025 0.41499999 2
16.6555 2.7625 0.44100001 2
16.7495 2.7395 0.45699999 2
16.636499 2.7774999 0.43099999 2
16.703501 2.7525001 0.447 2
16.751499 2.7385001 0.45699999 2
16.731501 2.7795 0.43000001 2
16.695499 2.7505 0.449 2
16.7295 2.7685001 0.43700001 2
16.685499 2.7595 0.442 2
16.7195 2.7825 0.428 2
16.6775 2.7855 0.426 2
16.6415 2.7695 0.43599999 2
16.706499 2.7544999 0.44600001 2
16.7045 2.7865 0.42500001 2
16.7425 2.7395 0.456 2
16.665501 2.7655001 0.43900001 2
16.7055 2.7945001 0.41999999 2
16.6845 2.7795 0.43000001 2
16.7395 2.7785001 0.43099999 2
16.717501 2.7735 0.43399999 2
16.626499 2.7665 0.43700001 2
16.7185 2.7585001 0.44400001 2
16.654499 2.7635 0.44 2
16.6705 2.7765 0.43200001 2
16.7045 2.7495 0.44999999 2
16.7395 2.7844999 0.42699999 2
16.7215 2.7904999 0.42300001 2
16.6675 2.7605 0.442 2
16.696501 2.7544999 0.44600001 2
16.7005 2.7755001 0.43200001 2
16.706499 2.7614999 0.442 2
16.7395 2.7804999 0.42899999 2
16.6285 2.7725 0.43399999 2
16.6985 2.7525001 0.44800001 2
16.7365 2.7525001 0.44800001 2
16.7285 2.7965 0.419 2
16.723499 2.7955 0.419 2
16.7085 2.7815001 0.428 2
16.747499 2.7605 0.442 2
16.7465 2.7465 0.45100001 2
16.6495 2.2925 0.44 2
16.8025 2.2915001 0.43900001 2
16.675501 2.3004999 0.44400001 2
16.627501 2.3004999 0.44400001 2
16.5215 2.2945001 0.44100001 2
16.650499 2.2995 0.44299999 2
16.622499 2.3055 0.447 2
16.7285 2.2955 0.44100001 2
16.716499 2.3065 0.447 2
16.616501 2.3095 0.449 2
16.588499 2.3025 0.44499999 2
16.6285 2.2995 0.44299999 2
16.619499 2.2925 0.43900001 2
16.557501 2.2955 0.44100001 2
16.7265 2.2934999 0.44 2
16.797501 2.2925 0.43900001 2
16.6525 2.3065 0.447 2
16.571501 2.3055 0.447 2
16.529499 2.2985001 0.44299999 2
16.6255 2.3074999 0.44800001 2
16.6905 2.2965 0.442 2
16.474501 2.2904999 0.43900001 2
16.6255 2.3034999 0.44499999 2
16.7735 2.2995 0.44299999 2
16.5655 2.2915001 0.43900001 2
16.6605 2.3004999 0.44400001 2
16.644501 2.3074999 0.44800001 2
16.5245 2.2995 0.44400001 2
16.564501 2.3045001 0.44600001 2
16.557501 2.2934999 0.44 2
16.6315 2.3095 0.449 2
16.623501 2.3134999 0.45100001 2
16.6465 2.2974999 0.442 2
16.7075 2.2974999 0.442 2
16.557501 2.2945001 0.44100001 2
16.6105 2.2934999 0.44 2
16.6045 2.3034999 0.44600001 2
16.7225 2.3055 0.44600001 2
16.6805 2.2915001 0.43900001 2
16.563499 2.2995 0.44299999 2
16.769501 2.2974999 0.442 2
16.5305 2.2925 0.44 2
16.5355 2.2934999 0.44 2
16.5235 2.2934999 0.44 2
16.5345 2.2934999 0.44 2
16.5935 2.2995 0.44299999 2
16.8015 2.2955 0.44100001 2
16.602501 2.2985001 0.44299999 2
16.765499 2.2934999 0.44 2
16.5445 2.2915001 0.43900001 2
16.731501 2.3025 0.44499999 2
16.6975 2.2925 0.43900001 2
16.630501 2.2955 0.44100001 2
16.578501 2.3065 0.447 2
16.622499 2.2965 0.442 2
16.557501 2.2995 0.44299999 2
16.6495 2.3074999 0.44800001 2
16.5945 2.3065 0.447 2
16.6805 2.3315001 0.70899999 2
16.7915 2.3735001 0.71200001 2
16.7945 2.3564999 0.73799998 2
16.7215 2.3325 0.73000002 2
16.768499 2.3375001 0.75 2
16.685499 2.3195 0.73000002 2
16.759501 2.3585 0.71600002 2
16.7575 2.3445001 0.73400003 2
16.768499 2.3525 0.72899997 2
16.692499 2.3215001 0.73100001 2
16.706499 2.3304999 0.72500002 2
16.7215 2.3475001 0.70899999 2
16.813499 2.3705001 0.72899997 2
16.7425 2.3134999 0.76899999 2
16.7335 2.3175001 0.75800002 2
16.7775 2.3564999 0.72799999 2
16.800501 2.3675001 0.72500002 2
16.7605 2.3675001 0.70300001 2
16.7355 2.3594999 0.70099998 2
16.7155 2.3355 0.72399998 2
16.7535 2.3505001 0.72399998 2
16.7155 2.3275001 0.73500001 2
16.724501 2.3215001 0.74800003 2
16.7535 2.3385 0.74000001 2
16.738501 2.3275001 0.74699998 2
16.7885 2.3515 0.741 2
16.7265 2.3045001 0.773 2
16.7665 2.3635001 0.71200001 2
16.775499 2.3455 0.74199998 2
16.783501 2.3545001 0.73400003 2
16.7425 2.3485 0.72000003 2
16.7645 2.3245001 0.76599997 2
16.7575 2.3594999 0.713 2
16.765499 2.3475001 0.73400003 2
16.752501 2.3074999 0.78299999 2
16.7575 2.3694999 0.699 2
16.745501 2.3664999 0.69599998 2
16.768499 2.3724999 0.70099998 2
16.731501 2.3545001 0.70499998 2
16.806499 2.3645 0.73400003 2
16.7195 2.3285 0.736 2
16.672501 2.3445001 0.68699998 2
16.6605 2.3345001 0.69400001 2
16.7185 2.3475001 0.708 2
16.755501 2.3215001 0.764 2
16.665501 2.3355 0.69599998 2
16.7285 2.3285 0.741 2
16.724501 2.3134999 0.759 2
16.7565 2.3425 0.736 2
16.752501 2.3115001 0.77700001 2
16.6765 2.3405001 0.69400001 2
16.8125 2.3764999 0.71899998 2
16.6845 2.3345001 0.70700002 2
16.7645 2.3655 0.708 2
16.682501 2.3555 0.67799997 2
16.7125 2.3074999 0.76099998 2
16.793501 2.3464999 0.75099999 2
16.7745 2.3295 0.764 2
16.727501 2.3334999 0.73299998 2
16.741501 2.3385 0.73400003 2
16.7295 2.2985001 0.78200001 2
16.7505 2.3195 0.76499999 2
16.6975 2.3464999 0.699 2
16.7805 2.3464999 0.74400002 2
16.727501 2.3095 0.76599997 2
16.6745 2.3395 0.69599998 2
16.7335 2.3605001 0.69800001 2
16.737499 2.2934999 0.79400003 2
16.685499 2.3525 0.68300003 2
16.7885 2.3724999 0.71200001 2
16.7955 2.3485 0.75 2
16.702499 2.3185 0.74000001 2
16.671499 2.3405001 0.69099998 2
16.738501 2.3355 0.73500001 2
16.643499 2.3445001 0.67199999 2
16.758499 2.3564999 0.71799999 2
16.7785 2.3515 0.736 2
16.754499 2.3685 0.699 2
16.747499 2.3204999 0.76099998 2
16.8235 2.3805001 0.71899998 2
16.723499 2.2995 0.778 2
16.7535 2.3655 0.70200002 2
16.772499 2.3255 0.76800001 2
16.689501 2.3275001 0.72100002 2
16.758499 2.3195 0.76999998 2
16.7145 2.3025 0.76899999 2
16.7225 2.2985001 0.778 2
16.8015 2.3675001 0.727 2
16.723499 2.3434999 0.71600002 2
16.709499 2.3395 0.71399999 2
16.679501 2.3225 0.722 2
16.7435 2.3264999 0.75199997 2
16.8085 2.3735001 0.722 2
16.7215 2.3625 0.68800002 2
16.709499 2.3215001 0.73900002 2
16.7225 2.3134999 0.759 2
16.7775 2.3635001 0.71799999 2
16.693501 2.3225 0.73000002 2
16.7335 2.3204999 0.75400001 2
16.734501 2.3345001 0.73500001 2
16.7815 2.3485 0.741 2
16.7715 2.3555 0.727 2
16.6945 2.3134999 0.74199998 2
16.783501 2.3434999 0.74900001 2
16.7335 2.3525 0.70899999 2
16.765499 2.3505001 0.73000002 2
16.7945 2.3515 0.74400002 2
16.8015 2.3694999 0.72299999 2
16.7085 2.3255 0.73299998 2
16.740499 2.3125 0.76899999 2
16.7915 2.3755 0.70999998 2
16.7575 2.3505001 0.72500002 2
16.7495 2.3125 0.773 2
16.7115 2.3095 0.75700003 2
16.7355 2.2965 0.78799999 2
16.738501 2.3045001 0.77899998 2
16.7115 2.3234999 0.73799998 2
16.7985 2.3625 0.73100001 2
16.775499 2.3715 0.70599997 2
16.7355 2.3125 0.76700002 2
16.7495 2.3395 0.736 2
16.7285 2.3204999 0.75099999 2
16.7185 2.3175001 0.75 2
16.6835 2.3405001 0.699 2
16.810499 2.3664999 0.73199999 2
16.7995 2.3534999 0.74400002 2
16.7425 2.3125 0.77100003 2
16.734501 2.3434999 0.72299999 2
16.713499 2.3334999 0.72500002 2
16.824499 2.3805001 0.72100002 2
16.7325 2.3115001 0.76599997 2
16.7355 2.3385 0.73000002 2
16.7335 2.3215001 0.75300002 2
16.7645 2.3605001 0.71600002 2
16.755501 2.3445001 0.73299998 2
16.7675 2.3395 0.74599999 2
16.737499 2.3275001 0.74599999 2
16.7505 2.3125 0.77499998 2
16.7055 2.3494999 0.699 2
16.7665 2.3264999 0.46599999 2
16.7215 2.3134999 0.45300001 2
16.7635 2.3245001 0.46399999 2
16.8125 2.3185 0.46000001 2
16.6525 2.3215001 0.458 2
16.8025 2.3115001 0.454 2
16.7855 2.3245001 0.465 2
16.810499 2.3285 0.46900001 2
16.845501 2.3055 0.44999999 2
16.706499 2.3264999 0.46399999 2
16.7045 2.3125 0.45199999 2
16.752501 2.3315001 0.47 2
16.709499 2.3085001 0.44800001 2
16.6765 2.3225 0.46000001 2
16.738501 2.3104999 0.45100001 2
16.8475 2.2955 0.44100001 2
16.6905 2.3304999 0.46700001 2
16.681499 2.3285 0.465 2
16.7715 2.3085001 0.44999999 2
16.796499 2.3195 0.46000001 2
16.8335 2.3065 0.44999999 2
16.7995 2.3304999 0.47 2
16.831499 2.3204999 0.463 2
16.8535 2.3045001 0.449 2
16.804501 2.3034999 0.447 2
16.6845 2.3234999 0.461 2
16.7325 2.3095 0.44999999 2
16.7225 2.3234999 0.46200001 2
16.7815 2.3285 0.46799999 2
16.769501 2.3334999 0.47299999 2
16.790501 2.3325 0.472 2
16.762501 2.3415 0.479 2
16.7215 2.3215001 0.46000001 2
16.7805 2.3375001 0.47600001 2
16.769501 2.3455 0.48300001 2
16.716499 2.3255 0.463 2
16.776501 2.3325 0.472 2
16.768499 2.3125 0.454 2
16.855499 2.3065 0.45100001 2
16.755501 2.3134999 0.454 2
16.7885 2.3425 0.48100001 2
16.779499 2.3245001 0.46399999 2
16.664499 2.3195 0.45699999 2
16.7085 2.3155 0.454 2
16.738501 2.3234999 0.463 2
16.775499 2.3275001 0.46700001 2
16.7995 2.3304999 0.47099999 2
16.6535 2.3155 0.45300001 2
16.8475 2.3065 0.44999999 2
16.8125 2.3215001 0.463 2
16.7735 2.3264999 0.46599999 2
16.720501 2.3204999 0.46000001 2
16.782499 2.3285 0.46799999 2
16.751499 2.3215001 0.461 2
16.7675 2.3295 0.46900001 2
16.6675 2.3215001 0.458 2
16.7015 2.3234999 0.461 2
16.8095 2.3155 0.458 2
16.7665 2.3095 0.45100001 2
16.7885 2.3065 0.449 2
16.8545 2.3055 0.44999999 2
16.6775 2.3115001 0.44999999 2
16.758499 2.3275001 0.46599999 2
16.768499 2.3304999 0.47 2
16.827499 2.3085001 0.45199999 2
16.7285 2.3134999 0.454 2
16.806499 2.3304999 0.47099999 2
16.6695 2.3125 0.44999999 2
16.779499 2.3445001 0.48300001 2
16.775499 2.3494999 0.48699999 2
16.817499 2.3065 0.44999999 2
16.730499 2.3175001 0.45699999 2
16.730499 2.3175001 0.45699999 2
16.6915 2.3245001 0.46200001 2
16.783501 2.3275001 0.46799999 2
16.6245 2.3155 0.45199999 2
16.6975 2.3125 0.45100001 2
16.7495 2.3065 0.44800001 2
16.747499 2.3345001 0.47299999 2
16.6665 2.3215001 0.45899999 2
16.7675 2.3234999 0.463 2
16.8055 2.3255 0.46599999 2
16.8675 2.2974999 0.44299999 2
16.797501 2.3074999 0.44999999 2
16.7665 2.3115001 0.45199999 2
16.813499 2.3145001 0.45699999 2
16.8095 2.3115001 0.454 2
16.793501 2.3794999 0.69800001 2
16.731501 2.3715 0.66600001 2
16.7665 2.3745 0.68800002 2
16.7435 2.3845 0.62400001 2
16.7075 2.3635001 0.67500001 2
16.7015 2.3605001 0.68099999 2
16.723499 2.3645 0.68699998 2
16.7665 2.3785 0.671 2
16.8155 2.3824999 0.70700002 2
16.675501 2.3594999 0.65899998 2
16.7195 2.3675001 0.67000002 2
16.7285 2.3685 0.67699999 2
16.727501 2.3675001 0.68099999 2
16.693501 2.3685 0.64099997 2
16.7565 2.3824999 0.64399999 2
16.7425 2.3775001 0.65100002 2
16.6695 2.3564999 0.66500002 2
16.768499 2.3875 0.63700002 2
16.754499 2.3805001 0.653 2
16.7225 2.3815 0.611 2
16.7635 2.3764999 0.67699999 2
16.734501 2.3775001 0.64399999 2
16.689501 2.3615 0.662 2
16.7265 2.3675001 0.67900002 2
16.7125 2.3735001 0.63700002 2
16.6915 2.3715 0.62199998 2
16.752501 2.3745 0.676 2
16.7325 2.3855 0.60799998 2
16.7985 2.3805001 0.699 2
16.731501 2.3855 0.60399997 2
16.7435 2.3694999 0.68599999 2
16.7325 2.3785 0.63700002 2
16.7335 2.3685 0.68000001 2
16.7295 2.3775001 0.63599998 2
16.7435 2.3805001 0.63800001 2
16.7425 2.3894999 0.602 2
16.686501 2.3655 0.64399999 2
16.775499 2.3745 0.69800001 2
16.754499 2.3794999 0.65399998 2
16.7055 2.3775001 0.61400002 2
16.7335 2.3805001 0.62900001 2
16.752501 2.3835001 0.63499999 2
16.6485 2.3534999 0.65600002 2
16.782499 2.3805001 0.68300003 2
16.748501 2.3875 0.61500001 2
16.7195 2.3735001 0.64600003 2
16.724501 2.3805001 0.62099999 2
16.748501 2.3745 0.671 2
16.699499 2.3635001 0.66399997 2
16.7145 2.3645 0.67900002 2
16.738501 2.3735001 0.66399997 2
16.7715 2.3805001 0.66900003 2
16.7565 2.3815 0.648 2
16.7705 2.3815 0.66500002 2
16.796499 2.3775001 0.70899999 2
16.7575 2.3885 0.61900002 2
16.699499 2.3694999 0.639 2
16.7815 2.3775001 0.69300002 2
16.6705 2.3555 0.67000002 2
16.7925 2.3855 0.66900003 2
16.737499 2.3715 0.671 2
16.706499 2.3635001 0.67299998 2
16.7395 2.3694999 0.68199998 2
16.793501 2.3864999 0.66799998 2
16.754499 2.3864999 0.62599999 2
16.747499 2.3875 0.61299998 2
16.678499 2.3635001 0.64499998 2
16.734501 2.3764999 0.64899999 2
16.6845 2.3594999 0.667 2
16.664499 2.3594999 0.64700001 2
16.672501 2.3575001 0.66399997 2
16.696501 2.3675001 0.64700001 2
16.740499 2.3715 0.67699999 2
16.693501 2.3694999 0.634 2
16.709499 2.3694999 0.65200001 2
16.6775 2.3585 0.66299999 2
16.6975 2.3655 0.653 2
16.702499 2.3705001 0.639 2
16.710501 2.3745 0.63099998 2
16.7335 2.3805001 0.62800002 2
16.796499 2.3805001 0.69700003 2
16.720501 2.3824999 0.60399997 2
16.761499 2.3805001 0.66000003 2
16.7075 2.3685 0.65600002 2
16.713499 2.3675001 0.66399997 2
16.6425 2.3515 0.65799999 2
16.703501 2.3655 0.66299999 2
16.737499 2.3875 0.60299999 2
16.727501 2.3735001 0.65100002 2
16.6735 2.3575001 0.66299999 2
16.772499 2.3794999 0.67799997 2
16.7785 2.3864999 0.653 2
16.7495 2.3905001 0.60399997 2
16.7355 2.3875 0.60000002 2
16.741501 2.3785 0.64600003 2
16.734501 2.3875 0.59899998 2
16.7085 2.3625 0.68099999 2
16.7565 2.3905001 0.61199999 2
16.6875 2.3645 0.64899999 2
16.755501 2.3924999 0.602 2
16.730499 2.3775001 0.64099997 2
16.7015 2.3705001 0.63700002 2
16.7125 2.3655 0.67000002 2
16.7395 2.3735001 0.66799998 2
16.762501 2.3885 0.62599999 2
16.717501 2.3694999 0.66100001 2
16.8095 2.3845 0.69400001 2
16.6945 2.3724999 0.62300003 2
16.7365 2.3875 0.602 2
16.7535 2.3805001 0.65100002 2
16.6945 2.3635001 0.66299999 2
16.7665 2.3835001 0.65399998 2
16.7805 2.3794999 0.68199998 2
16.682501 2.3675001 0.63200003 2
16.740499 2.3835001 0.625 2
16.7505 2.3745 0.67400002 2
16.7665 2.7525001 0.44400001 2
16.7675 2.7695 0.43200001 2
16.7565 2.7385001 0.45500001 2
16.755501 2.7495 0.449 2
16.754499 2.7505 0.44800001 2
16.758499 2.7735 0.433 2
16.759501 2.7844999 0.42500001 2
16.776501 2.7835 0.421 2
16.765499 2.7695 0.433 2
16.755501 2.7565 0.44400001 2
16.7715 2.7835 0.42199999 2
16.754499 2.7344999 0.45899999 2
16.7745 2.7644999 0.433 2
16.755501 2.8015001 0.41600001 2
16.754499 2.7874999 0.42500001 2
16.7675 2.7804999 0.42500001 2
16.7645 2.7865 0.42199999 2
16.7805 2.7774999 0.42300001 2
16.754499 2.7915001 0.42199999 2
16.7875 2.7795 0.41999999 2
16.7735 2.7595 0.43700001 2
16.7665 2.7605 0.43799999 2
16.754499 2.7414999 0.454 2
16.8195 2.3355 0.75599998 2
16.8465 2.3364999 0.75099999 2
16.807501 2.3455 0.75 2
16.8295 2.3635001 0.73500001 2
16.841499 2.3505001 0.74199998 2
16.803499 2.3074999 0.77700001 2
16.8335 2.3385 0.75199997 2
16.806499 2.3355 0.75800002 2
16.8535 2.3464999 0.74400002 2
16.8255 2.3295 0.759 2
16.827499 2.3215001 0.764 2
16.8435 2.3234999 0.75999999 2
16.8375 2.3605001 0.736 2
16.820499 2.3185 0.76700002 2
16.8645 2.3264999 0.75599998 2
16.8295 2.3325 0.75599998 2
16.793501 2.3445001 0.75300002 2
16.8365 2.3505001 0.74299997 2
16.797501 2.3434999 0.75300002 2
16.8025 2.3525 0.74599999 2
16.856501 2.3255 0.75800002 2
16.8535 2.3415 0.74699998 2
16.793501 2.3334999 0.76099998 2
16.818501 2.3375001 0.75400001 2
16.7995 2.3164999 0.77100003 2
16.797501 2.3385 0.75700003 2
16.8505 2.3215001 0.76099998 2
16.8325 2.3705001 0.73000002 2
16.8475 2.3245001 0.759 2
16.7915 2.3275001 0.76499999 2
16.8235 2.3685 0.73199999 2
16.807501 2.3264999 0.764 2
16.8055 2.3464999 0.75 2
16.8295 2.3455 0.74699998 2
16.8055 2.3334999 0.759 2
16.8165 2.3395 0.75300002 2
16.803499 2.3104999 0.77499998 2
16.790501 2.3325 0.76200002 2
16.769501 2.3125 0.778 2
16.7535 2.2985001 0.79000002 2
16.8055 2.3545001 0.74400002 2
16.820499 2.3625 0.73699999 2
16.8125 2.3104999 0.77399999 2
16.848499 2.3315001 0.75400001 2
16.813499 2.3234999 0.76499999 2
16.8265 2.3575001 0.73900002 2
16.7985 2.3345001 0.759 2
16.8125 2.3555 0.74199998 2
16.7985 2.3375001 0.75700003 2
16.7845 2.3204999 0.77100003 2
16.8025 2.3134999 0.773 2
16.7715 2.3195 0.77399999 2
16.8445 2.3225 0.76099998 2
16.810499 2.3215001 0.76700002 2
16.848499 2.4054999 0.59299999 2
16.834499 2.3994999 0.62400001 2
16.852501 2.4065001 0.58999997 2
16.789499 2.3965001 0.60299999 2
16.8335 2.3894999 0.68300003 2
16.7815 2.3985 0.58499998 2
16.779499 2.3924999 0.62099999 2
16.783501 2.3894999 0.64099997 2
16.7945 2.3905001 0.64899999 2
16.761499 2.3954999 0.58700001 2
16.8325 2.3845 0.71899998 2
16.793501 2.3965001 0.60399997 2
16.8085 2.3994999 0.60299999 2
16.8015 2.3935001 0.634 2
16.8195 2.3924999 0.653 2
16.8225 2.3945 0.64399999 2
16.8375 2.3954999 0.653 2
16.8505 2.3965001 0.653 2
16.869499 2.4085 0.59200001 2
16.7785 2.3915 0.62599999 2
16.7735 2.3954999 0.60000002 2
16.803499 2.3885 0.671 2
16.831499 2.4045 0.58899999 2
16.834499 2.3894999 0.68900001 2
16.8335 2.3985 0.62900001 2
16.849501 2.3994999 0.63300002 2
16.849501 2.3965001 0.65399998 2
16.761499 2.3924999 0.60799998 2
16.782499 2.3915 0.63200003 2
16.8165 2.3905001 0.662 2
16.8195 2.3924999 0.65100002 2
16.845501 2.4035001 0.60100001 2
16.8085 2.4015 0.58499998 2
16.813499 2.4005001 0.59600002 2
16.761499 2.3924999 0.60600001 2
16.8335 2.3864999 0.708 2
16.7775 2.3965001 0.59100002 2
16.842501 2.3985 0.634 2
16.8575 2.4015 0.625 2
16.8055 2.3945 0.62800002 2
16.8225 2.3935001 0.65200001 2
16.820499 2.3885 0.68199998 2
16.8265 2.3885 0.68300003 2
16.803499 2.3985 0.602 2
16.828501 2.3924999 0.66100001 2
16.8225 2.3935001 0.65100002 2
16.8575 2.4035001 0.61400002 2
16.865499 2.4075 0.59200001 2
16.8645 2.4085 0.58700001 2
16.8155 2.3905001 0.662 2
16.8225 2.3975 0.625 2
16.8405 2.3985 0.63300002 2
16.8335 2.4005001 0.61500001 2
16.7815 2.3945 0.61000001 2
16.7845 2.3915 0.63 2
16.855499 2.3994999 0.63999999 2
16.793501 2.3954999 0.616 2
16.8405 2.3975 0.63800001 2
16.852501 2.4045 0.60600001 2
16.7985 2.3924999 0.63499999 2
16.769501 2.3954999 0.59200001 2
16.849501 2.4054999 0.597 2
16.796499 2.3894999 0.65700001 2
16.8685 2.4085 0.58999997 2
16.7985 2.3894999 0.66000003 2
16.8515 2.4005001 0.63099998 2
16.8165 2.3915 0.66000003 2
16.797501 2.3915 0.64099997 2
16.7855 2.3965001 0.59899998 2
16.866501 2.4075 0.59500003 2
16.8125 2.3975 0.61400002 2
16.8505 2.4005001 0.63099998 2
16.838499 2.3965001 0.64600003 2
16.8155 2.3954999 0.63 2
16.852501 2.3975 0.65100002 2
16.841499 2.4024999 0.60500002 2
16.817499 2.3875 0.68199998 2
16.761499 2.3924999 0.60600001 2
16.856501 2.4065001 0.59500003 2
16.835501 2.3855 0.70999998 2
16.834499 2.3945 0.65200001 2
16.827499 2.3894999 0.68099999 2
16.7805 2.3954999 0.60500002 2
16.755501 2.3945 0.588 2
16.831499 2.3924999 0.66600001 2
16.8395 2.3985 0.63499999 2
16.8605 2.4035001 0.61799997 2
16.828501 2.3994999 0.616 2
16.637501 2.3325 0.44999999 2
16.713499 2.4465001 0.43799999 2
16.6985 2.4245 0.44 2
16.6495 2.3545001 0.44800001 2
16.682501 2.4224999 0.43900001 2
16.7155 2.4435 0.43799999 2
16.7005 2.3564999 0.45100001 2
16.745501 2.4324999 0.442 2
16.8025 2.4105 0.44999999 2
16.699499 2.3605001 0.44999999 2
16.651501 2.4135001 0.43799999 2
16.654499 2.4665 0.43000001 2
16.751499 2.4365001 0.442 2
16.6765 2.4154999 0.44 2
16.689501 2.4154999 0.44100001 2
16.6635 2.4195001 0.43799999 2
16.6595 2.3835001 0.44400001 2
16.7215 2.4525001 0.43700001 2
16.755501 2.4015 0.44800001 2
16.709499 2.3935001 0.44600001 2
16.775499 2.4184999 0.447 2
16.6915 2.4354999 0.43799999 2
16.699499 2.4495001 0.43599999 2
16.703501 2.3534999 0.45199999 2
16.6595 2.4445 0.43399999 2
16.692499 2.3445001 0.45300001 2
16.6945 2.3824999 0.44600001 2
16.658501 2.4284999 0.43599999 2
16.730499 2.4165001 0.44400001 2
16.709499 2.3515 0.45300001 2
16.693501 2.3655 0.449 2
16.7125 2.3985 0.44499999 2
16.689501 2.3585 0.44999999 2
16.6455 2.3625 0.44600001 2
16.6625 2.3615 0.447 2
16.8055 2.3954999 0.45300001 2
16.7495 2.3745 0.45199999 2
16.7015 2.4054999 0.44299999 2
16.643499 2.3485 0.44800001 2
16.814501 2.3915 0.454 2
16.793501 2.4024999 0.45100001 2
16.856501 2.4005001 0.456 2
16.6875 2.4435 0.43599999 2
16.7495 2.4184999 0.44499999 2
16.7255 2.4154999 0.44299999 2
16.706499 2.4305 0.44 2
16.709499 2.4035001 0.44400001 2
16.7395 2.3794999 0.44999999 2
16.6635 2.4275 0.43700001 2
16.7805 2.3935001 0.45100001 2
16.738501 2.4414999 0.44 2
16.7145 2.4275 0.44100001 2
16.744499 2.4115 0.44600001 2
16.7225 2.4425001 0.43900001 2
16.6765 2.4395001 0.43599999 2
16.6775 2.3525 0.44999999 2
16.657499 2.4645 0.43000001 2
16.8365 2.4024999 0.454 2
16.706499 2.4454999 0.43700001 2
16.661501 2.3685 0.44600001 2
16.7355 2.4094999 0.44499999 2
16.7325 2.3885 0.44800001 2
16.8015 2.3855 0.454 2
16.6605 2.3585 0.44800001 2
16.630501 2.3405001 0.44800001 2
16.765499 2.4005001 0.449 2
16.786501 2.4224999 0.447 2
16.6745 2.4054999 0.44100001 2
16.758499 2.4154999 0.44600001 2
16.723499 2.3655 0.45100001 2
16.7785 2.4165001 0.447 2
16.7715 2.3745 0.45300001 2
16.6535 2.4655001 0.43000001 2
16.748501 2.4305 0.44299999 2
16.7075 2.3785 0.44800001 2
16.6285 2.3255 0.45100001 2
16.720501 2.4295001 0.44100001 2
16.671499 2.4195001 0.43900001 2
16.6595 2.3775001 0.44499999 2
16.754499 2.4275 0.44400001 2
16.6595 2.4495001 0.433 2
16.672501 2.3755 0.44600001 2
16.6535 2.3395 0.44999999 2
16.651501 2.3455 0.449 2
16.650499 2.3275001 0.45199999 2
16.6415 2.3234999 0.45199999 2
16.769501 2.4175 0.44600001 2
16.6665 2.3585 0.44800001 2
16.737499 2.4465001 0.43900001 2
16.7575 2.4215 0.44499999 2
16.761499 2.4345 0.44299999 2
16.675501 2.4695001 0.43099999 2
16.7155 2.4414999 0.43799999 2
16.6495 2.4435 0.433 2
16.790501 2.3824999 0.454 2
16.7265 2.3935001 0.447 2
16.696501 2.4525001 0.435 2
16.7185 2.3534999 0.45300001 2
16.672501 2.3954999 0.44299999 2
16.6605 2.4684999 0.43000001 2
16.8025 2.3935001 0.45300001 2
16.7265 2.4405 0.43900001 2
16.783501 2.4005001 0.44999999 2
16.744499 2.3824999 0.44999999 2
16.7885 2.4184999 0.44800001 2
16.651501 2.4535 0.43200001 2
16.6595 2.3304999 0.45199999 2
16.716499 2.4324999 0.44 2
16.831499 2.3945 0.45500001 2
16.744499 2.4215 0.44400001 2
16.688499 2.3924999 0.44400001 2
16.7225 2.4105 0.44400001 2
16.724501 2.4105 0.44400001 2
16.6705 2.3395 0.45199999 2
16.6485 2.4124999 0.43799999 2
16.7155 2.3645 0.45100001 2
16.6635 2.4215 0.43799999 2
16.647499 2.3815 0.44299999 2
16.6765 2.4295001 0.43700001 2
16.7225 2.3975 0.44600001 2
16.7505 2.3635001 0.454 2
16.644501 2.3785 0.44299999 2
16.644501 2.3364999 0.44999999 2
16.7955 2.3894999 0.45300001 2
16.817499 2.4085 0.45100001 2
16.657499 2.3954999 0.442 2
16.772499 2.3985 0.44999999 2
16.650499 2.4514999 0.43200001 2
16.681499 2.3935001 0.44400001 2
16.741501 2.4035001 0.447 2
16.7185 2.4065001 0.44400001 2
16.6665 2.4254999 0.43700001 2
16.841499 2.4075 0.45300001 2
16.755501 2.3655 0.454 2
16.7925 2.4124999 0.449 2
16.744499 2.3785 0.45100001 2
16.664499 2.3994999 0.44100001 2
16.644501 2.4184999 0.43700001 2
16.7125 2.4124999 0.44299999 2
16.747499 2.4165001 0.44499999 2
16.759501 2.4035001 0.44800001 2
16.640499 2.3945 0.44 2
16.6565 2.4354999 0.435 2
16.7075 2.4175 0.442 2
16.6485 2.4425001 0.433 2
16.7775 2.4254999 0.44600001 2
16.814501 2.4054999 0.45199999 2
16.790501 2.4015 0.45100001 2
16.658501 2.3935001 0.442 2
16.768499 2.4105 0.447 2
16.8015 2.4054999 0.45100001 2
16.630501 2.3355 0.449 2
16.679501 2.3555 0.44999999 2
16.7785 2.3785 0.45300001 2
16.813499 2.4135001 0.44999999 2
16.678499 2.4354999 0.43700001 2
16.650499 2.3405001 0.44999999 2
16.765499 2.4215 0.44499999 2
16.6595 2.3515 0.449 2
16.6985 2.3965001 0.44400001 2
16.675501 2.3875 0.44400001 2
16.8095 2.3975 0.45300001 2
16.7045 2.4405 0.43799999 2
16.7805 2.3994999 0.44999999 2
16.6805 2.3805001 0.44600001 2
16.657499 2.4775 0.428 2
16.7395 2.4135001 0.44499999 2
16.709499 2.3935001 0.44600001 2
16.685499 2.3845 0.44600001 2
16.671499 2.3724999 0.44600001 2
16.745501 2.3965001 0.44800001 2
16.772499 2.3835001 0.45199999 2
16.6455 2.3415 0.449 2
16.747499 2.4195001 0.44400001 2
16.6555 2.4175 0.43799999 2
16.650499 2.3534999 0.44800001 2
16.6605 2.4735 0.42899999 2
16.682501 2.4484999 0.435 2
16.737499 2.4454999 0.43900001 2
