# .PCD v0.7 - Point Cloud Data file format
VERSION 0.7
FIELDS x y z label
SIZE 4 4 4 4
TYPE F F F U
COUNT 1 1 1 1
WIDTH 1627
HEIGHT 1
VIEWPOINT 0 0 0 1 0 0 0
POINTS 1627
DATA ascii
17.432501 2.3264999 0.583 2
17.429501 2.3264999 0.56400001 2
17.473499 2.3375001 0.55500001 2
17.3985 2.3145001 0.63300002 2
17.4055 2.3225 0.55599999 2
17.415501 2.3245001 0.56 2
17.453501 2.3315001 0.57499999 2
17.3645 2.3115001 0.56699997 2
17.418501 2.3215001 0.60600001 2
17.415501 2.3195 0.62199998 2
17.404499 2.3185 0.59799999 2
17.414499 2.3185 0.62400001 2
17.4335 2.3264999 0.57599998 2
17.436501 2.3285 0.56400001 2
17.4125 2.3195 0.61299998 2
17.436501 2.3275001 0.57800001 2
17.369499 2.3115001 0.58399999 2
17.4165 2.3234999 0.56900001 2
17.4575 2.3325 0.57200003 2
17.377501 2.3115001 0.60699999 2
17.4065 2.3164999 0.62400001 2
17.3855 2.3145001 0.59399998 2
17.428499 2.3215001 0.62599999 2
17.362499 2.3095 0.588 2
17.397499 2.3125 0.653 2
17.407499 2.3225 0.55800003 2
17.432501 2.3245001 0.61000001 2
17.369499 2.3115001 0.59100002 2
17.401501 2.3204999 0.56199998 2
17.383499 2.3104999 0.63099998 2
17.4035 2.3204999 0.56599998 2
17.3785 2.3125 0.59299999 2
17.363501 2.3104999 0.574 2
17.380501 2.3134999 0.59799999 2
17.4515 2.3315001 0.56999999 2
17.443501 2.3275001 0.60500002 2
17.422501 2.3255 0.56800002 2
17.4555 2.3325 0.56999999 2
17.4625 2.3345001 0.55900002 2
17.3925 2.3125 0.63800001 2
17.446501 2.3285 0.59200001 2
17.4265 2.3255 0.57999998 2
17.438499 2.3275001 0.58399999 2
17.3535 2.3085001 0.58099997 2
17.429501 2.3264999 0.56900001 2
17.393499 2.3134999 0.63300002 2
17.438499 2.3295 0.56 2
17.3985 2.3145001 0.62699997 2
17.428499 2.3275001 0.55699998 2
17.4125 2.3164999 0.653 2
17.4175 2.3225 0.59100002 2
17.4035 2.3215001 0.55599999 2
17.363501 2.3104999 0.58399999 2
17.4035 2.3145001 0.64700001 2
17.3605 2.3115001 0.56099999 2
17.3985 2.3134999 0.65100002 2
17.4025 2.3155 0.62900001 2
17.355499 2.3085001 0.58600003 2
17.3435 2.3065 0.56599998 2
17.3915 2.3134999 0.61799997 2
17.418501 2.3215001 0.60299999 2
17.4035 2.3195 0.58700001 2
17.365499 2.3095 0.59500003 2
17.4055 2.3185 0.59600002 2
17.4305 2.3264999 0.574 2
17.411501 2.3204999 0.58899999 2
17.439501 2.3275001 0.58600003 2
17.3925 2.3185 0.56699997 2
17.3815 2.3115001 0.625 2
17.379499 2.3155 0.56699997 2
17.3605 2.3104999 0.57300001 2
17.4105 2.3195 0.602 2
17.4485 2.3304999 0.57999998 2
17.4175 2.3195 0.62400001 2
17.369499 2.3095 0.611 2
17.428499 2.3264999 0.57099998 2
17.4105 2.3195 0.60100001 2
17.4445 2.2885001 0.722 2
17.487499 2.3255 0.66600001 2
17.4995 2.3255 0.67000002 2
17.453501 2.3225 0.66500002 2
17.4165 2.3115001 0.67500001 2
17.477501 2.3095 0.69300002 2
17.4375 2.3074999 0.68699998 2
17.4585 2.3025 0.70099998 2
17.4785 2.3234999 0.667 2
17.470501 2.3155 0.68000001 2
17.4415 2.3004999 0.70099998 2
17.445499 2.2965 0.708 2
17.459499 2.3015001 0.70300001 2
17.460501 2.3025 0.69999999 2
17.439501 2.2974999 0.70499998 2
17.428499 2.2995 0.699 2
17.460501 2.3085001 0.69099998 2
17.491501 2.3264999 0.66600001 2
17.502501 2.3325 0.65700001 2
17.4755 2.3215001 0.67199999 2
17.484501 2.3255 0.66600001 2
17.4545 2.3074999 0.69 2
17.477501 2.3095 0.69300002 2
17.4685 2.3155 0.68000001 2
17.4555 2.3104999 0.685 2
17.4765 2.3104999 0.69099998 2
17.4275 2.3034999 0.69099998 2
17.4405 2.2974999 0.70499998 2
17.438499 2.3104999 0.68099999 2
17.431499 2.3155 0.67199999 2
17.4485 2.2865 0.727 2
17.480499 2.3255 0.66500002 2
17.490499 2.3225 0.67299998 2
17.4615 2.2974999 0.70899999 2
17.4515 2.3145001 0.67900002 2
17.421499 2.3155 0.66900003 2
17.459499 2.3004999 0.704 2
17.456499 2.3104999 0.68699998 2
17.4575 2.2985001 0.708 2
17.4995 2.3334999 0.65499997 2
17.460501 2.3285 0.625 2
17.467501 2.3275001 0.64600003 2
17.4715 2.3355 0.57599998 2
17.4405 2.3225 0.64899999 2
17.4725 2.3345001 0.58399999 2
17.442499 2.3225 0.64899999 2
17.497499 2.3334999 0.65200001 2
17.4585 2.3295 0.61199999 2
17.438499 2.3234999 0.63300002 2
17.497499 2.3355 0.62199998 2
17.4715 2.3334999 0.597 2
17.490499 2.3315001 0.648 2
17.421499 2.3185 0.648 2
17.443501 2.3264999 0.616 2
17.470501 2.3304999 0.61900002 2
17.4785 2.3315001 0.634 2
17.470501 2.3285 0.64300001 2
17.4935 2.3334999 0.64200002 2
17.432501 2.3225 0.63300002 2
17.460501 2.3285 0.62599999 2
17.467501 2.3334999 0.59299999 2
17.5075 2.3364999 0.63999999 2
17.432501 2.3195 0.66399997 2
17.4485 2.3255 0.63099998 2
17.453501 2.3234999 0.65600002 2
17.4645 2.3275001 0.64200002 2
17.4445 2.3225 0.65100002 2
17.452499 2.3255 0.63499999 2
17.4825 2.3385 0.57099998 2
17.481501 2.3385 0.56800002 2
17.4965 2.3355 0.62199998 2
17.452499 2.3255 0.63999999 2
17.497499 2.3375001 0.61000001 2
17.490499 2.3315001 0.65100002 2
17.443501 2.3234999 0.63700002 2
17.4695 2.3315001 0.611 2
17.4415 2.3225 0.64600003 2
17.4925 2.3355 0.61199999 2
17.4835 2.3334999 0.61400002 2
17.495501 2.3364999 0.61699998 2
17.4855 2.3315001 0.648 2
17.443501 2.3225 0.648 2
17.488501 2.3345001 0.61799997 2
17.487499 2.3375001 0.583 2
17.4855 2.3304999 0.653 2
17.466499 2.3295 0.62400001 2
17.4415 2.3255 0.61500001 2
17.473499 2.3304999 0.62599999 2
17.466499 2.3285 0.63499999 2
17.4685 2.3315001 0.61400002 2
17.4305 2.3185 0.66000003 2
17.4785 2.3334999 0.60600001 2
17.474501 2.3345001 0.588 2
17.4765 2.3315001 0.62300003 2
17.4655 2.3255 0.66100001 2
17.488501 2.3334999 0.62900001 2
17.4835 2.3385 0.56999999 2
17.0755 2.4124999 0.62300003 2
17.0595 2.4154999 0.61900002 2
17.040501 2.4165001 0.63700002 2
17.064501 2.4105 0.65399998 2
17.085501 2.4115 0.62099999 2
17.0445 2.4175 0.62699997 2
17.1105 2.4015 0.662 2
17.085501 2.4135001 0.60299999 2
17.0795 2.4165001 0.59100002 2
17.0865 2.4085 0.64099997 2
17.061501 2.4165001 0.611 2
17.0825 2.4124999 0.61299998 2
17.1185 2.3994999 0.662 2
17.1175 2.4005001 0.65600002 2
17.056499 2.4135001 0.63800001 2
17.0555 2.4145 0.63 2
17.0375 2.4165001 0.64300001 2
17.0375 2.4154999 0.64600003 2
17.064501 2.4165001 0.60799998 2
17.026501 2.4175 0.64300001 2
17.0355 2.4175 0.63599998 2
17.057501 2.4124999 0.64200002 2
17.084499 2.4085 0.639 2
17.061501 2.4135001 0.63499999 2
17.0725 2.4115 0.63200003 2
17.0945 2.4085 0.62900001 2
17.092501 2.4054999 0.65399998 2
17.0795 2.4115 0.62699997 2
17.1085 2.4035001 0.65100002 2
17.0755 2.4124999 0.62599999 2
17.0595 2.4105 0.653 2
17.1105 2.4035001 0.648 2
17.0595 2.4124999 0.63999999 2
17.091499 2.4065001 0.648 2
17.0825 2.4094999 0.63300002 2
17.1175 2.4005001 0.65700001 2
17.074499 2.4154999 0.59899998 2
17.0875 2.3845 0.69199997 2
17.0795 2.3694999 0.71499997 2
17.068501 2.4024999 0.66600001 2
17.060499 2.4054999 0.662 2
17.098499 2.3515 0.74000001 2
17.105499 2.3975 0.66900003 2
17.068501 2.4035001 0.66299999 2
17.061501 2.3855 0.69199997 2
17.0595 2.4075 0.65899998 2
17.070499 2.3715 0.71200001 2
17.0725 2.3924999 0.68099999 2
17.054501 2.4045 0.66399997 2
17.0865 2.3505001 0.74299997 2
17.105499 2.4005001 0.66399997 2
17.067499 2.3794999 0.70099998 2
17.106501 2.3295 0.773 2
17.0525 2.4054999 0.66299999 2
17.0525 2.4075 0.66000003 2
17.1185 2.3905001 0.67900002 2
17.0525 2.3994999 0.67199999 2
17.070499 2.4075 0.65700001 2
17.0935 2.3935001 0.676 2
17.085501 2.3555 0.73500001 2
17.077499 2.4035001 0.66299999 2
17.106501 2.3875 0.685 2
17.0695 2.4054999 0.66100001 2
17.1005 2.3764999 0.70200002 2
17.078501 2.3564999 0.73400003 2
17.099501 2.3965001 0.671 2
17.0935 2.3945 0.67500001 2
17.102501 2.4015 0.66399997 2
17.0765 2.3724999 0.71100003 2
17.1115 2.3594999 0.727 2
17.0695 2.3785 0.70300001 2
17.112499 2.3905001 0.67900002 2
17.0485 2.3965001 0.67699999 2
17.1005 2.3694999 0.71200001 2
17.1075 2.3385 0.759 2
17.0595 2.4065001 0.66100001 2
17.109501 2.3405001 0.755 2
17.1035 2.3675001 0.71499997 2
17.092501 2.3975 0.671 2
17.116501 2.3855 0.68599999 2
17.106501 2.3434999 0.75099999 2
17.0935 2.3615 0.72500002 2
17.1035 2.3534999 0.73699999 2
17.0895 2.3794999 0.699 2
17.088499 2.3655 0.71899998 2
17.0795 2.3605001 0.72899997 2
17.053499 2.3985 0.67400002 2
17.0695 2.3994999 0.67000002 2
17.063499 2.3764999 0.70499998 2
17.1005 2.3824999 0.69199997 2
17.0275 2.4145 0.65200001 2
17.0595 2.3945 0.67900002 2
17.053499 2.3864999 0.69099998 2
17.0735 2.4045 0.662 2
17.0755 2.3675001 0.71799999 2
17.0905 2.3445001 0.75199997 2
17.115499 2.3805001 0.69400001 2
17.095501 2.3505001 0.74199998 2
17.078501 2.3965001 0.67400002 2
17.1035 2.3285 0.77499998 2
17.0355 2.4124999 0.653 2
17.1145 2.3785 0.69700003 2
17.0425 2.4085 0.66000003 2
17.112499 2.3705001 0.70999998 2
17.0975 2.3965001 0.67199999 2
17.078501 2.4035001 0.66299999 2
17.088499 2.4005001 0.66600001 2
17.054501 2.3975 0.67400002 2
17.053499 2.4584999 0.44400001 2
17.084499 2.3945 0.46799999 2
17.071501 2.4405 0.44999999 2
17.0655 2.4354999 0.45300001 2
17.078501 2.3954999 0.46900001 2
17.068501 2.3954999 0.47 2
17.0625 2.4265001 0.45699999 2
17.081499 2.4024999 0.465 2
17.0735 2.3835001 0.47499999 2
17.071501 2.3935001 0.47099999 2
17.0725 2.4315 0.454 2
17.074499 2.3855 0.47400001 2
17.098499 2.3954999 0.46599999 2
17.0555 2.4305 0.456 2
17.078501 2.4184999 0.458 2
17.074499 2.3885 0.47299999 2
17.067499 2.4145 0.46200001 2
17.0765 2.4175 0.45899999 2
17.109501 2.3994999 0.46200001 2
17.068501 2.4435 0.44800001 2
17.0595 2.4145 0.463 2
17.053499 2.4365001 0.454 2
17.0515 2.4425001 0.45100001 2
17.099501 2.3965001 0.465 2
17.084499 2.3915 0.47 2
17.1115 2.4514999 0.454 2
17.1635 2.4955001 0.456 2
17.057501 2.4855001 0.44 2
17.2255 2.5655 0.456 2
17.223499 2.5565 0.45699999 2
17.1535 2.5005 0.454 2
17.213499 2.5715001 0.45300001 2
17.081499 2.4725001 0.44600001 2
17.2075 2.5415001 0.45699999 2
17.2185 2.5664999 0.45500001 2
17.106501 2.4135001 0.45899999 2
17.1905 2.5595 0.45100001 2
17.127501 2.4665 0.45500001 2
17.134501 2.4925001 0.45199999 2
17.0895 2.4744999 0.447 2
17.165501 2.4795001 0.45899999 2
17.150499 2.4805 0.456 2
17.0695 2.4955001 0.44 2
17.134501 2.4855001 0.45300001 2
17.1745 2.5534999 0.449 2
17.151501 2.5014999 0.45300001 2
17.112499 2.4575 0.45300001 2
17.0875 2.4805 0.44499999 2
17.095501 2.4384999 0.454 2
17.106501 2.4085 0.46000001 2
17.227501 2.5604999 0.45699999 2
17.0755 2.4484999 0.449 2
17.154499 2.4765 0.458 2
17.2215 2.5534999 0.45699999 2
17.1735 2.5395 0.45100001 2
17.1395 2.5355 0.44600001 2
17.2335 2.5825 0.45500001 2
17.1905 2.5195 0.45699999 2
17.1385 2.4735 0.45500001 2
17.1245 2.4565001 0.456 2
17.179501 2.5545001 0.44999999 2
17.095501 2.4295001 0.45500001 2
17.1555 2.4835 0.45699999 2
17.0665 2.4914999 0.44 2
17.099501 2.4784999 0.44800001 2
17.1315 2.4974999 0.44999999 2
17.1325 2.4974999 0.45100001 2
17.0735 2.4835 0.44299999 2
17.2075 2.5695 0.45199999 2
17.091499 2.4635 0.449 2
17.188499 2.5295 0.45500001 2
17.0965 2.4335001 0.45500001 2
17.102501 2.4895 0.447 2
17.193501 2.5325 0.456 2
17.0555 2.4635 0.44299999 2
17.216499 2.5585001 0.45500001 2
17.1075 2.4124999 0.46000001 2
17.113501 2.4305 0.458 2
17.1555 2.5374999 0.44800001 2
17.202499 2.5685 0.45199999 2
17.123501 2.5074999 0.44800001 2
17.178499 2.5565 0.449 2
17.1035 2.4735 0.449 2
17.1085 2.5105 0.44400001 2
17.2115 2.5485001 0.456 2
17.0895 2.4635 0.449 2
17.1695 2.5525 0.44800001 2
17.077499 2.4514999 0.449 2
17.165501 2.5195 0.45300001 2
17.1085 2.4435 0.45500001 2
17.2055 2.5545001 0.454 2
17.0945 2.4335001 0.454 2
17.154499 2.4675 0.45899999 2
17.106501 2.4414999 0.45500001 2
17.1705 2.4875 0.45899999 2
17.119499 2.5135 0.44600001 2
17.115499 2.5014999 0.447 2
17.088499 2.4795001 0.44600001 2
17.2505 2.5895 0.45699999 2
17.092501 2.4254999 0.45500001 2
17.1665 2.5035 0.45500001 2
17.1105 2.4135001 0.46000001 2
17.0765 2.4855001 0.44299999 2
17.0765 2.4835 0.44299999 2
17.196501 2.5595 0.45199999 2
17.098499 2.5114999 0.442 2
17.2115 2.5455 0.45699999 2
17.143499 2.4635 0.458 2
17.1015 2.5014999 0.44499999 2
17.112499 2.4554999 0.454 2
17.203501 2.5335 0.45699999 2
17.115499 2.4295001 0.458 2
17.130501 2.4535 0.45699999 2
17.217501 2.5604999 0.45500001 2
17.185499 2.5365 0.454 2
17.1325 2.4324999 0.461 2
17.220501 2.5664999 0.45500001 2
17.112499 2.4925001 0.44800001 2
17.1175 2.4454999 0.456 2
17.185499 2.5215001 0.456 2
17.1625 2.5144999 0.45300001 2
17.1315 2.4305 0.461 2
17.234501 2.5715001 0.45699999 2
17.098499 2.4254999 0.456 2
17.241501 2.5825 0.456 2
17.0625 2.4814999 0.44100001 2
17.143499 2.4965 0.45300001 2
17.0935 2.4554999 0.44999999 2
17.1625 2.5295 0.45100001 2
17.171499 2.4985001 0.45699999 2
17.1765 2.5395 0.45199999 2
17.0895 2.4395001 0.45199999 2
17.1385 2.5155001 0.449 2
17.1035 2.5044999 0.44400001 2
17.196501 2.5555 0.45300001 2
17.078501 2.4935 0.442 2
17.1665 2.4795001 0.45899999 2
17.2225 2.5745001 0.454 2
17.0725 2.4665 0.44499999 2
17.1175 2.4405 0.45699999 2
17.137501 2.5114999 0.449 2
17.1845 2.5335 0.454 2
17.158501 2.5374999 0.449 2
17.129499 2.4784999 0.45300001 2
17.0515 2.4725001 0.44100001 2
17.164499 2.5295 0.45100001 2
17.061501 2.4625001 0.44400001 2
17.1675 2.4965 0.45699999 2
17.181499 2.5204999 0.45500001 2
17.0875 2.4484999 0.45100001 2
17.092501 2.4324999 0.454 2
17.123501 2.4995 0.449 2
17.1805 2.5095 0.45699999 2
17.099501 2.4635 0.44999999 2
17.1625 2.4825001 0.458 2
17.2015 2.5695 0.45100001 2
17.2465 2.5885 0.456 2
17.1005 2.4235001 0.45699999 2
17.216499 2.5764999 0.45300001 2
17.1015 2.4925001 0.44600001 2
17.1005 2.4844999 0.447 2
17.2395 2.5764999 0.45699999 2
17.0525 2.5595 0.44100001 2
17.0945 2.6605 0.45899999 2
17.057501 2.5574999 0.44400001 2
17.0625 2.6865001 0.44 2
17.0965 2.7205 0.45699999 2
17.0455 2.5374999 0.43799999 2
17.115499 2.7114999 0.46799999 2
17.057501 2.5385001 0.44499999 2
17.053499 2.5344999 0.44299999 2
17.047501 2.5274999 0.44 2
17.116501 2.6984999 0.46900001 2
17.1035 2.6805 0.463 2
17.1245 2.7084999 0.47400001 2
17.0755 2.6294999 0.44999999 2
17.1015 2.7005 0.461 2
17.0525 2.6294999 0.43700001 2
17.092501 2.6194999 0.46000001 2
17.0455 2.5355 0.43900001 2
17.1215 2.6995001 0.472 2
17.105499 2.6865001 0.46399999 2
17.060499 2.7014999 0.43799999 2
17.102501 2.6795001 0.46200001 2
17.077499 2.6975 0.447 2
17.0795 2.6405001 0.45199999 2
17.091499 2.7214999 0.454 2
17.1145 2.7084999 0.46799999 2
17.113501 2.6824999 0.46799999 2
17.0805 2.7114999 0.44800001 2
17.084499 2.6975 0.45100001 2
17.061501 2.5725 0.44600001 2
17.1105 2.6805 0.46700001 2
17.092501 2.6355 0.46000001 2
17.039499 2.5035 0.43700001 2
17.0725 2.6805 0.44600001 2
17.0695 2.6835001 0.44400001 2
17.0765 2.5855 0.45300001 2
17.050501 2.6015 0.43799999 2
17.109501 2.7065001 0.465 2
17.0525 2.5715001 0.44100001 2
17.0585 2.5585001 0.44499999 2
17.074499 2.7054999 0.44499999 2
17.0495 2.6005001 0.43700001 2
17.0665 2.5815001 0.44800001 2
17.0945 2.6805 0.458 2
17.0665 2.5875001 0.447 2
17.067499 2.5775001 0.449 2
17.1105 2.7045 0.46599999 2
17.070499 2.5645001 0.45100001 2
17.0655 2.6355 0.44400001 2
17.0935 2.7025001 0.456 2
17.0835 2.6164999 0.45500001 2
17.061501 2.5655 0.44600001 2
17.074499 2.5885 0.45199999 2
17.0755 2.6745 0.44800001 2
17.0965 2.6795001 0.45899999 2
17.0585 2.5864999 0.44299999 2
17.068501 2.6094999 0.44800001 2
17.1035 2.6975 0.46200001 2
17.109501 2.7014999 0.465 2
17.077499 2.6654999 0.449 2
17.0875 2.6735001 0.45500001 2
17.0415 2.5025001 0.43799999 2
17.0515 2.5945001 0.43900001 2
17.047501 2.5415001 0.44 2
17.0625 2.6135001 0.44400001 2
17.056499 2.5565 0.44299999 2
17.099501 2.7165 0.45899999 2
17.0625 2.6094999 0.44400001 2
17.056499 2.5415001 0.44499999 2
17.0425 2.5025001 0.43900001 2
17.1245 2.7025001 0.47400001 2
17.053499 2.6275001 0.43799999 2
17.0755 2.6545 0.449 2
17.0665 2.5555 0.449 2
17.105499 2.7184999 0.46200001 2
17.046499 2.5415001 0.43900001 2
17.040501 2.5114999 0.43700001 2
17.0665 2.6085 0.44600001 2
17.067499 2.5585001 0.44999999 2
17.1015 2.6554999 0.463 2
17.061501 2.6055 0.44299999 2
17.0445 2.5445001 0.43799999 2
17.0585 2.5804999 0.44400001 2
17.0965 2.6524999 0.461 2
17.0765 2.6945 0.447 2
17.0625 2.7205 0.43799999 2
17.123501 2.7125001 0.47299999 2
17.053499 2.6264999 0.43799999 2
17.050501 2.5365 0.44100001 2
17.0625 2.6675 0.44100001 2
17.061501 2.6765001 0.44 2
17.106501 2.7155001 0.463 2
17.057501 2.5875001 0.442 2
17.088499 2.6935 0.454 2
17.060499 2.6415 0.44100001 2
17.0905 2.6914999 0.45500001 2
17.0495 2.5315001 0.44100001 2
17.064501 2.7114999 0.43900001 2
17.120501 2.7165 0.47099999 2
17.0515 2.6185 0.43700001 2
17.0975 2.6745 0.46000001 2
17.054501 2.6125 0.43900001 2
17.092501 2.6294999 0.46000001 2
17.1005 2.6965001 0.46000001 2
17.1355 2.5734999 0.45199999 2
17.1105 2.5555 0.449 2
17.1255 2.5745001 0.45199999 2
17.134501 2.6055 0.458 2
17.1805 2.6235001 0.46000001 2
17.231501 2.6105001 0.458 2
17.091499 2.5415001 0.447 2
17.0495 2.5114999 0.442 2
17.1765 2.5764999 0.45199999 2
17.1105 2.5734999 0.45199999 2
17.127501 2.6015 0.45699999 2
17.2015 2.6554999 0.46599999 2
17.1565 2.6715 0.46900001 2
17.1175 2.5655 0.45100001 2
17.063499 2.4974999 0.44 2
17.1215 2.6375 0.463 2
17.1255 2.6824999 0.47099999 2
17.151501 2.6695001 0.46799999 2
17.2155 2.5895 0.45500001 2
17.136499 2.6224999 0.461 2
17.143499 2.5725 0.45199999 2
17.202499 2.6164999 0.45899999 2
17.071501 2.5114999 0.442 2
17.1875 2.6754999 0.46900001 2
17.136499 2.5905001 0.45500001 2
17.1905 2.6505001 0.465 2
17.122499 2.6754999 0.46900001 2
17.2055 2.6275001 0.461 2
17.1465 2.7045 0.47400001 2
17.1185 2.6005001 0.45699999 2
17.1705 2.5685 0.45100001 2
17.1355 2.5764999 0.45300001 2
17.147499 2.5504999 0.44800001 2
17.206499 2.5864999 0.454 2
17.199499 2.6185 0.46000001 2
17.2325 2.6215 0.46000001 2
17.085501 2.5325 0.44499999 2
17.119499 2.5975001 0.456 2
17.0865 2.5105 0.442 2
17.140499 2.5445001 0.447 2
17.185499 2.5945001 0.456 2
17.0935 2.5945001 0.456 2
17.129499 2.5404999 0.447 2
17.2085 2.6394999 0.463 2
17.0805 2.5664999 0.45100001 2
17.1395 2.6575 0.46599999 2
17.106501 2.6345 0.463 2
17.1315 2.5634999 0.44999999 2
17.1735 2.5855 0.454 2
17.0655 2.4965 0.43900001 2
17.109501 2.6615 0.46700001 2
17.224501 2.6094999 0.458 2
17.1665 2.5534999 0.449 2
17.1315 2.5734999 0.45199999 2
17.1605 2.6585 0.46700001 2
17.1495 2.6364999 0.463 2
17.081499 2.5885 0.45500001 2
17.1425 2.6965001 0.47299999 2
17.0965 2.5725 0.45199999 2
17.199499 2.6585 0.46599999 2
17.140499 2.5465 0.44800001 2
17.154499 2.5875001 0.454 2
17.1425 2.5704999 0.45199999 2
17.2285 2.6025 0.45699999 2
17.1175 2.6215 0.46000001 2
17.1035 2.5585001 0.44999999 2
17.098499 2.6205001 0.46000001 2
17.2265 2.5945001 0.45500001 2
17.091499 2.5645001 0.45100001 2
17.1985 2.6064999 0.45699999 2
17.2185 2.6185 0.46000001 2
17.165501 2.6255 0.461 2
17.1455 2.6034999 0.45699999 2
17.0975 2.6205001 0.46000001 2
17.136499 2.6515 0.465 2
17.088499 2.5434999 0.447 2
17.1105 2.5395 0.447 2
17.147499 2.6185 0.46000001 2
17.113501 2.6385 0.463 2
17.1175 2.6375 0.463 2
17.130501 2.6454999 0.46399999 2
17.1485 2.6754999 0.46900001 2
17.1385 2.6385 0.463 2
17.1915 2.6575 0.46599999 2
17.206499 2.6045001 0.45699999 2
17.1315 2.6264999 0.461 2
17.188499 2.5775001 0.45300001 2
17.178499 2.5895 0.45500001 2
17.220501 2.6364999 0.46200001 2
17.102501 2.5895 0.45500001 2
17.157499 2.5545001 0.449 2
17.1005 2.5325 0.44499999 2
17.0875 2.5604999 0.44999999 2
17.1455 2.5905001 0.45500001 2
17.2115 2.5885 0.454 2
17.1255 2.7025001 0.47400001 2
17.140499 2.6224999 0.46000001 2
17.126499 2.6005001 0.45699999 2
17.127501 2.6135001 0.45899999 2
17.084499 2.5235 0.44400001 2
17.1945 2.6394999 0.463 2
17.1355 2.5925 0.45500001 2
17.158501 2.6995001 0.47299999 2
17.137501 2.5915 0.45500001 2
17.206499 2.6475 0.46399999 2
17.115499 2.5455 0.447 2
17.1595 2.7014999 0.47400001 2
17.0725 2.5195 0.44299999 2
17.1485 2.5875001 0.454 2
17.1905 2.6385 0.463 2
17.1255 2.6155 0.45899999 2
17.2045 2.5734999 0.45199999 2
17.1145 2.6445 0.46399999 2
17.084499 2.6015 0.45699999 2
17.2225 2.6294999 0.461 2
17.102501 2.5734999 0.45199999 2
17.1625 2.5645001 0.45100001 2
17.231501 2.6045001 0.45699999 2
17.0445 2.4905 0.43799999 2
17.2255 2.6175001 0.45899999 2
17.1465 2.7105 0.47499999 2
17.085501 2.5465 0.44800001 2
17.106501 2.5204999 0.44299999 2
17.172501 2.6914999 0.472 2
17.116501 2.6164999 0.46000001 2
17.085501 2.5204999 0.44299999 2
17.151501 2.6324999 0.46200001 2
17.109501 2.6485 0.465 2
17.1695 2.6005001 0.45699999 2
17.168501 2.5755 0.45199999 2
17.1005 2.5655 0.45100001 2
17.134501 2.6145 0.45899999 2
17.1015 2.6245 0.461 2
17.099501 2.5325 0.44499999 2
17.1465 2.6405001 0.463 2
17.1555 2.5465 0.447 2
17.1945 2.6045001 0.45699999 2
17.1595 2.6085 0.458 2
17.133499 2.7125001 0.47600001 2
17.154499 2.5545001 0.449 2
17.240499 2.6125 0.458 2
17.0495 2.5105 0.442 2
17.071501 2.5595 0.44999999 2
17.122499 2.6705 0.46900001 2
17.1485 2.5555 0.449 2
17.130501 2.6645 0.46799999 2
17.1415 2.5985 0.456 2
17.165501 2.6615 0.46700001 2
17.2015 2.5834999 0.454 2
17.143499 2.7145 0.47600001 2
17.0865 2.5465 0.44800001 2
17.064501 2.5225 0.44400001 2
17.1355 2.6724999 0.46900001 2
17.2075 2.6194999 0.46000001 2
17.157499 2.5934999 0.45500001 2
17.168501 2.5565 0.449 2
17.113501 2.6695001 0.46900001 2
17.092501 2.5855 0.454 2
17.1425 2.6615 0.46700001 2
17.251499 2.6005001 0.456 2
17.217501 2.6145 0.45899999 2
17.175501 2.5595 0.44999999 2
17.1565 2.5804999 0.45300001 2
17.057501 2.5005 0.44 2
17.119499 2.5634999 0.45100001 2
17.102501 2.6135001 0.45899999 2
17.1035 2.5975001 0.456 2
17.0795 2.5455 0.44800001 2
17.046499 2.5025001 0.44 2
17.2115 2.6064999 0.458 2
17.2285 2.6264999 0.461 2
17.1745 2.5845001 0.454 2
17.0975 2.6185 0.46000001 2
17.1775 2.6454999 0.46399999 2
17.0945 2.5174999 0.44299999 2
17.171499 2.6845 0.47099999 2
17.1145 2.5994999 0.45699999 2
17.068501 2.5114999 0.442 2
17.099501 2.5855 0.454 2
17.1665 2.6125 0.45899999 2
17.0805 2.5165 0.44299999 2
17.1805 2.6224999 0.46000001 2
17.1255 2.6105001 0.458 2
17.1875 2.5675001 0.45100001 2
17.127501 2.6684999 0.46799999 2
17.1395 2.6605 0.46700001 2
17.151501 2.6025 0.45699999 2
17.157499 2.6145 0.45899999 2
17.127501 2.6815 0.47099999 2
17.2015 2.6245 0.46000001 2
17.074499 2.5504999 0.44800001 2
17.2295 2.6005001 0.456 2
17.1745 2.6575 0.46599999 2
17.1775 2.6594999 0.46700001 2
17.091499 2.6075001 0.458 2
17.1665 2.6505001 0.465 2
17.1455 2.6865001 0.47099999 2
17.213499 2.5855 0.454 2
17.230499 2.6145 0.45899999 2
17.071501 2.5274999 0.44499999 2
17.1525 2.5834999 0.454 2
17.151501 2.5485001 0.44800001 2
17.1985 2.6335001 0.46200001 2
17.150499 2.5455 0.447 2
17.1635 2.6075001 0.458 2
17.113501 2.6275001 0.461 2
17.130501 2.5365 0.44600001 2
17.147499 2.5485001 0.44800001 2
17.115499 2.5834999 0.454 2
17.137501 2.5485001 0.44800001 2
17.144501 2.6605 0.46700001 2
17.1385 2.5975001 0.456 2
17.150499 2.5465 0.44800001 2
17.1455 2.6015 0.45699999 2
17.102501 2.5945001 0.456 2
17.130501 2.5365 0.44600001 2
17.1255 2.6025 0.45699999 2
17.1735 2.6854999 0.47099999 2
17.1525 2.6965001 0.47299999 2
17.1605 2.5545001 0.449 2
17.202499 2.3975 0.58499998 2
17.150499 2.4094999 0.56900001 2
17.2435 2.3875 0.59899998 2
17.123501 2.4094999 0.58600003 2
17.185499 2.4005001 0.58399999 2
17.279499 2.3805001 0.60500002 2
17.216499 2.3924999 0.59500003 2
17.2575 2.3855 0.59799999 2
17.2085 2.3975 0.58200002 2
17.2395 2.3875 0.60299999 2
17.245501 2.3885 0.59399998 2
17.259501 2.3835001 0.60399997 2
17.223499 2.3905001 0.59799999 2
17.261499 2.3824999 0.60799998 2
17.154499 2.4105 0.56199998 2
17.224501 2.3945 0.58399999 2
17.2505 2.3864999 0.59799999 2
17.158501 2.4045 0.58600003 2
17.151501 2.4094999 0.56900001 2
17.2145 2.3945 0.59100002 2
17.120501 2.4135001 0.574 2
17.1425 2.4094999 0.57200003 2
17.1635 2.4045 0.58200002 2
17.1875 2.3994999 0.58399999 2
17.2295 2.3905001 0.59500003 2
17.122499 2.4135001 0.57099998 2
17.143499 2.4075 0.58200002 2
17.238501 2.3885 0.59799999 2
17.1735 2.4075 0.56099999 2
17.161501 2.4065001 0.57300001 2
17.2215 2.3945 0.583 2
17.1905 2.3994999 0.58499998 2
17.1395 2.4065001 0.588 2
17.1455 2.4065001 0.583 2
17.2145 2.3915 0.60399997 2
17.158501 2.4015 0.59500003 2
17.1625 2.4085 0.56400001 2
17.1355 2.4075 0.588 2
17.202499 2.3954999 0.59399998 2
17.2885 2.3794999 0.60399997 2
17.2735 2.3805001 0.61000001 2
17.1775 2.4005001 0.58999997 2
17.123501 2.4124999 0.57300001 2
17.113501 2.4135001 0.57800001 2
17.1985 2.3994999 0.57800001 2
17.1385 2.4115 0.56800002 2
17.202499 2.3975 0.58600003 2
17.2195 2.3924999 0.59500003 2
17.186501 2.4024999 0.57200003 2
17.1695 2.4085 0.55900002 2
17.210501 2.3975 0.58099997 2
17.1845 2.4045 0.56800002 2
17.154499 2.4035001 0.59200001 2
17.227501 2.3855 0.62699997 2
17.1835 2.3935001 0.62800002 2
17.2255 2.3855 0.634 2
17.2015 2.3875 0.64499998 2
17.216499 2.3894999 0.611 2
17.168501 2.3924999 0.64999998 2
17.210501 2.3885 0.62599999 2
17.1215 2.4024999 0.64099997 2
17.1185 2.4054999 0.62099999 2
17.1315 2.4024999 0.62300003 2
17.2505 2.3824999 0.61900002 2
17.2665 2.3794999 0.62699997 2
17.0865 2.4154999 0.58899999 2
17.1745 2.3945 0.63300002 2
17.0935 2.4124999 0.60299999 2
17.1595 2.4005001 0.60600001 2
17.181499 2.3924999 0.634 2
17.113501 2.4045 0.63800001 2
17.195499 2.3924999 0.61400002 2
17.165501 2.4005001 0.59899998 2
17.158501 2.3954999 0.64700001 2
17.1805 2.3965001 0.60399997 2
17.164499 2.3985 0.61500001 2
17.123501 2.4005001 0.64899999 2
17.231501 2.3864999 0.61199999 2
17.1105 2.4085 0.611 2
17.188499 2.3915 0.63599998 2
17.123501 2.4054999 0.61199999 2
17.1105 2.4045 0.639 2
17.2395 2.3845 0.61900002 2
17.1775 2.3985 0.60000002 2
17.1605 2.4015 0.597 2
17.2155 2.3894999 0.616 2
17.151501 2.4024999 0.59799999 2
17.2085 2.3864999 0.64399999 2
17.1985 2.3915 0.61699998 2
17.1765 2.3915 0.648 2
17.1355 2.3985 0.64999998 2
17.1115 2.4105 0.59100002 2
17.144501 2.4035001 0.59799999 2
17.151501 2.4015 0.61000001 2
17.1465 2.3965001 0.65100002 2
17.1255 2.4045 0.61799997 2
17.092501 2.4135001 0.59100002 2
17.1775 2.3965001 0.61400002 2
17.1765 2.3924999 0.64499998 2
17.1185 2.4075 0.60100001 2
17.1835 2.3915 0.64300001 2
17.2285 2.3875 0.60900003 2
17.178499 2.3935001 0.63 2
17.164499 2.3924999 0.65700001 2
17.2335 2.3875 0.60799998 2
17.158501 2.4005001 0.60399997 2
17.1115 2.4105 0.59299999 2
17.237499 2.3855 0.616 2
17.199499 2.3915 0.62099999 2
17.262501 2.3815 0.616 2
17.2195 2.3855 0.63800001 2
17.283501 2.3764999 0.625 2
17.165501 2.3994999 0.60399997 2
17.2215 2.3885 0.616 2
17.178499 2.3954999 0.61699998 2
17.2855 2.3755 0.62900001 2
17.122499 2.4054999 0.61699998 2
17.2005 2.3875 0.64700001 2
17.143499 2.4024999 0.611 2
17.210501 2.3885 0.63 2
17.2185 2.3855 0.639 2
17.1665 2.3945 0.64399999 2
17.172501 2.3924999 0.64899999 2
17.1985 2.3894999 0.63999999 2
17.1605 2.4005001 0.60500002 2
17.1075 2.4094999 0.60500002 2
17.2875 2.3745 0.62900001 2
17.255501 2.3824999 0.61400002 2
17.2855 2.3775001 0.616 2
17.1175 2.4075 0.60900003 2
17.202499 2.3885 0.639 2
17.1045 2.4115 0.59100002 2
17.172501 2.3965001 0.61900002 2
17.1975 2.3924999 0.61400002 2
17.245501 2.3835001 0.62199998 2
17.171499 2.3975 0.61199999 2
17.150499 2.3994999 0.625 2
17.297501 2.3735001 0.625 2
17.1455 2.3954999 0.65799999 2
17.1285 2.4024999 0.63200003 2
17.133499 2.4035001 0.61400002 2
17.2225 2.3845 0.639 2
17.251499 2.3835001 0.61400002 2
17.196501 2.3894999 0.639 2
17.3095 2.3715 0.62599999 2
17.290501 2.3745 0.625 2
17.2335 2.3875 0.60799998 2
17.1075 2.4094999 0.60500002 2
17.196501 2.3924999 0.61799997 2
17.1495 2.3985 0.63599998 2
17.238501 2.4535 0.44600001 2
17.262501 2.4935 0.44600001 2
17.1975 2.4684999 0.454 2
17.143499 2.4215 0.45899999 2
17.1485 2.4414999 0.46000001 2
17.2225 2.5325 0.456 2
17.244499 2.5525 0.454 2
17.276501 2.4655001 0.44100001 2
17.244499 2.5715001 0.456 2
17.262501 2.5095 0.447 2
17.2335 2.4635 0.44800001 2
17.231501 2.5645001 0.45699999 2
17.209499 2.4655001 0.45199999 2
17.220501 2.4935 0.45300001 2
17.1495 2.4335001 0.45899999 2
17.238501 2.4354999 0.44400001 2
17.2355 2.4384999 0.44499999 2
17.2285 2.5274999 0.454 2
17.255501 2.5795 0.45500001 2
17.2665 2.4645 0.442 2
17.186501 2.4925001 0.458 2
17.238501 2.4484999 0.44499999 2
17.248501 2.4855001 0.447 2
17.1905 2.4805 0.456 2
17.2155 2.5385001 0.458 2
17.1845 2.4655001 0.456 2
17.245501 2.5335 0.45199999 2
17.188499 2.5035 0.45899999 2
17.1465 2.4195001 0.458 2
17.224501 2.4545 0.44800001 2
17.193501 2.4554999 0.45300001 2
17.1765 2.4825001 0.45899999 2
17.2015 2.5014999 0.45699999 2
17.2675 2.4985001 0.44499999 2
17.1835 2.4805 0.458 2
17.2335 2.4775 0.449 2
17.2665 2.4995 0.44499999 2
17.227501 2.4944999 0.45100001 2
17.185499 2.4295001 0.45199999 2
17.2355 2.4925001 0.44999999 2
17.213499 2.4405 0.449 2
17.168501 2.4505 0.45699999 2
17.2745 2.4545 0.44 2
17.1845 2.4974999 0.45899999 2
17.115499 2.4015 0.461 2
17.2085 2.5095 0.456 2
17.193501 2.5114999 0.45899999 2
17.1385 2.4075 0.458 2
17.2055 2.4725001 0.45300001 2
17.1945 2.4645 0.454 2
17.2675 2.4855001 0.44400001 2
17.1875 2.4974999 0.458 2
17.2365 2.4775 0.44800001 2
17.1915 2.4935 0.45699999 2
17.216499 2.4925001 0.45300001 2
17.175501 2.4635 0.45699999 2
17.1745 2.4655001 0.458 2
17.206499 2.5135 0.45699999 2
17.202499 2.4935 0.456 2
17.2495 2.5404999 0.45199999 2
17.2575 2.4835 0.44499999 2
17.157499 2.4305 0.45699999 2
17.259501 2.4475 0.442 2
17.251499 2.4384999 0.442 2
17.2155 2.4784999 0.45199999 2
17.230499 2.4605 0.44800001 2
17.2045 2.4935 0.45500001 2
17.258499 2.4695001 0.44400001 2
17.1565 2.4475 0.45899999 2
17.2465 2.5255001 0.45100001 2
17.189501 2.4725001 0.456 2
17.220501 2.4565001 0.449 2
17.192499 2.4565001 0.454 2
17.268499 2.5445001 0.449 2
17.217501 2.4605 0.44999999 2
17.234501 2.5285001 0.454 2
17.2575 2.4995 0.447 2
17.2425 2.4465001 0.44400001 2
17.171499 2.4775 0.45899999 2
17.2465 2.5225 0.45100001 2
17.240499 2.4495001 0.44499999 2
17.272499 2.4414999 0.43900001 2
17.254499 2.5295 0.44999999 2
17.2055 2.4744999 0.45300001 2
17.2745 2.4525001 0.44 2
17.262501 2.4665 0.44299999 2
17.2265 2.5215001 0.454 2
17.1975 2.5165 0.45899999 2
17.244499 2.4454999 0.44400001 2
17.234501 2.4345 0.44499999 2
17.2145 2.5235 0.456 2
17.2635 2.4614999 0.442 2
17.193501 2.4514999 0.45300001 2
17.1915 2.4384999 0.45199999 2
17.2565 2.5235 0.449 2
17.238501 2.4435 0.44499999 2
17.251499 2.5325 0.45100001 2
17.168501 2.4315 0.45500001 2
17.2155 2.4775 0.45199999 2
17.2805 2.4665 0.44 2
17.158501 2.4315 0.45699999 2
17.254499 2.4905 0.447 2
17.238501 2.4484999 0.44499999 2
17.2495 2.5425 0.45199999 2
17.2185 2.5125 0.45500001 2
17.1705 2.4614999 0.458 2
17.189501 2.4545 0.454 2
17.1565 2.4525001 0.45899999 2
17.255501 2.5795 0.45500001 2
17.217501 2.5025001 0.454 2
17.1465 2.4395001 0.46000001 2
17.268499 2.5025001 0.44499999 2
17.2675 2.4865 0.44400001 2
17.252501 2.5664999 0.454 2
17.220501 2.4895 0.45199999 2
17.186501 2.4925001 0.458 2
17.2575 2.5585001 0.45300001 2
17.150499 2.4354999 0.45899999 2
17.189501 2.4974999 0.458 2
17.279499 2.4645 0.44 2
17.2285 2.4354999 0.44600001 2
17.2395 2.5504999 0.45500001 2
17.2265 2.4405 0.447 2
17.234501 2.4405 0.44499999 2
17.216499 2.4425001 0.449 2
17.241501 2.4755001 0.447 2
17.1985 2.4525001 0.45199999 2
17.2055 2.4605 0.45199999 2
17.2075 2.4454999 0.44999999 2
17.1805 2.4614999 0.456 2
17.2265 2.5085001 0.45300001 2
17.175501 2.4795001 0.45899999 2
17.275499 2.4454999 0.43900001 2
17.1975 2.4275 0.44999999 2
17.2055 2.4735 0.45300001 2
17.2495 2.4805 0.447 2
17.2265 2.5534999 0.45699999 2
17.216499 2.4575 0.44999999 2
17.2635 2.4985001 0.44600001 2
17.231501 2.4495001 0.447 2
17.1595 2.4145 0.45500001 2
17.241501 2.4605 0.44600001 2
17.261499 2.5834999 0.454 2
17.2365 2.5565 0.456 2
17.241501 2.5225 0.45199999 2
17.2565 2.5764999 0.454 2
17.192499 2.4625001 0.454 2
17.143499 2.3945 0.463 2
17.1735 2.4024999 0.45899999 2
17.2675 2.4145 0.45100001 2
17.268499 2.3805001 0.46599999 2
17.282499 2.4124999 0.45100001 2
17.247499 2.3845 0.465 2
17.2815 2.3585 0.47600001 2
17.244499 2.3835001 0.46599999 2
17.2845 2.4315 0.442 2
17.262501 2.4154999 0.45100001 2
17.188499 2.4184999 0.45100001 2
17.2005 2.4215 0.44999999 2
17.2255 2.3864999 0.465 2
17.244499 2.3945 0.461 2
17.206499 2.3954999 0.461 2
17.231501 2.4035001 0.45699999 2
17.2815 2.3564999 0.477 2
17.1775 2.3924999 0.463 2
17.2005 2.3805001 0.46799999 2
17.272499 2.3625 0.47499999 2
17.244499 2.3694999 0.472 2
17.171499 2.4094999 0.456 2
17.1425 2.4005001 0.461 2
17.2015 2.3775001 0.47 2
17.220501 2.4094999 0.454 2
17.2325 2.4154999 0.45100001 2
17.1565 2.3924999 0.46399999 2
17.2875 2.3745 0.46900001 2
17.217501 2.3954999 0.461 2
17.248501 2.3954999 0.46000001 2
17.2885 2.3675001 0.472 2
17.1835 2.3954999 0.46200001 2
17.234501 2.4165001 0.45100001 2
17.2855 2.4284999 0.44400001 2
17.2775 2.3575001 0.477 2
17.240499 2.3824999 0.46700001 2
17.1835 2.4024999 0.458 2
17.2535 2.4045 0.456 2
17.2665 2.3715 0.47099999 2
17.2575 2.3635001 0.47499999 2
17.2885 2.4094999 0.45300001 2
17.259501 2.3775001 0.46799999 2
17.213499 2.3745 0.47099999 2
17.251499 2.4205 0.449 2
17.1665 2.3975 0.461 2
17.2465 2.3965001 0.45899999 2
17.2255 2.4165001 0.45100001 2
17.182501 2.4154999 0.45300001 2
17.1465 2.4005001 0.461 2
17.202499 2.3915 0.463 2
17.223499 2.4195001 0.44999999 2
17.283501 2.3705001 0.47099999 2
17.2215 2.4184999 0.44999999 2
17.251499 2.3694999 0.472 2
17.268499 2.3845 0.465 2
17.227501 2.3764999 0.46900001 2
17.238501 2.3815 0.46700001 2
17.202499 2.3985 0.46000001 2
17.2425 2.3945 0.461 2
17.217501 2.4135001 0.45300001 2
17.2055 2.4085 0.45500001 2
17.2225 2.3705001 0.47299999 2
17.279499 2.3585 0.47600001 2
17.2055 2.3975 0.46000001 2
17.272499 2.3965001 0.45899999 2
17.2255 2.4224999 0.44800001 2
17.234501 2.3894999 0.463 2
17.262501 2.3864999 0.46399999 2
17.2735 2.4094999 0.45300001 2
17.269501 2.4215 0.447 2
17.2045 2.3945 0.46200001 2
17.240499 2.3705001 0.472 2
17.230499 2.4115 0.45300001 2
17.244499 2.3915 0.46200001 2
17.217501 2.3935001 0.46200001 2
17.1915 2.4075 0.456 2
17.1915 2.4024999 0.458 2
17.283501 2.3605001 0.47499999 2
17.2635 2.3755 0.46900001 2
17.279499 2.3805001 0.46599999 2
17.172501 2.4105 0.45500001 2
17.231501 2.4094999 0.454 2
17.1945 2.3835001 0.46700001 2
17.2745 2.3645 0.47400001 2
17.2505 2.3764999 0.46900001 2
17.1425 2.3935001 0.46399999 2
17.2225 2.3775001 0.46900001 2
17.245501 2.4284999 0.44499999 2
17.1555 2.3965001 0.46200001 2
17.223499 2.3775001 0.46900001 2
17.157499 2.3965001 0.46200001 2
17.1555 2.3935001 0.65899998 2
17.1425 2.3645 0.708 2
17.238501 2.3555 0.68000001 2
17.1415 2.3355 0.75 2
17.195499 2.3605001 0.69099998 2
17.196501 2.3735001 0.67199999 2
17.2195 2.3615 0.68000001 2
17.1415 2.3525 0.72500002 2
17.1595 2.3494999 0.72100002 2
17.189501 2.3845 0.65799999 2
17.251499 2.3555 0.67400002 2
17.1675 2.3864999 0.66500002 2
17.1415 2.3915 0.66799998 2
17.134501 2.3395 0.74800003 2
17.130501 2.3505001 0.73299998 2
17.2125 2.3575001 0.68900001 2
17.1875 2.3815 0.66399997 2
17.1285 2.3664999 0.70999998 2
17.196501 2.3735001 0.671 2
17.1385 2.3385 0.74699998 2
17.241501 2.3805001 0.64300001 2
17.210501 2.3494999 0.69999999 2
17.1495 2.3515 0.722 2
17.136499 2.3415 0.74299997 2
17.2125 2.3855 0.648 2
17.126499 2.3315001 0.76099998 2
17.1315 2.3675001 0.70700002 2
17.1875 2.3664999 0.685 2
17.1905 2.3875 0.65399998 2
17.182501 2.3575001 0.70099998 2
17.1535 2.3915 0.66299999 2
17.161501 2.3715 0.68900001 2
17.181499 2.3685 0.685 2
17.1875 2.3605001 0.69400001 2
17.147499 2.3534999 0.72100002 2
17.2745 2.3724999 0.64099997 2
17.2255 2.3794999 0.64999998 2
17.1975 2.3575001 0.69499999 2
17.122499 2.3824999 0.68900001 2
17.2605 2.3585 0.667 2
17.237499 2.3755 0.65200001 2
17.2495 2.3525 0.68099999 2
17.1255 2.3705001 0.70599997 2
17.1415 2.3434999 0.73799998 2
17.2045 2.3845 0.65200001 2
17.133499 2.3375001 0.75 2
17.1255 2.3545001 0.72899997 2
17.206499 2.3534999 0.69700003 2
17.1625 2.3555 0.71200001 2
17.185499 2.3724999 0.67699999 2
17.3055 2.3664999 0.63599998 2
17.120501 2.3415 0.74900001 2
17.237499 2.3705001 0.65899998 2
17.1875 2.3515 0.708 2
17.1355 2.3835001 0.68199998 2
17.1455 2.3515 0.72399998 2
17.2195 2.3635001 0.67699999 2
17.123501 2.3445001 0.74400002 2
17.2075 2.3845 0.65100002 2
17.154499 2.3575001 0.713 2
17.1805 2.3864999 0.66000003 2
17.150499 2.3485 0.727 2
17.140499 2.3855 0.67699999 2
17.1385 2.3905001 0.671 2
17.165501 2.3715 0.68800002 2
17.2535 2.3645 0.66100001 2
17.1665 2.3525 0.71499997 2
17.1665 2.3845 0.66900003 2
17.161501 2.3824999 0.67299998 2
17.126499 2.3694999 0.70700002 2
17.1315 2.3555 0.72399998 2
17.1605 2.3385 0.73699999 2
17.224501 2.3505001 0.69300002 2
17.1385 2.3355 0.75099999 2
17.286501 2.3705001 0.639 2
17.2075 2.3705001 0.67199999 2
17.1325 2.3775001 0.69199997 2
17.1395 2.3864999 0.676 2
17.209499 2.3585 0.68699998 2
17.1845 2.3475001 0.71399999 2
17.2735 2.3664999 0.64899999 2
17.1735 2.3405001 0.72899997 2
17.283501 2.3675001 0.64499998 2
17.143499 2.3434999 0.73699999 2
17.168501 2.3494999 0.71799999 2
17.165501 2.3645 0.69700003 2
17.3265 2.3664999 0.62699997 2
17.1325 2.3285 0.76300001 2
17.2225 2.3485 0.69700003 2
17.279499 2.3735001 0.63700002 2
17.1735 2.3764999 0.676 2
17.2215 2.3815 0.64899999 2
17.137501 2.3724999 0.69700003 2
17.196501 2.3505001 0.70499998 2
17.116501 2.3405001 0.75400001 2
17.1525 2.3485 0.727 2
17.206499 2.3805001 0.65600002 2
17.119499 2.3794999 0.69499999 2
17.193501 2.3475001 0.71100003 2
17.1395 2.3425 0.741 2
17.1905 2.3824999 0.66100001 2
17.193501 2.3525 0.704 2
17.178499 2.3494999 0.71499997 2
17.1635 2.3355 0.741 2
17.157499 2.3694999 0.69400001 2
17.2015 2.3615 0.68699998 2
17.2785 2.3705001 0.64200002 2
17.116501 2.3415 0.75199997 2
17.1705 2.3515 0.71399999 2
17.175501 2.3434999 0.72399998 2
17.1835 2.3705001 0.68099999 2
17.217501 2.3605001 0.68199998 2
17.2015 2.3505001 0.70300001 2
17.2295 2.3585 0.68000001 2
17.171499 2.3675001 0.69 2
17.1665 2.3875 0.66399997 2
17.1495 2.3625 0.708 2
17.2005 2.3815 0.65799999 2
17.303499 2.3635001 0.64200002 2
17.151501 2.3935001 0.66100001 2
17.1215 2.3534999 0.73199999 2
17.2395 2.3545001 0.68099999 2
17.2145 2.3555 0.69099998 2
17.206499 2.3835001 0.653 2
17.1735 2.3685 0.68900001 2
17.1185 2.3675001 0.713 2
17.1595 2.3405001 0.73500001 2
17.195499 2.3775001 0.66600001 2
17.1315 2.3345001 0.755 2
17.2265 2.3635001 0.67400002 2
17.1635 2.3375001 0.73699999 2
17.1175 2.3464999 0.74400002 2
17.1115 2.3275001 0.77399999 2
17.202499 2.3485 0.70599997 2
17.158501 2.3494999 0.722 2
17.255501 2.3605001 0.66600001 2
17.175501 2.3425 0.72500002 2
17.130501 2.3664999 0.70899999 2
17.1325 2.3494999 0.73400003 2
17.1835 2.3534999 0.70599997 2
17.206499 2.3685 0.67500001 2
17.2055 2.3745 0.66600001 2
17.240499 2.3645 0.66600001 2
17.2535 2.3525 0.67799997 2
17.2535 2.3705001 0.65200001 2
17.144501 2.3375001 0.745 2
17.119499 2.3824999 0.69099998 2
17.2185 2.3505001 0.69700003 2
17.161501 2.3775001 0.68000001 2
17.3445 2.3164999 0.778 2
17.261499 2.3175001 0.77999997 2
17.393499 2.3125 0.778 2
17.238501 2.3134999 0.78200001 2
17.231501 2.3074999 0.78500003 2
17.248501 2.2744999 0.79799998 2
17.4065 2.3164999 0.77600002 2
17.178499 2.2635 0.80500001 2
17.195499 2.2934999 0.792 2
17.366501 2.3034999 0.78299999 2
17.3815 2.3115001 0.77899998 2
17.3095 2.3004999 0.78500003 2
17.258499 2.3034999 0.78600001 2
17.2925 2.2874999 0.792 2
17.384501 2.3134999 0.778 2
17.355499 2.3025 0.78299999 2
17.168501 2.3185 0.78200001 2
17.179501 2.3104999 0.78500003 2
17.1845 2.2855 0.79500002 2
17.199499 2.3115001 0.78399998 2
17.1565 2.2925 0.79299998 2
17.247499 2.2865 0.79299998 2
17.1285 2.3045001 0.78899997 2
17.182501 2.3085001 0.78600001 2
17.2815 2.2974999 0.78799999 2
17.216499 2.3034999 0.787 2
17.258499 2.2855 0.79299998 2
17.1905 2.3004999 0.78899997 2
17.185499 2.2974999 0.79000002 2
17.1675 2.2904999 0.79400003 2
17.1945 2.2974999 0.79000002 2
17.1695 2.3004999 0.78899997 2
17.3785 2.3155 0.77700001 2
17.109501 2.3215001 0.78200001 2
17.2255 2.3145001 0.78200001 2
17.1555 2.3145001 0.78399998 2
17.1675 2.3125 0.78500003 2
17.300501 2.3004999 0.78600001 2
17.2335 2.3055 0.78600001 2
17.189501 2.2755001 0.79900002 2
17.1845 2.2614999 0.80500001 2
17.189501 2.2765 0.79900002 2
17.1985 2.2685001 0.80199999 2
17.230499 2.2895 0.792 2
17.293501 2.3085001 0.78299999 2
17.171499 2.2595 0.80599999 2
17.2465 2.2895 0.792 2
17.112499 2.3195 0.78299999 2
17.241501 2.2934999 0.79100001 2
17.2705 2.3204999 0.778 2
17.3755 2.3125 0.77899998 2
17.2055 2.2674999 0.80199999 2
17.181499 2.2865 0.79500002 2
17.227501 2.2785001 0.79699999 2
17.262501 2.2795 0.796 2
17.342501 2.3175001 0.778 2
17.2845 2.2915001 0.79000002 2
17.338499 2.3034999 0.78399998 2
17.1255 2.3175001 0.78299999 2
17.2005 2.2874999 0.79400003 2
17.1285 2.3025 0.79000002 2
17.296499 2.2844999 0.79299998 2
17.1745 2.2715001 0.801 2
17.2915 2.3004999 0.78600001 2
17.206499 2.2945001 0.79100001 2
17.123501 2.3204999 0.78299999 2
17.3395 2.3125 0.77999997 2
17.334499 2.2965 0.787 2
17.3255 2.3034999 0.78399998 2
17.119499 2.3215001 0.78200001 2
17.127501 2.3204999 0.78200001 2
17.272499 2.3104999 0.78200001 2
17.2745 2.3025 0.78600001 2
17.1775 2.2865 0.79500002 2
17.318501 2.2904999 0.79000002 2
17.252501 2.2985001 0.78799999 2
17.377501 2.3134999 0.778 2
17.157499 2.2765 0.80000001 2
17.227501 2.2995 0.78799999 2
17.164499 2.2795 0.79900002 2
17.3535 2.3155 0.778 2
17.2535 2.3104999 0.78299999 2
17.355499 2.3185 0.77700001 2
17.2145 2.2825 0.796 2
17.306499 2.3155 0.77999997 2
17.213499 2.2985001 0.78899997 2
17.1635 2.3085001 0.78600001 2
17.1915 2.2955 0.79100001 2
17.265499 2.3015001 0.78600001 2
17.1905 2.3215001 0.77999997 2
17.2735 2.3145001 0.78100002 2
17.362499 2.3134999 0.77899998 2
17.3025 2.3045001 0.78399998 2
17.290501 2.3164999 0.77999997 2
17.2115 2.2735 0.79900002 2
17.1945 2.3055 0.787 2
17.195499 2.3065 0.78600001 2
17.324499 2.2965 0.787 2
17.2875 2.3125 0.78100002 2
17.3985 2.3134999 0.778 2
17.297501 2.3164999 0.77899998 2
17.137501 2.3185 0.78299999 2
17.1765 2.2614999 0.80500001 2
17.3085 2.3145001 0.77999997 2
17.2125 2.2674999 0.80199999 2
17.2715 2.2825 0.79400003 2
17.231501 2.2945001 0.79000002 2
17.158501 2.2774999 0.79900002 2
17.217501 2.2665 0.80199999 2
17.1905 2.2695 0.80199999 2
17.1945 2.2855 0.79500002 2
17.1905 2.2835 0.796 2
17.238501 2.3015001 0.787 2
17.150499 2.3004999 0.79000002 2
17.255501 2.3125 0.78200001 2
17.1675 2.2844999 0.796 2
17.1905 2.3115001 0.78399998 2
17.202499 2.2904999 0.79299998 2
17.2575 2.3065 0.78500003 2
17.2085 2.3175001 0.78200001 2
17.414499 2.3004999 0.78399998 2
17.418501 2.3045001 0.78200001 2
17.2885 2.2725 0.79900002 2
17.429501 2.3125 0.778 2
17.359501 2.2965 0.78600001 2
17.384501 2.3015001 0.78299999 2
17.3645 2.2704999 0.79900002 2
17.307501 2.2535 0.80800003 2
17.2645 2.2595 0.80500001 2
17.331499 2.2755001 0.79699999 2
17.275499 2.2535 0.80900002 2
17.4105 2.2895 0.79000002 2
17.384501 2.2985001 0.78500003 2
17.356501 2.2765 0.796 2
17.377501 2.2835 0.79299998 2
17.324499 2.2785001 0.796 2
17.3995 2.3055 0.78200001 2
17.334499 2.2895 0.79000002 2
17.1905 2.2565 0.80699998 2
17.327499 2.2735 0.79799998 2
17.3165 2.2695 0.80000001 2
17.373501 2.2744999 0.79799998 2
17.3435 2.2595 0.80500001 2
17.2635 2.2535 0.80900002 2
17.310499 2.2774999 0.796 2
17.387501 2.2785001 0.79500002 2
17.3605 2.2644999 0.80199999 2
17.3295 2.2715001 0.79900002 2
17.401501 2.2965 0.78600001 2
17.4125 2.3085001 0.77999997 2
17.276501 2.2525001 0.80900002 2
17.397499 2.2945001 0.787 2
17.3585 2.2665 0.80199999 2
17.4165 2.3115001 0.778 2
17.348499 2.2505 0.81 2
17.3435 2.2865 0.79100001 2
17.345501 2.2685001 0.801 2
17.370501 2.2855 0.792 2
17.3305 2.2665 0.80199999 2
17.283501 2.2715001 0.79900002 2
17.331499 2.2715001 0.79900002 2
17.400499 2.2735 0.79799998 2
17.279499 2.2755001 0.79699999 2
17.4025 2.2825 0.79299998 2
17.362499 2.2974999 0.78600001 2
17.365499 2.2574999 0.80599999 2
17.4105 2.3015001 0.78299999 2
17.359501 2.2955 0.787 2
17.310499 2.2525001 0.80900002 2
17.393499 2.2625 0.80299997 2
17.262501 2.2574999 0.80699998 2
17.327499 2.2505 0.81 2
17.372499 2.2544999 0.80800003 2
17.3895 2.2744999 0.79699999 2
17.3465 2.2865 0.79100001 2
17.3965 2.2804999 0.79400003 2
17.4055 2.2985001 0.78500003 2
17.3965 2.2955 0.787 2
17.404499 2.2635 0.80299997 2
17.4035 2.2614999 0.80400002 2
17.328501 2.2514999 0.80900002 2
17.255501 2.2644999 0.80299997 2
17.2145 2.2565 0.80699998 2
17.2775 2.2774999 0.796 2
17.2465 2.2655001 0.80199999 2
17.335501 2.2555001 0.80699998 2
17.394501 2.2774999 0.796 2
17.418501 2.3104999 0.77899998 2
17.345501 2.2785001 0.79500002 2
17.3375 2.2885001 0.79000002 2
17.2505 2.2565 0.80699998 2
17.3255 2.2704999 0.80000001 2
17.4035 2.2665 0.801 2
17.4175 2.2844999 0.792 2
17.3305 2.2804999 0.79400003 2
17.3225 2.2535 0.80800003 2
17.4035 2.2865 0.79100001 2
17.3445 2.2725 0.79799998 2
17.3155 2.2855 0.792 2
17.2605 2.2625 0.80400002 2
17.324499 2.2774999 0.796 2
17.380501 2.2704999 0.79900002 2
17.3195 2.2735 0.79799998 2
17.303499 2.2585001 0.80599999 2
17.3375 2.2505 0.81 2
17.247499 2.2665 0.80199999 2
17.2355 2.2695 0.801 2
17.429501 2.3145001 0.77700001 2
17.238501 2.2665 0.80199999 2
17.348499 2.7045 0.47400001 2
17.2335 2.6385 0.463 2
17.2185 2.6494999 0.465 2
17.3855 2.6795001 0.47 2
17.275499 2.6715 0.46900001 2
17.3225 2.6854999 0.47099999 2
17.3225 2.6405001 0.463 2
17.2295 2.6545 0.46599999 2
17.172501 2.7054999 0.47400001 2
17.1905 2.6984999 0.47299999 2
17.3575 2.6775 0.47 2
17.2705 2.6545 0.46599999 2
17.362499 2.7084999 0.47499999 2
17.258499 2.7084999 0.47499999 2
17.289499 2.6925001 0.472 2
17.2435 2.6364999 0.46200001 2
17.2145 2.6965001 0.47299999 2
17.296499 2.7105 0.47499999 2
17.321501 2.6355 0.46200001 2
17.216499 2.6965001 0.47299999 2
17.275499 2.6705 0.46799999 2
17.2925 2.6315 0.46200001 2
17.394501 2.7035 0.47400001 2
17.2565 2.6345 0.46200001 2
17.2125 2.6965001 0.47299999 2
17.313499 2.7165 0.47600001 2
17.2255 2.6984999 0.47299999 2
17.383499 2.6925001 0.472 2
17.272499 2.6854999 0.47099999 2
17.2075 2.7145 0.47600001 2
17.1975 2.7045 0.47400001 2
17.334499 2.6675 0.46799999 2
17.3445 2.6984999 0.47299999 2
17.1875 2.7195001 0.477 2
17.258499 2.6995001 0.47400001 2
17.283501 2.7184999 0.477 2
17.313499 2.6594999 0.46700001 2
17.314501 2.7065001 0.47499999 2
17.2565 2.7175 0.477 2
17.1945 2.6745 0.46900001 2
17.3235 2.6905 0.472 2
17.2355 2.6615 0.46700001 2
17.172501 2.7225001 0.477 2
17.2745 2.6965001 0.47299999 2
17.147499 2.7275 0.47799999 2
17.3395 2.6654999 0.46799999 2
17.3085 2.6684999 0.46799999 2
17.238501 2.6645 0.46700001 2
17.231501 2.7225001 0.477 2
17.244499 2.6935 0.472 2
17.2115 2.6605 0.46700001 2
17.318501 2.6715 0.46900001 2
17.2495 2.6735001 0.46900001 2
17.2565 2.6315 0.46200001 2
17.2745 2.6485 0.465 2
17.2325 2.7125001 0.47600001 2
17.245501 2.6884999 0.47099999 2
17.376499 2.6845 0.47099999 2
17.2185 2.6824999 0.47099999 2
17.230499 2.6845 0.47099999 2
17.310499 2.6364999 0.46200001 2
17.2715 2.6115 0.458 2
17.2855 2.6385 0.463 2
17.185499 2.6835001 0.47099999 2
17.2715 2.6275001 0.461 2
17.1845 2.6965001 0.47299999 2
17.2875 2.6475 0.46399999 2
17.2075 2.6675 0.46799999 2
17.3255 2.6914999 0.472 2
17.245501 2.7145 0.47600001 2
17.195499 2.7265 0.47799999 2
17.362499 2.6715 0.46900001 2
17.2605 2.6454999 0.46399999 2
17.3895 2.7145 0.47600001 2
17.2955 2.6865001 0.47099999 2
17.276501 2.6315 0.46200001 2
17.216499 2.6865001 0.47099999 2
17.3265 2.6565001 0.46599999 2
17.252501 2.6995001 0.47299999 2
17.321501 2.6435001 0.46399999 2
17.2215 2.7184999 0.477 2
17.283501 2.7235 0.47799999 2
17.217501 2.6675 0.46799999 2
17.1915 2.6775 0.47 2
17.262501 2.6324999 0.46200001 2
17.2185 2.6905 0.472 2
17.3445 2.6824999 0.47099999 2
17.2395 2.6784999 0.47 2
17.3305 2.6824999 0.47 2
17.3785 2.7145 0.47600001 2
17.2855 2.7205 0.477 2
17.342501 2.6965001 0.47299999 2
17.2055 2.7084999 0.47499999 2
17.328501 2.7045 0.47400001 2
17.210501 2.6635001 0.46700001 2
17.307501 2.6765001 0.47 2
17.3915 2.7114999 0.47600001 2
17.352501 2.7084999 0.47499999 2
17.3395 2.6765001 0.46900001 2
17.4095 2.6984999 0.47299999 2
17.2285 2.6635001 0.46700001 2
17.213499 2.7244999 0.47799999 2
17.3575 2.7084999 0.47499999 2
17.2145 2.7125001 0.47600001 2
17.3755 2.7184999 0.477 2
17.251499 2.6505001 0.465 2
17.261499 2.6724999 0.46900001 2
17.3435 2.6645 0.46700001 2
17.429501 2.7025001 0.47400001 2
17.2145 2.6984999 0.47299999 2
17.2055 2.6875 0.47099999 2
17.2985 2.7035 0.47400001 2
17.289499 2.6515 0.465 2
