# .PCD v0.7 - Point Cloud Data file format
VERSION 0.7
FIELDS x y z label
SIZE 4 4 4 4
TYPE F F F U
COUNT 1 1 1 1
WIDTH 1606
HEIGHT 1
VIEWPOINT 0 0 0 1 0 0 0
POINTS 1606
DATA ascii
18.040501 4.3604999 0.461 2
18.022499 4.3994999 0.46200001 2
18.070499 4.3715 0.456 2
18.182501 4.4124999 0.43799999 2
17.9895 4.3855 0.46700001 2
18.1485 4.4124999 0.44299999 2
18.1485 4.4105 0.44299999 2
18.0285 4.3505001 0.463 2
18.0415 4.3635001 0.46000001 2
18.209499 4.4054999 0.43399999 2
18.0665 4.4134998 0.45500001 2
18.0455 4.3525 0.46000001 2
17.952499 4.3544998 0.47400001 2
18.0245 4.3315001 0.46399999 2
17.998501 4.3185 0.46900001 2
18.060499 4.4004998 0.456 2
18.033501 4.3575001 0.46200001 2
18.004499 4.2934999 0.46900001 2
18.043501 4.3375001 0.461 2
17.9895 4.3685002 0.46799999 2
17.918501 4.4184999 0.47600001 2
18.0875 4.4184999 0.45100001 2
17.9865 4.4184999 0.46599999 2
18.1115 4.4015002 0.449 2
18.1465 4.3845 0.44400001 2
18.0655 4.3885002 0.456 2
17.987499 4.4184999 0.46599999 2
18.0515 4.3404999 0.46000001 2
18.018499 4.3775001 0.463 2
18.0235 4.3855 0.46200001 2
18.0485 4.3835001 0.45899999 2
18.119499 4.3724999 0.449 2
18.011499 4.3125 0.46700001 2
18.2055 4.4124999 0.435 2
18.0035 4.3464999 0.46700001 2
18.0005 4.4194999 0.46399999 2
18.0005 4.3484998 0.46700001 2
17.9855 4.3994999 0.46700001 2
18.1485 4.3775001 0.44400001 2
18.063499 4.3525 0.458 2
18.175501 4.4175 0.43900001 2
18.0765 4.3505001 0.456 2
17.9935 4.3985 0.46599999 2
18.199499 4.4165001 0.435 2
18.046499 4.4184999 0.458 2
18.0625 4.3195 0.45899999 2
18.0165 4.4095001 0.46200001 2
17.9715 4.3755002 0.47 2
18.172501 4.3924999 0.44 2
18.0975 4.3905001 0.45100001 2
17.967501 4.3625002 0.47099999 2
17.938499 4.3955002 0.47400001 2
18.061501 4.3365002 0.45899999 2
18.164499 4.4175 0.44 2
17.987499 4.4054999 0.46599999 2
17.994499 4.3744998 0.46700001 2
17.960501 4.4145002 0.47 2
18.0065 4.3435001 0.46599999 2
18.0965 4.3594999 0.45300001 2
18.022499 4.3045001 0.46599999 2
18.0105 4.4155002 0.463 2
18.009501 4.3404999 0.46599999 2
18.091499 4.3985 0.45199999 2
18.0165 4.3084998 0.46599999 2
18.004499 4.3755002 0.465 2
17.981501 4.3804998 0.46799999 2
18.0105 4.4085002 0.463 2
18.063499 4.4175 0.45500001 2
18.178499 4.4115 0.43900001 2
18.1625 4.3825002 0.442 2
18.033501 4.4045 0.46000001 2
18.182501 4.4004998 0.43900001 2
17.981501 4.3144999 0.47099999 2
18.119499 4.3614998 0.449 2
18.099501 4.3594999 0.45199999 2
18.0665 4.3575001 0.45699999 2
18.1075 4.3744998 0.44999999 2
17.994499 4.3245001 0.46900001 2
18.1315 4.4054999 0.44600001 2
18.046499 4.3705001 0.45899999 2
18.1395 4.4165001 0.44400001 2
18.0375 4.3014998 0.46399999 2
18.116501 4.3874998 0.449 2
17.953501 4.3785 0.47299999 2
17.953501 4.3835001 0.472 2
18.0655 4.3975 0.456 2
18.004499 4.3585 0.46599999 2
18.106501 4.3905001 0.44999999 2
17.9305 4.3994999 0.47499999 2
17.988501 4.3365002 0.46900001 2
18.078501 4.3785 0.45500001 2
18.0205 4.3344998 0.465 2
18.1085 4.3614998 0.45100001 2
18.1075 4.3915 0.44999999 2
18.022499 4.3175001 0.465 2
17.9555 4.3655 0.47299999 2
18.0385 4.4184999 0.45899999 2
18.022499 4.3895001 0.46200001 2
18.009501 4.4004998 0.46399999 2
18.085501 4.3705001 0.454 2
17.984501 4.3825002 0.46799999 2
17.967501 4.3525 0.472 2
18.0625 4.3264999 0.45899999 2
17.9895 4.3175001 0.47 2
18.0865 4.3455 0.45500001 2
18.0725 4.3695002 0.456 2
17.987499 4.3835001 0.46700001 2
18.0065 4.3895001 0.46399999 2
18.0765 4.3635001 0.45500001 2
17.9755 4.4025002 0.46799999 2
18.0035 4.3204999 0.46799999 2
18.1285 4.3905001 0.447 2
17.9795 4.3744998 0.46900001 2
18.0275 4.3575001 0.463 2
18.0215 4.2944999 0.46599999 2
18.1455 4.4064999 0.44400001 2
17.9935 4.3125 0.46900001 2
18.002501 4.3214998 0.46799999 2
18.1665 4.3975 0.44100001 2
18.134501 4.4155002 0.44499999 2
17.9935 4.2775002 0.47099999 2
17.9895 4.2814999 0.47099999 2
18.0665 4.4064999 0.45500001 2
18.0415 4.3534999 0.461 2
18.1845 4.4145002 0.43799999 2
17.994499 4.3295002 0.46900001 2
18.064501 4.3445001 0.458 2
17.9715 4.3204999 0.472 2
18.0865 4.3794999 0.45300001 2
18.047501 4.3585 0.46000001 2
18.068501 4.3315001 0.458 2
18.0765 4.3724999 0.45500001 2
17.966499 4.3775001 0.47099999 2
18.099501 4.3944998 0.45100001 2
18.1975 4.4134998 0.43599999 2
18.0455 4.3785 0.45899999 2
18.1015 4.3555002 0.45199999 2
18.136499 4.4165001 0.44400001 2
18.0235 4.3985 0.46200001 2
17.9725 4.3814998 0.47 2
18.1255 4.3794999 0.44800001 2
17.9855 4.3794999 0.46799999 2
18.1185 4.3645 0.449 2
17.9545 4.4064999 0.47099999 2
18.0345 4.3885002 0.46000001 2
18.0755 4.3414998 0.456 2
18.129499 4.4194999 0.44499999 2
17.9785 4.3404999 0.47099999 2
18.0285 4.3785 0.46200001 2
17.932501 4.3955002 0.47499999 2
17.9995 4.3905001 0.465 2
18.047501 4.3895001 0.458 2
18.1245 4.4145002 0.44600001 2
18.005501 4.3035002 0.46799999 2
18.054501 4.3204999 0.46000001 2
18.1075 4.3794999 0.44999999 2
17.967501 4.3885002 0.47 2
17.9615 4.4175 0.47 2
18.1775 4.3994999 0.43900001 2
18.039499 4.3905001 0.46000001 2
18.140499 4.3845 0.44499999 2
18.2075 4.4124999 0.43399999 2
17.987499 4.3625002 0.46799999 2
17.959499 4.3705001 0.472 2
17.956499 4.3955002 0.47099999 2
18.119499 4.3664999 0.449 2
18.0585 4.3744998 0.458 2
18.0495 4.4015002 0.458 2
18.036501 4.3245001 0.463 2
18.2005 4.4124999 0.435 2
18.070499 4.3334999 0.458 2
17.9335 4.4064999 0.47400001 2
17.9445 4.4105 0.47299999 2
17.987499 4.3705001 0.46799999 2
18.144501 4.3994999 0.44400001 2
17.9855 4.3074999 0.47099999 2
17.9615 4.3685002 0.472 2
18.1695 4.4064999 0.44 2
18.1175 4.3505001 0.44999999 2
18.071501 4.3445001 0.45699999 2
17.9765 4.4064999 0.46799999 2
18.022499 4.4175 0.461 2
18.193501 4.4155002 0.43599999 2
18.009501 4.3855 0.46399999 2
18.0285 4.3505001 0.463 2
18.070499 4.3965001 0.45500001 2
17.9615 4.3495002 0.47299999 2
17.984501 4.3295002 0.47 2
18.0805 4.3835001 0.454 2
17.943501 4.4134998 0.47299999 2
18.026501 4.3165002 0.46399999 2
18.0385 4.3435001 0.46200001 2
17.9515 4.3544998 0.47400001 2
17.977501 4.3695002 0.46900001 2
18.0375 4.3495002 0.46200001 2
18.0895 4.3765001 0.45300001 2
17.974501 4.3144999 0.472 2
18.136499 4.3734999 0.44600001 2
18.0905 4.3445001 0.454 2
17.9795 4.3195 0.47099999 2
18.012501 4.2975001 0.46700001 2
18.1915 4.4095001 0.43700001 2
17.9935 4.2804999 0.47099999 2
18.129499 4.4045 0.44600001 2
18.126499 4.3845 0.447 2
18.078501 4.3975 0.454 2
17.9475 4.4064999 0.472 2
17.9765 4.3125 0.472 2
17.990499 4.2845001 0.47099999 2
18.0065 4.3154998 0.46799999 2
18.106501 4.4204998 0.449 2
17.963499 4.3614998 0.472 2
18.1695 4.4194999 0.44 2
18.0525 4.3635001 0.45899999 2
17.9865 4.3825002 0.46799999 2
17.9725 4.3765001 0.47 2
18.0585 4.4025002 0.456 2
18.1425 4.4085002 0.44400001 2
18.115499 4.4194999 0.447 2
18.0445 4.3445001 0.461 2
18.0165 4.4035001 0.46200001 2
17.9545 4.3814998 0.472 2
18.0795 4.3534999 0.45500001 2
18.0805 4.4175 0.45300001 2
17.9685 4.4054999 0.46900001 2
18.0165 4.4025002 0.46200001 2
18.047501 4.4004998 0.458 2
18.0585 4.4755001 0.461 2
18.122499 4.5005002 0.45300001 2
18.1875 4.4435 0.43900001 2
18.195499 4.4324999 0.43700001 2
18.063499 4.5114999 0.463 2
18.2075 4.4235001 0.43399999 2
18.143499 4.4514999 0.44600001 2
18.112499 4.4584999 0.45100001 2
18.1775 4.4365001 0.44 2
18.1675 4.4675002 0.44400001 2
18.137501 4.4254999 0.44499999 2
18.1765 4.4445 0.44 2
18.0905 4.4984999 0.458 2
18.063499 4.4654999 0.45899999 2
18.1835 4.4415002 0.43900001 2
18.0755 4.4505 0.456 2
18.0865 4.4895 0.458 2
18.1005 4.4914999 0.456 2
18.120501 4.4914999 0.45300001 2
18.1245 4.4935002 0.45199999 2
18.0895 4.4664998 0.45500001 2
17.973499 4.4235001 0.46799999 2
17.998501 4.4425001 0.46599999 2
18.0945 4.4435 0.45300001 2
18.004499 4.4445 0.46599999 2
18.033501 4.4685001 0.46399999 2
18.009501 4.4495001 0.465 2
18.1455 4.4714999 0.447 2
18.0905 4.4645 0.45500001 2
18.077499 4.5265002 0.46200001 2
18.113501 4.4835 0.45300001 2
18.1045 4.4705 0.45300001 2
18.0515 4.5124998 0.465 2
18.147499 4.4454999 0.44499999 2
18.1605 4.4485002 0.44299999 2
18.1395 4.4315 0.44499999 2
18.077499 4.5064998 0.461 2
18.143499 4.4705 0.44800001 2
18.0945 4.4514999 0.45300001 2
18.0065 4.4724998 0.46799999 2
18.050501 4.4844999 0.463 2
17.984501 4.4425001 0.46799999 2
18.109501 4.4895 0.454 2
18.0425 4.4854999 0.46399999 2
17.9405 4.4245 0.47299999 2
18.071501 4.4514999 0.456 2
18.1415 4.4345002 0.44499999 2
18.0805 4.4675002 0.45699999 2
17.9825 4.4225001 0.46700001 2
18.164499 4.4254999 0.44 2
18.057501 4.4945002 0.46200001 2
17.9895 4.4375 0.46700001 2
18.064501 4.4365001 0.456 2
18.0695 4.5194998 0.463 2
18.102501 4.4315 0.44999999 2
18.008499 4.4245 0.463 2
17.960501 4.4425001 0.472 2
18.1175 4.4475002 0.449 2
18.032499 4.4245 0.46000001 2
18.1835 4.4355001 0.43900001 2
17.9835 4.4625001 0.47 2
18.039499 4.4204998 0.458 2
18.098499 4.4905 0.456 2
18.068501 4.4805002 0.46000001 2
18.1495 4.4524999 0.44499999 2
18.0865 4.4875002 0.45699999 2
18.0305 4.4685001 0.46399999 2
18.1595 4.4225001 0.44100001 2
18.0415 4.4454999 0.46000001 2
18.0935 4.4435 0.45300001 2
18.1325 4.4864998 0.45100001 2
18.0935 4.4445 0.45300001 2
18.040501 4.4285002 0.45899999 2
18.0805 4.5135002 0.461 2
18.147499 4.4615002 0.44600001 2
18.238501 4.4235001 0.43000001 2
18.0305 4.4654999 0.46399999 2
18.116501 4.4425001 0.449 2
18.0315 4.4594998 0.463 2
18.140499 4.4905 0.44999999 2
18.1175 4.4295001 0.44800001 2
18.0625 4.4734998 0.46000001 2
17.943501 4.4285002 0.47299999 2
18.1565 4.4615002 0.44499999 2
18.1315 4.4825001 0.44999999 2
18.084499 4.4854999 0.458 2
18.1285 4.4295001 0.44600001 2
17.953501 4.4334998 0.472 2
18.012501 4.4215002 0.46200001 2
18.112499 4.4815001 0.45300001 2
18.1675 4.4445 0.442 2
17.932501 4.4245 0.47499999 2
18.0555 4.4215002 0.456 2
18.0515 4.4835 0.46200001 2
17.991501 4.4274998 0.46599999 2
18.0165 4.4555001 0.465 2
17.938499 4.4345002 0.47499999 2
18.1395 4.4404998 0.44600001 2
17.959499 4.4365001 0.47099999 2
18.0445 4.4345002 0.45899999 2
18.0245 4.4305 0.461 2
18.060499 4.5205002 0.46399999 2
18.1845 4.4575 0.44100001 2
18.039499 4.5015001 0.46599999 2
18.2155 4.4324999 0.43399999 2
18.195499 4.4404998 0.43700001 2
18.192499 4.4264998 0.43700001 2
18.157499 4.4305 0.442 2
18.165501 4.4654999 0.44400001 2
18.046499 4.5085001 0.465 2
18.1425 4.4245 0.44400001 2
17.942499 4.4365001 0.47400001 2
17.991501 4.4654999 0.46900001 2
18.123501 4.4534998 0.449 2
18.057501 4.4295001 0.45699999 2
18.1115 4.4924998 0.454 2
18.1835 4.4555001 0.44100001 2
18.025499 4.4645 0.46399999 2
17.9865 4.4404998 0.46799999 2
17.929501 4.4225001 0.47499999 2
18.0865 4.4924998 0.458 2
18.202499 4.4375 0.43599999 2
18.0595 4.4895 0.46200001 2
18.0425 4.4485002 0.461 2
18.2045 4.4475002 0.43700001 2
18.0585 4.5105 0.46399999 2
18.040501 4.4784999 0.463 2
18.0735 4.4675002 0.458 2
18.1085 4.4565001 0.45100001 2
17.977501 4.4315 0.46900001 2
18.0245 4.4565001 0.46399999 2
18.0655 4.4615002 0.458 2
17.980499 4.4485002 0.47 2
18.0275 4.4345002 0.461 2
18.098499 4.4615002 0.45300001 2
18.136499 4.4615002 0.44800001 2
18.0065 4.4724998 0.46799999 2
18.206499 4.4315 0.435 2
18.053499 4.4334998 0.458 2
18.077499 4.5015001 0.46000001 2
18.1675 4.4394999 0.44100001 2
18.199499 4.4264998 0.43599999 2
18.0375 4.4315 0.46000001 2
18.011499 4.4225001 0.463 2
18.1765 4.4245 0.43900001 2
18.134501 4.4315 0.44499999 2
18.112499 4.4534998 0.45100001 2
18.165501 4.4404998 0.442 2
18.1285 4.4295001 0.44600001 2
17.984501 4.4225001 0.46700001 2
18.025499 4.4575 0.46399999 2
18.199499 4.4274998 0.43599999 2
18.011499 4.4565001 0.46599999 2
18.1455 4.4854999 0.449 2
17.9755 4.4295001 0.46900001 2
18.056499 4.4394999 0.458 2
18.004499 4.4524999 0.46599999 2
18.056499 4.4445 0.458 2
18.157499 4.4505 0.44400001 2
18.047501 4.4794998 0.463 2
18.0515 4.4285002 0.45699999 2
18.0865 4.4365001 0.45300001 2
18.060499 4.4584999 0.45899999 2
18.0865 4.4365001 0.45300001 2
18.0755 4.5275002 0.463 2
18.0215 4.4215002 0.461 2
18.1285 4.4534998 0.44800001 2
18.0005 4.4594998 0.46799999 2
18.032499 4.4924998 0.46599999 2
18.047501 4.4765 0.46200001 2
18.1705 4.4645 0.44299999 2
18.129499 4.4714999 0.44999999 2
17.928499 4.4245 0.47499999 2
18.133499 4.4945002 0.45100001 2
18.061501 4.4805002 0.461 2
18.195499 4.4365001 0.43700001 2
18.061501 4.5085001 0.463 2
18.070499 4.5005002 0.461 2
18.088499 4.4425001 0.45300001 2
18.057501 4.4974999 0.463 2
18.0965 4.4524999 0.45300001 2
18.022499 4.4534998 0.46399999 2
18.1525 4.4835 0.447 2
17.991501 4.4594998 0.46900001 2
18.1085 4.4565001 0.45199999 2
18.092501 4.4454999 0.45300001 2
18.109501 4.4464998 0.44999999 2
18.130501 4.4225001 0.44499999 2
18.217501 4.4295001 0.433 2
18.1455 4.4375 0.44400001 2
18.060499 4.5434999 0.45300001 2
18.0655 4.5634999 0.44400001 2
18.043501 4.5524998 0.442 2
18.0825 4.5654998 0.44999999 2
18.077499 4.5865002 0.43700001 2
18.0595 4.5454998 0.45199999 2
18.0725 4.5605001 0.44800001 2
18.0765 4.5844998 0.43700001 2
18.060499 4.5425 0.454 2
18.0665 4.5714998 0.44 2
18.077499 4.5454998 0.45899999 2
18.0625 4.5485001 0.45100001 2
18.0495 4.5434999 0.449 2
18.056499 4.5395002 0.454 2
18.0625 4.5514998 0.44999999 2
18.0585 4.5565 0.44499999 2
18.057501 4.5524998 0.447 2
18.0485 4.5615001 0.43799999 2
18.0625 4.5425 0.45500001 2
18.081499 4.5825 0.44 2
18.078501 4.5565 0.45300001 2
18.074499 4.5514998 0.45500001 2
18.0495 4.5524998 0.44400001 2
18.0555 4.5654998 0.43900001 2
18.0165 4.5444999 0.435 2
18.0755 4.5555 0.45300001 2
18.002501 4.2364998 0.46000001 2
18.0075 4.2455001 0.465 2
18.0485 4.1865001 0.45100001 2
18.0875 4.2115002 0.47099999 2
18.018499 4.2154999 0.45500001 2
18.0205 4.1875 0.44400001 2
18.0145 4.2405 0.465 2
18.060499 4.1995001 0.45899999 2
18.068501 4.1935 0.458 2
18.0285 4.2265 0.463 2
18.122499 4.2005 0.47499999 2
18.1285 4.1964998 0.47400001 2
18.012501 4.2305002 0.46000001 2
18.0005 4.2465 0.46399999 2
18.0495 4.2135 0.46200001 2
18.025499 4.2375002 0.46599999 2
18.0005 4.2455001 0.46399999 2
17.995501 4.2525001 0.465 2
17.995501 4.2585001 0.46799999 2
18.032499 4.1975002 0.45100001 2
18.053499 4.2335 0.47099999 2
18.078501 4.2084999 0.46700001 2
18.0285 4.1865001 0.44499999 2
18.0425 4.2145 0.461 2
18.070499 4.2205 0.47 2
18.0735 4.1945 0.46000001 2
18.0385 4.2224998 0.46399999 2
18.009501 4.2424998 0.465 2
18.0245 4.2094998 0.454 2
18.026501 4.2484999 0.47099999 2
18.0525 4.2154999 0.46399999 2
18.026501 4.2265 0.46200001 2
18.122499 4.1964998 0.47299999 2
18.0665 4.1904998 0.45699999 2
18.0415 4.2115002 0.45899999 2
17.9995 4.2474999 0.46399999 2
18.0965 4.1954999 0.46599999 2
18.088499 4.2075 0.46900001 2
18.025499 4.2055001 0.45300001 2
18.095501 4.1925001 0.465 2
18.068501 4.2205 0.47 2
18.0105 4.2364998 0.463 2
18.0345 4.1945 0.44999999 2
18.0895 4.2164998 0.47299999 2
18.0345 4.1985002 0.45199999 2
18.085501 4.1995001 0.465 2
18.0135 4.2014999 0.44800001 2
17.9995 4.2494998 0.465 2
17.9925 4.2624998 0.46900001 2
18.0175 4.2344999 0.463 2
18.077499 4.2164998 0.47099999 2
18.091499 4.1865001 0.461 2
18.039499 4.1865001 0.44800001 2
18.015499 4.2564998 0.472 2
18.067499 4.1904998 0.45699999 2
17.9995 4.2494998 0.465 2
18.0355 4.1954999 0.45100001 2
18.067499 4.1855001 0.45500001 2
18.0105 4.1964998 0.44600001 2
18.0145 4.2084999 0.45100001 2
18.109501 4.2055001 0.47400001 2
18.040501 4.1945 0.45199999 2
18.1105 4.1945 0.46900001 2
18.0145 4.2185001 0.456 2
18.0105 4.1884999 0.442 2
18.0105 4.1894999 0.44299999 2
18.0835 4.2014999 0.465 2
18.047501 4.1855001 0.44999999 2
18.0205 4.2484999 0.47 2
18.119499 4.1964998 0.472 2
18.064501 4.2164998 0.46700001 2
18.047501 4.2185001 0.46399999 2
18.054501 4.2094998 0.46200001 2
18.022499 4.2525001 0.472 2
18.0105 4.1904998 0.44299999 2
18.172501 4.3035002 0.454 2
18.0965 4.2405 0.47 2
18.077499 4.3154998 0.45899999 2
18.1605 4.2715001 0.461 2
18.216499 4.4045 0.43399999 2
18.1245 4.2814999 0.461 2
18.193501 4.2814999 0.45699999 2
18.1565 4.2824998 0.45899999 2
18.1035 4.2585001 0.46700001 2
18.150499 4.2575002 0.46399999 2
18.1555 4.2135 0.47099999 2
18.078501 4.3134999 0.45899999 2
18.158501 4.2414999 0.46599999 2
18.0725 4.2865 0.46399999 2
18.182501 4.3175001 0.45100001 2
18.165501 4.2865 0.458 2
18.1565 4.3344998 0.44999999 2
18.0865 4.3264999 0.456 2
18.1355 4.3185 0.454 2
18.1315 4.2684999 0.463 2
18.054501 4.2585001 0.47 2
18.2195 4.4035001 0.43399999 2
18.137501 4.2435002 0.46700001 2
18.1315 4.3404999 0.45100001 2
18.1255 4.2505002 0.46700001 2
18.0825 4.3144999 0.458 2
18.1845 4.3245001 0.44999999 2
18.099501 4.3284998 0.45500001 2
18.0895 4.3045001 0.46000001 2
18.1695 4.3724999 0.44299999 2
18.1605 4.2045002 0.472 2
18.0835 4.3035002 0.46000001 2
18.168501 4.2335 0.46700001 2
18.2215 4.3855 0.43700001 2
18.1385 4.3425002 0.44999999 2
18.1705 4.3365002 0.449 2
18.1035 4.2375002 0.47 2
18.2005 4.3325 0.44800001 2
18.189501 4.2744999 0.458 2
18.120501 4.2554998 0.46599999 2
18.0375 4.2874999 0.46599999 2
18.1325 4.3074999 0.456 2
18.136499 4.2905002 0.45899999 2
18.150499 4.3035002 0.456 2
18.0865 4.2775002 0.465 2
18.1975 4.3664999 0.442 2
18.147499 4.1975002 0.47400001 2
18.133499 4.2785001 0.461 2
18.127501 4.2034998 0.47499999 2
18.181499 4.3175001 0.45100001 2
18.1185 4.2455001 0.46799999 2
18.1735 4.2884998 0.45699999 2
18.178499 4.3755002 0.44100001 2
18.0355 4.2525001 0.472 2
18.046499 4.2884998 0.465 2
18.033501 4.2585001 0.47099999 2
18.192499 4.3734999 0.44100001 2
18.0035 4.2705002 0.47099999 2
18.1905 4.3014998 0.454 2
18.063499 4.2674999 0.46799999 2
18.1485 4.3645 0.44499999 2
18.095501 4.2385001 0.47099999 2
18.1485 4.3334999 0.45100001 2
18.120501 4.3144999 0.456 2
18.116501 4.2465 0.46799999 2
18.220501 4.3934999 0.43599999 2
18.158501 4.3664999 0.44400001 2
18.168501 4.3395 0.44800001 2
18.0735 4.2465 0.47099999 2
18.157499 4.3284998 0.45100001 2
18.1705 4.2835002 0.458 2
18.136499 4.3165002 0.45500001 2
18.154499 4.2214999 0.47 2
18.2045 4.3744998 0.44 2
18.119499 4.3144999 0.456 2
18.1355 4.3014998 0.45699999 2
18.1215 4.3235002 0.454 2
18.084499 4.2735 0.465 2
18.1495 4.3365002 0.44999999 2
18.1625 4.3004999 0.456 2
18.120501 4.2494998 0.46700001 2
18.164499 4.3505001 0.447 2
18.092501 4.2465 0.46900001 2
18.181499 4.3625002 0.44400001 2
18.0235 4.2544999 0.47299999 2
18.1175 4.2735 0.463 2
18.1695 4.2275 0.46799999 2
18.1325 4.3525 0.449 2
18.0415 4.2564998 0.47099999 2
18.088499 4.2744999 0.465 2
18.1745 4.2474999 0.46399999 2
18.084499 4.2975001 0.461 2
18.2285 4.4074998 0.433 2
18.189501 4.3245001 0.44999999 2
18.077499 4.2824998 0.46399999 2
18.0425 4.3004999 0.463 2
18.071501 4.2465 0.47099999 2
18.0865 4.3295002 0.45500001 2
18.136499 4.3045001 0.45699999 2
18.1675 4.3785 0.442 2
18.091499 4.2224998 0.47400001 2
18.085501 4.2655001 0.46700001 2
18.1175 4.2635002 0.465 2
18.134501 4.2224998 0.47099999 2
18.0935 4.2915001 0.46200001 2
18.227501 4.4085002 0.433 2
18.195499 4.2975001 0.454 2
18.1255 4.2865 0.46000001 2
18.1465 4.3055 0.456 2
18.2265 4.3944998 0.435 2
18.172501 4.3255 0.45100001 2
18.0105 4.2795 0.46900001 2
18.1465 4.2785001 0.46000001 2
18.113501 4.2214999 0.472 2
18.161501 4.3625002 0.44499999 2
18.151501 4.2014999 0.47299999 2
18.165501 4.2055001 0.472 2
18.1245 4.2094998 0.47400001 2
18.1425 4.3225002 0.45300001 2
18.1595 4.2725 0.461 2
18.043501 4.2465 0.47299999 2
18.084499 4.3214998 0.45699999 2
18.1175 4.3235002 0.45500001 2
18.070499 4.2775002 0.465 2
18.109501 4.2795 0.463 2
18.1355 4.2674999 0.463 2
18.186501 4.3105001 0.45199999 2
18.115499 4.2474999 0.46799999 2
18.134501 4.3245001 0.45300001 2
18.171499 4.2705002 0.46000001 2
18.1285 4.2104998 0.47299999 2
18.1005 4.2245002 0.47299999 2
18.091499 4.3095002 0.45899999 2
18.203501 4.3905001 0.43700001 2
18.011499 4.2684999 0.47099999 2
18.1175 4.2245002 0.472 2
18.0835 4.2544999 0.46900001 2
18.185499 4.3655 0.44299999 2
18.1415 4.3344998 0.45100001 2
18.077499 4.2624998 0.46799999 2
18.1415 4.2265 0.47 2
18.1605 4.3425002 0.44800001 2
18.0555 4.2544999 0.47099999 2
18.1605 4.1945 0.47400001 2
18.136499 4.2424998 0.46700001 2
18.1555 4.3325 0.44999999 2
18.1385 4.3125 0.45500001 2
18.181499 4.3375001 0.44800001 2
18.1325 4.2874999 0.46000001 2
18.1315 4.2224998 0.47099999 2
18.144501 4.2494998 0.46599999 2
18.063499 4.3165002 0.45899999 2
18.129499 4.2115002 0.47299999 2
18.1175 4.2045002 0.47499999 2
18.064501 4.2804999 0.465 2
18.0805 4.3095002 0.45899999 2
18.203501 4.3965001 0.43599999 2
18.137501 4.3385 0.45100001 2
18.1105 4.2494998 0.46799999 2
18.1315 4.2484999 0.46700001 2
18.150499 4.2094998 0.472 2
18.053499 4.2705002 0.46799999 2
18.071501 4.2465 0.47099999 2
18.057501 4.2484999 0.47099999 2
18.140499 4.3284998 0.45199999 2
18.1605 4.2525001 0.46399999 2
18.1045 4.2164998 0.47400001 2
18.0765 4.3165002 0.458 2
18.0445 4.2735 0.46799999 2
18.158501 4.3594999 0.44600001 2
18.0235 4.2824998 0.46799999 2
18.143499 4.2214999 0.47 2
18.099501 4.2145 0.47499999 2
18.1285 4.3505001 0.449 2
18.188499 4.3495002 0.44499999 2
18.129499 4.2985001 0.458 2
18.1805 4.2754998 0.45899999 2
18.056499 4.2865 0.465 2
18.0275 4.2785001 0.46799999 2
18.143499 4.3235002 0.45300001 2
18.1045 4.2294998 0.472 2
18.071501 4.2325001 0.47299999 2
18.119499 4.2684999 0.46399999 2
18.126499 4.2505002 0.46700001 2
18.0875 4.2684999 0.46599999 2
18.0375 4.2934999 0.465 2
18.068501 4.2824998 0.465 2
18.1745 4.3685002 0.44299999 2
18.1845 4.3715 0.442 2
18.109501 4.3165002 0.456 2
18.171499 4.2934999 0.456 2
18.1835 4.3794999 0.44 2
18.189501 4.2635002 0.46000001 2
18.1735 4.3565001 0.44499999 2
18.2325 4.4045 0.433 2
18.193501 4.3934999 0.43700001 2
18.1315 4.2985001 0.458 2
18.126499 4.3404999 0.45100001 2
18.0945 4.2735 0.465 2
18.1465 4.3594999 0.44600001 2
18.113501 4.2645001 0.465 2
18.0205 4.2795 0.46799999 2
18.143499 4.3125 0.45500001 2
18.1485 4.1894999 0.47600001 2
18.0765 4.2665 0.46700001 2
18.171499 4.3344998 0.449 2
18.0805 4.3065 0.46000001 2
18.070499 4.3175001 0.45899999 2
18.172501 4.3035002 0.454 2
18.1105 4.2995 0.45899999 2
18.230499 4.4134998 0.43200001 2
18.046499 4.2554998 0.47099999 2
18.172501 4.3065 0.454 2
18.2115 4.3354998 0.44600001 2
18.1245 4.3425002 0.45100001 2
18.164499 4.2335 0.46700001 2
18.036501 4.2494998 0.47299999 2
18.1635 4.2915001 0.45699999 2
18.1765 4.2804999 0.458 2
18.1695 4.3284998 0.44999999 2
18.165501 4.3344998 0.449 2
18.203501 4.3365002 0.447 2
18.012501 4.2814999 0.46900001 2
18.0725 4.2934999 0.463 2
18.1525 4.2505002 0.465 2
18.1635 4.3664999 0.44400001 2
18.1745 4.2395 0.465 2
18.140499 4.2325001 0.46900001 2
18.195499 4.3715 0.44100001 2
18.109501 4.3235002 0.45500001 2
18.0805 4.2585001 0.46799999 2
18.0315 4.2554998 0.472 2
18.172501 4.2645001 0.461 2
18.136499 4.3105001 0.45500001 2
18.1185 4.2214999 0.472 2
18.1595 4.1954999 0.47400001 2
18.0725 4.2305002 0.47299999 2
18.1255 4.2265 0.47099999 2
18.106501 4.3414998 0.45199999 2
18.171499 4.3105001 0.45300001 2
18.2085 4.4015002 0.435 2
18.1105 4.2605 0.46599999 2
18.133499 4.2884998 0.46000001 2
18.0835 4.2484999 0.47 2
18.1525 4.2804999 0.46000001 2
18.115499 4.3065 0.458 2
18.147499 4.3065 0.45500001 2
18.0895 4.2674999 0.46599999 2
18.106501 4.3024998 0.45899999 2
18.1425 4.2725 0.46200001 2
18.1015 4.1405001 0.461 2
18.1245 4.1364999 0.46599999 2
18.123501 4.1545 0.46599999 2
18.0765 4.1785002 0.456 2
18.0945 4.1645002 0.46000001 2
18.126499 4.1374998 0.46700001 2
18.0975 4.1605 0.46000001 2
18.064501 4.1665001 0.45300001 2
18.081499 4.1745 0.45699999 2
18.150499 4.1244998 0.472 2
18.1255 4.1355 0.46599999 2
18.1465 4.1385002 0.47099999 2
18.0895 4.1455002 0.458 2
18.0875 4.1815 0.458 2
18.0835 4.1675 0.45699999 2
18.0425 4.1815 0.44800001 2
18.154499 4.1725001 0.47400001 2
18.0385 4.1805 0.447 2
18.1185 4.1364999 0.465 2
18.0485 4.1694999 0.449 2
18.1465 4.1205001 0.47099999 2
18.0345 4.1735001 0.44600001 2
18.0455 4.1754999 0.44800001 2
18.115499 4.1815 0.465 2
18.0935 4.1465001 0.45899999 2
18.1535 4.1504998 0.47299999 2
18.1395 4.1735001 0.47 2
18.0695 4.1585002 0.454 2
18.029499 4.1824999 0.44499999 2
18.095501 4.1595001 0.46000001 2
18.150499 4.1764998 0.47299999 2
18.112499 4.1735001 0.46399999 2
18.0805 4.1525002 0.456 2
18.109501 4.1504998 0.463 2
18.1325 4.1485 0.46799999 2
18.1215 4.1475 0.46599999 2
18.1385 4.1605 0.47 2
18.095501 4.1694999 0.46000001 2
18.064501 4.1795001 0.45300001 2
18.098499 4.1684999 0.461 2
18.158501 4.1485 0.47400001 2
18.039499 4.1774998 0.447 2
18.1035 4.1405001 0.461 2
18.1145 4.1655002 0.465 2
18.123501 4.1285 0.46599999 2
18.106501 4.1455002 0.46200001 2
18.0935 4.1434999 0.45899999 2
18.1185 4.1634998 0.465 2
18.1045 4.1574998 0.46200001 2
18.078501 4.1704998 0.456 2
18.105499 4.1645002 0.46200001 2
18.0805 4.1545 0.456 2
18.1495 4.1494999 0.472 2
18.112499 4.1745 0.46399999 2
18.151501 4.1444998 0.472 2
18.1695 4.5075002 0.449 2
18.1945 4.5545001 0.45300001 2
18.2225 4.4454999 0.43399999 2
18.1415 4.5644999 0.46000001 2
18.175501 4.5285001 0.45100001 2
18.1845 4.6294999 0.46399999 2
18.2285 4.4994998 0.44100001 2
18.122499 4.5265002 0.45699999 2
18.185499 4.4854999 0.44400001 2
18.206499 4.6085 0.45899999 2
18.116501 4.5405002 0.45899999 2
18.1705 4.5774999 0.45899999 2
18.120501 4.5654998 0.463 2
18.1415 4.5925002 0.46399999 2
18.0895 4.5504999 0.46399999 2
18.2155 4.4584999 0.43700001 2
18.1745 4.4805002 0.44499999 2
18.151501 4.6135001 0.46599999 2
18.1605 4.6244998 0.46599999 2
18.1415 4.5205002 0.454 2
18.1805 4.5495 0.454 2
18.202499 4.4714999 0.44 2
18.1185 4.5085001 0.45500001 2
18.1705 4.6114998 0.463 2
18.164499 4.5784998 0.45899999 2
18.0895 4.5384998 0.46200001 2
18.196501 4.4664998 0.44 2
18.223499 4.5215001 0.44499999 2
18.161501 4.6065001 0.46399999 2
18.181499 4.5075002 0.44800001 2
18.182501 4.5295 0.45100001 2
18.1425 4.5764999 0.46200001 2
18.1845 4.5935001 0.45899999 2
18.2325 4.4334998 0.43099999 2
18.181499 4.5184999 0.449 2
18.186501 4.5685 0.456 2
18.1805 4.4755001 0.44299999 2
18.189501 4.4924998 0.44499999 2
18.1595 4.4885001 0.447 2
18.1605 4.5685 0.458 2
18.1985 4.5735002 0.45500001 2
18.231501 4.4685001 0.43700001 2
18.129499 4.5665002 0.46200001 2
18.164499 4.4835 0.44600001 2
18.199499 4.5695 0.454 2
18.2005 4.5495 0.45100001 2
18.2055 4.6364999 0.463 2
18.192499 4.6535001 0.46700001 2
18.1415 4.5285001 0.45500001 2
18.2005 4.6585002 0.46700001 2
18.154499 4.4864998 0.44800001 2
18.2125 4.4575 0.43700001 2
18.1695 4.4755001 0.44400001 2
18.1745 4.4905 0.44600001 2
18.099501 4.5235 0.45899999 2
18.1845 4.4734998 0.44299999 2
18.181499 4.5925002 0.46000001 2
18.223499 4.5165 0.44400001 2
18.2045 4.5725002 0.454 2
18.1315 4.5714998 0.46200001 2
18.181499 4.5444999 0.45300001 2
18.098499 4.5574999 0.46399999 2
18.0895 4.5504999 0.46399999 2
18.129499 4.5745001 0.463 2
18.1395 4.5764999 0.46200001 2
18.172501 4.5834999 0.45899999 2
18.2085 4.4454999 0.43599999 2
18.1285 4.5075002 0.454 2
18.1845 4.5885 0.45899999 2
18.199499 4.5615001 0.45300001 2
18.1015 4.5295 0.46000001 2
18.206499 4.6195002 0.461 2
18.209499 4.5415001 0.449 2
18.1985 4.5355 0.44999999 2
18.147499 4.5165 0.45300001 2
18.134501 4.5295 0.456 2
18.1845 4.6504998 0.46700001 2
18.136499 4.5114999 0.45300001 2
18.182501 4.6234999 0.46399999 2
18.203501 4.6535001 0.46599999 2
18.178499 4.5015001 0.447 2
18.213499 4.5784998 0.454 2
18.1635 4.6215 0.46599999 2
18.2075 4.5035 0.44400001 2
18.1945 4.4955001 0.44499999 2
18.195499 4.5135002 0.447 2
18.2295 4.4345002 0.43200001 2
18.122499 4.5865002 0.465 2
18.2225 4.4415002 0.43399999 2
18.1735 4.5165 0.44999999 2
18.189501 4.5745001 0.456 2
18.2055 4.5225 0.447 2
18.216499 4.5114999 0.44400001 2
18.126499 4.5465002 0.45899999 2
18.1355 4.6005001 0.46599999 2
18.1455 4.5434999 0.45699999 2
18.2085 4.6234999 0.461 2
18.213499 4.5914998 0.456 2
18.2005 4.6655002 0.46799999 2
18.2055 4.5275002 0.44800001 2
18.1465 4.5005002 0.44999999 2
18.2125 4.4854999 0.44100001 2
18.1845 4.4755001 0.44299999 2
18.2145 4.4445 0.435 2
18.2115 4.5565 0.45100001 2
18.1805 4.6224999 0.46399999 2
18.186501 4.4924998 0.44499999 2
18.123501 4.5745001 0.463 2
18.1875 4.5244999 0.449 2
18.1945 4.6174998 0.46200001 2
18.2185 4.4454999 0.435 2
18.1395 4.5755 0.46200001 2
18.179501 4.5184999 0.449 2
18.2005 4.6545 0.46599999 2
18.0835 4.5335002 0.46200001 2
18.113501 4.5634999 0.463 2
18.1485 4.5335002 0.45500001 2
18.1745 4.5574999 0.45500001 2
18.1255 4.5235 0.456 2
18.2015 4.5304999 0.449 2
18.133499 4.5935001 0.465 2
18.1695 4.5605001 0.45699999 2
18.2155 4.5015001 0.44299999 2
18.2125 4.5384998 0.449 2
18.161501 4.4885001 0.447 2
18.199499 4.4815001 0.442 2
18.209499 4.5714998 0.45300001 2
18.175501 4.5135002 0.449 2
18.1035 4.5555 0.463 2
18.1695 4.4955001 0.447 2
18.123501 4.5244999 0.456 2
18.1625 4.5275002 0.45300001 2
18.115499 4.5265002 0.458 2
18.2115 4.5725002 0.45300001 2
18.2045 4.4604998 0.43799999 2
18.203501 4.4984999 0.44400001 2
18.2115 4.6075001 0.458 2
18.1695 4.5974998 0.46200001 2
18.186501 4.6545 0.46799999 2
18.2085 4.5025001 0.44400001 2
18.158501 4.4914999 0.44800001 2
18.1735 4.5595002 0.456 2
18.1115 4.5675001 0.46399999 2
18.1745 4.5914998 0.46000001 2
18.1595 4.5665002 0.458 2
18.175501 4.6145 0.463 2
18.203501 4.4794998 0.44100001 2
18.1735 4.6085 0.463 2
18.2195 4.5524998 0.44999999 2
18.186501 4.4825001 0.44400001 2
18.2075 4.5774999 0.45500001 2
18.192499 4.6595001 0.46799999 2
18.172501 4.5454998 0.454 2
18.224501 4.5114999 0.44299999 2
18.199499 4.6044998 0.45899999 2
18.171499 4.5205002 0.45100001 2
18.189501 4.5485001 0.45300001 2
18.1555 4.5105 0.45100001 2
18.1835 4.5355 0.45100001 2
18.199499 4.5184999 0.447 2
18.1555 4.5355 0.454 2
18.1695 4.5695 0.458 2
18.1215 4.5304999 0.458 2
18.1555 4.5155001 0.45199999 2
18.2155 4.5145001 0.44499999 2
18.1245 4.5774999 0.46399999 2
18.186501 4.6345 0.465 2
18.1705 4.6275001 0.46599999 2
18.1695 4.4864998 0.44600001 2
18.2015 4.5225 0.44800001 2
18.199499 4.4895 0.44299999 2
18.1845 4.5654998 0.45500001 2
18.1465 4.5114999 0.45199999 2
18.2085 4.6085 0.45899999 2
18.2255 4.4534998 0.435 2
18.192499 4.5345001 0.44999999 2
18.185499 4.5774999 0.45699999 2
18.1805 4.6304998 0.465 2
18.2015 4.4555001 0.43799999 2
18.1635 4.4825001 0.44600001 2
18.2195 4.4425001 0.43399999 2
18.2015 4.6125002 0.46000001 2
18.1145 4.5205002 0.45699999 2
18.136499 4.5844998 0.46399999 2
18.168501 4.6314998 0.46700001 2
18.122499 4.6065001 0.44499999 2
18.1425 4.6364999 0.43700001 2
18.106501 4.6075001 0.43700001 2
18.0945 4.5974998 0.43700001 2
18.112499 4.6005001 0.44299999 2
18.098499 4.5974998 0.43900001 2
18.1175 4.6174998 0.43599999 2
18.098499 4.5914998 0.442 2
18.1045 4.5795002 0.45199999 2
18.102501 4.5995002 0.43900001 2
18.137501 4.6265001 0.44 2
18.0905 4.5885 0.44 2
18.1325 4.6304998 0.43599999 2
18.1245 4.6155 0.44 2
18.136499 4.6244998 0.44100001 2
18.119499 4.6075001 0.44299999 2
18.129499 4.6104999 0.44499999 2
18.1245 4.6215 0.43700001 2
18.1045 4.5995002 0.44100001 2
18.0975 4.5704999 0.454 2
18.164499 4.1624999 0.47499999 2
18.1675 4.1424999 0.47400001 2
18.168501 4.1715002 0.47600001 2
18.1625 4.1304998 0.47400001 2
18.2055 4.1824999 0.47499999 2
18.196501 4.1415 0.47299999 2
18.1875 4.1405001 0.47299999 2
18.199499 4.1785002 0.47499999 2
18.202499 4.1655002 0.47400001 2
18.188499 4.1795001 0.47499999 2
18.210501 4.1764998 0.47400001 2
18.2155 4.1535001 0.47299999 2
18.181499 4.1774998 0.47499999 2
18.220501 4.1884999 0.47499999 2
18.1595 4.1405001 0.47400001 2
18.259501 4.1935 0.47299999 2
18.171499 4.1525002 0.47400001 2
18.2335 4.1865001 0.47400001 2
18.165501 4.1745 0.47600001 2
18.1735 4.1325002 0.47299999 2
18.196501 4.1374998 0.47299999 2
18.1665 4.1255002 0.47299999 2
18.247499 4.1884999 0.47400001 2
18.230499 4.1785002 0.47400001 2
18.2145 4.1754999 0.47400001 2
18.2045 4.1735001 0.47400001 2
18.193501 4.1405001 0.47299999 2
18.1805 4.1275001 0.47299999 2
18.2045 4.1455002 0.47299999 2
18.168501 4.1595001 0.47499999 2
18.1735 4.1574998 0.47499999 2
18.179501 4.1605 0.47499999 2
18.1595 4.1155 0.47299999 2
18.1675 4.1634998 0.47499999 2
18.1905 4.1704998 0.47499999 2
18.2225 4.1694999 0.47400001 2
18.1695 4.1364999 0.47400001 2
18.2645 4.1815 0.47299999 2
18.251499 4.1904998 0.47400001 2
18.220501 4.1655002 0.47299999 2
18.2745 4.1915002 0.47299999 2
18.172501 4.1774998 0.47600001 2
18.179501 4.1525002 0.47400001 2
18.230499 4.2824998 0.456 2
18.241501 4.3115001 0.45100001 2
18.2075 4.2925 0.45500001 2
18.217501 4.3235002 0.44800001 2
18.244499 4.3045001 0.45199999 2
18.2045 4.2164998 0.46900001 2
18.2425 4.2395 0.465 2
18.269501 4.2175002 0.46900001 2
18.2715 4.2205 0.46799999 2
18.209499 4.2605 0.461 2
18.2215 4.2845001 0.456 2
18.2465 4.3115001 0.45100001 2
18.2565 4.1995001 0.47299999 2
18.192499 4.2315001 0.46599999 2
18.2425 4.3575001 0.442 2
18.2125 4.2435002 0.46399999 2
18.244499 4.2655001 0.46000001 2
18.2195 4.3474998 0.44400001 2
18.2575 4.3495002 0.44299999 2
18.2155 4.2115002 0.47 2
18.2575 4.2344999 0.46599999 2
18.2195 4.3024998 0.45300001 2
18.1905 4.2034998 0.472 2
18.2465 4.3655 0.44 2
18.2325 4.3235002 0.449 2
18.2225 4.2265 0.46700001 2
18.223499 4.2435002 0.46399999 2
18.230499 4.3755002 0.43900001 2
18.2435 4.3295002 0.447 2
18.2465 4.2505002 0.463 2
18.2605 4.1964998 0.47299999 2
18.2335 4.2564998 0.461 2
18.245501 4.2995 0.45300001 2
18.240499 4.3165002 0.44999999 2
18.2215 4.2234998 0.46799999 2
18.244499 4.3425002 0.44499999 2
18.2675 4.2094998 0.47099999 2
18.2335 4.3185 0.44999999 2
18.234501 4.3404999 0.44499999 2
18.2665 4.2995 0.45300001 2
18.216499 4.3354998 0.44600001 2
18.2145 4.2665 0.46000001 2
18.2145 4.3214998 0.449 2
18.2255 4.2494998 0.463 2
18.2785 4.2245002 0.46799999 2
18.2745 4.2294998 0.46700001 2
18.259501 4.1995001 0.47299999 2
18.2465 4.3635001 0.44100001 2
18.2355 4.2375002 0.465 2
18.2425 4.1995001 0.47299999 2
18.2155 4.3365002 0.44600001 2
18.238501 4.2824998 0.45699999 2
18.2015 4.2554998 0.46200001 2
18.2805 4.2265 0.46700001 2
18.2185 4.2335 0.46599999 2
18.196501 4.2665 0.46000001 2
18.230499 4.2205 0.46799999 2
18.2285 4.2375002 0.465 2
18.2635 4.2045002 0.47099999 2
18.2665 4.2804999 0.45699999 2
18.252501 4.2494998 0.463 2
18.248501 4.3074999 0.45199999 2
18.2635 4.2045002 0.47099999 2
18.2575 4.2975001 0.454 2
18.245501 4.2045002 0.472 2
18.245501 4.3934999 0.435 2
18.209499 4.2395 0.465 2
18.2495 4.3035002 0.45199999 2
18.262501 4.2214999 0.46799999 2
18.196501 4.2084999 0.47099999 2
18.234501 4.3664999 0.44 2
18.2265 4.2014999 0.472 2
18.2295 4.3715 0.43900001 2
18.238501 4.3385 0.44600001 2
18.276501 4.2014999 0.472 2
18.237499 4.2645001 0.46000001 2
18.1985 4.1995001 0.47299999 2
18.255501 4.3425002 0.44499999 2
18.2115 4.2305002 0.46700001 2
18.1875 4.2024999 0.472 2
18.234501 4.2265 0.46700001 2
18.1915 4.2645001 0.46000001 2
18.1875 4.2065001 0.47099999 2
18.275499 4.2214999 0.46799999 2
18.196501 4.2575002 0.461 2
18.203501 4.2034998 0.472 2
18.248501 4.3055 0.45199999 2
18.245501 4.3225002 0.449 2
18.2355 4.3325 0.447 2
18.195499 4.2494998 0.463 2
18.2785 4.2045002 0.472 2
18.213499 4.2405 0.465 2
18.217501 4.3284998 0.44800001 2
18.2255 4.3705001 0.43900001 2
18.1905 4.2175002 0.46900001 2
18.279499 4.2525001 0.46200001 2
18.245501 4.3994999 0.43399999 2
18.206499 4.2145 0.47 2
18.2395 4.2455001 0.46399999 2
18.275499 4.2065001 0.47099999 2
18.2295 4.2995 0.45300001 2
18.247499 4.2785001 0.45699999 2
18.209499 4.1954999 0.47299999 2
18.2775 4.2335 0.46599999 2
18.2045 4.2535 0.46200001 2
18.171499 4.2014999 0.472 2
18.2195 4.2775002 0.458 2
18.269501 4.2154999 0.46900001 2
18.268499 4.2205 0.46799999 2
18.2675 4.2564998 0.461 2
18.2085 4.2045002 0.472 2
18.259501 4.2954998 0.454 2
18.2745 4.1985002 0.47299999 2
18.213499 4.2905002 0.45500001 2
18.251499 4.2855 0.456 2
18.2575 4.1975002 0.47299999 2
18.2705 4.2234998 0.46799999 2
18.2395 4.2024999 0.472 2
18.237499 4.2465 0.463 2
18.186501 4.2154999 0.46900001 2
18.2635 4.3084998 0.45100001 2
18.272499 4.2405 0.465 2
18.2495 4.2795 0.45699999 2
18.255501 4.2245002 0.46799999 2
18.254499 4.2795 0.45699999 2
18.206499 4.2354999 0.46599999 2
18.2425 4.3994999 0.43399999 2
18.240499 4.3095002 0.45100001 2
18.178499 4.1935 0.47400001 2
18.2435 4.4015002 0.433 2
18.2355 4.3915 0.435 2
18.2495 4.2985001 0.45300001 2
18.234501 4.2315001 0.46599999 2
18.172501 4.2055001 0.47099999 2
18.234501 4.2585001 0.461 2
18.2335 4.3395 0.44499999 2
18.238501 4.3284998 0.44800001 2
18.1905 4.1865001 0.47499999 2
18.2425 4.2214999 0.46799999 2
18.2335 4.2494998 0.463 2
18.224501 4.3614998 0.44100001 2
18.234501 4.2385001 0.465 2
18.258499 4.2175002 0.46900001 2
18.245501 4.2915001 0.45500001 2
18.1805 4.1904998 0.47400001 2
18.196501 4.2785001 0.45699999 2
18.2605 4.2484999 0.463 2
18.2185 4.2624998 0.46000001 2
18.2435 4.3115001 0.45100001 2
18.196501 4.2424998 0.46399999 2
18.248501 4.2305002 0.46700001 2
18.2045 4.6894999 0.59100002 2
18.2285 4.6754999 0.56699997 2
18.2355 4.6824999 0.54400003 2
18.2155 4.6995001 0.55699998 2
18.209499 4.6935 0.57599998 2
18.2285 4.7014999 0.53100002 2
18.2365 4.6665001 0.565 2
18.213499 4.6855001 0.58099997 2
18.2015 4.6884999 0.59799999 2
18.2055 4.6834998 0.59799999 2
18.203501 4.6884999 0.59399998 2
18.210501 4.6915002 0.57700002 2
18.231501 4.6845002 0.54900002 2
18.220501 4.6834998 0.57099998 2
18.2325 4.6915002 0.53799999 2
18.237499 4.6645002 0.56699997 2
18.227501 4.6785002 0.565 2
18.2115 4.6845002 0.58399999 2
18.237499 4.6725001 0.55500001 2
18.244499 4.6615 0.55800003 2
18.2225 4.6745 0.57999998 2
18.216499 4.6815 0.57999998 2
18.2225 4.6834998 0.56599998 2
18.2255 4.6884999 0.55400002 2
18.2215 4.6785002 0.57599998 2
18.2365 4.6645002 0.64200002 2
18.230499 4.6694999 0.64399999 2
18.2295 4.6925001 0.69599998 2
18.241501 4.6715002 0.67199999 2
18.238501 4.6564999 0.62699997 2
18.2565 4.6504998 0.65399998 2
18.2465 4.6754999 0.69199997 2
18.2945 4.6164999 0.65600002 2
18.275499 4.6415 0.67699999 2
18.259501 4.6605 0.68400002 2
18.2885 4.6255002 0.66500002 2
18.2285 4.6954999 0.70099998 2
18.2055 4.6845002 0.62300003 2
18.3085 4.6025 0.65399998 2
18.2805 4.6255002 0.64499998 2
18.224501 4.6735001 0.63800001 2
18.2195 4.6754999 0.63099998 2
18.268499 4.6444998 0.66799998 2
18.210501 4.6785002 0.62 2
18.2295 4.6795001 0.66399997 2
18.2785 4.6325002 0.662 2
18.2255 4.6834998 0.66500002 2
18.300501 4.6125002 0.65899998 2
18.290501 4.6244998 0.667 2
18.2505 4.6564999 0.65499997 2
18.268499 4.6385002 0.65100002 2
18.230499 4.6675 0.63700002 2
18.303499 4.6065001 0.653 2
18.2645 4.6485 0.66900003 2
18.255501 4.6535001 0.65799999 2
18.254499 4.6675 0.68900001 2
18.2735 4.6325002 0.64999998 2
18.244499 4.6764998 0.69 2
18.245501 4.6704998 0.68000001 2
18.2335 4.6894999 0.699 2
18.2265 4.6954999 0.69700003 2
18.2505 4.6504998 0.63800001 2
18.2295 4.6795001 0.66299999 2
18.275499 4.6325002 0.65399998 2
18.2395 4.6815 0.69199997 2
18.2255 4.6675 0.62599999 2
18.2705 4.6385002 0.65700001 2
18.275499 4.6355 0.662 2
18.2325 4.6624999 0.63 2
18.2875 4.6185002 0.64499998 2
18.254499 4.6494999 0.64600003 2
18.238501 4.6815 0.69 2
18.2115 4.6865001 0.64099997 2
18.3015 4.6104999 0.65600002 2
18.2565 4.6465001 0.64399999 2
18.265499 4.6494999 0.67400002 2
18.247499 4.6725001 0.68800002 2
18.238501 4.6605 0.63800001 2
18.206499 4.6824999 0.62099999 2
18.213499 4.6845002 0.63999999 2
18.2395 4.6715002 0.66600001 2
18.2335 4.6624999 0.63200003 2
18.234501 4.6595001 0.62699997 2
18.220501 4.6704998 0.62099999 2
18.2645 4.6494999 0.67000002 2
18.202499 4.6845002 0.616 2
18.2355 4.6795001 0.676 2
18.2605 4.6455002 0.64999998 2
18.2225 4.6715002 0.62800002 2
18.2325 4.6655002 0.63599998 2
18.2505 4.6715002 0.69 2
18.269501 4.6335001 0.64399999 2
18.240499 4.6684999 0.662 2
18.304501 4.6075001 0.65700001 2
18.2195 4.6894999 0.66600001 2
18.2505 4.6655002 0.67699999 2
18.216499 4.6865001 0.65200001 2
18.2665 4.6525002 0.68099999 2
18.247499 4.5764999 0.45699999 2
18.3225 4.5225 0.45699999 2
18.245501 4.4794998 0.44 2
18.282499 4.4615002 0.44100001 2
18.2335 4.6294999 0.465 2
18.223499 4.5764999 0.454 2
18.318501 4.5304999 0.458 2
18.2195 4.6015 0.458 2
18.2295 4.5795002 0.45500001 2
18.2365 4.5365 0.449 2
18.259501 4.6005001 0.463 2
18.2215 4.5875001 0.456 2
18.227501 4.6025 0.45899999 2
18.231501 4.5644999 0.45300001 2
18.2805 4.5265002 0.45199999 2
18.2115 4.6244998 0.461 2
18.237499 4.5454998 0.44999999 2
18.2885 4.5275002 0.45300001 2
18.262501 4.5774999 0.45899999 2
18.2505 4.4555001 0.43599999 2
18.2945 4.5365 0.456 2
18.317499 4.5015001 0.45199999 2
18.2635 4.4445 0.43599999 2
18.2535 4.5725002 0.45699999 2
18.2495 4.5854998 0.45899999 2
18.2115 4.6494999 0.46599999 2
18.247499 4.5514998 0.45300001 2
18.2715 4.5745001 0.46000001 2
18.2775 4.4835 0.44400001 2
18.2195 4.6215 0.46200001 2
18.2425 4.4794998 0.43900001 2
18.313499 4.5395002 0.45899999 2
18.303499 4.5145001 0.45300001 2
18.265499 4.5815001 0.46000001 2
18.241501 4.5774999 0.456 2
18.269501 4.5504999 0.45500001 2
18.2745 4.5444999 0.45500001 2
18.2495 4.4895 0.442 2
18.3165 4.5095 0.454 2
18.276501 4.5595002 0.458 2
18.313499 4.5285001 0.45699999 2
18.209499 4.6385002 0.463 2
18.227501 4.6104999 0.461 2
18.3085 4.5235 0.45500001 2
18.2925 4.5524998 0.458 2
18.2255 4.6065001 0.46000001 2
18.313499 4.5244999 0.456 2
18.255501 4.6065001 0.463 2
18.2505 4.5095 0.44499999 2
18.2785 4.5584998 0.458 2
18.2295 4.6265001 0.46399999 2
18.2705 4.4594998 0.43900001 2
18.2995 4.4784999 0.44600001 2
18.254499 4.5054998 0.44499999 2
18.2505 4.5834999 0.45899999 2
18.2945 4.4724998 0.44400001 2
18.240499 4.4994998 0.44299999 2
18.217501 4.6135001 0.46000001 2
18.2845 4.4844999 0.44499999 2
18.2495 4.4984999 0.44400001 2
18.262501 4.4714999 0.44 2
18.3095 4.5005002 0.45100001 2
18.2285 4.5904999 0.45699999 2
18.2745 4.5035 0.44800001 2
18.307501 4.5254998 0.45500001 2
18.245501 4.6195002 0.46399999 2
18.2495 4.4945002 0.44299999 2
18.286501 4.5324998 0.454 2
18.220501 4.6034999 0.45899999 2
18.2265 4.5495 0.44999999 2
18.2875 4.4805002 0.44499999 2
18.3125 4.5015001 0.45199999 2
18.2815 4.4714999 0.44299999 2
18.275499 4.5665002 0.45899999 2
18.286501 4.4765 0.44400001 2
18.3195 4.5265002 0.45699999 2
18.2565 4.5535002 0.454 2
18.2925 4.5095 0.45100001 2
18.2225 4.5465002 0.449 2
18.2875 4.5184999 0.45199999 2
18.261499 4.5984998 0.46200001 2
18.2805 4.5425 0.45500001 2
18.297501 4.5425 0.45699999 2
18.289499 4.5695 0.461 2
18.2255 4.6465001 0.46700001 2
18.2875 4.4685001 0.44299999 2
18.2505 4.4724998 0.43900001 2
18.279499 4.4705 0.442 2
18.259501 4.4695001 0.44 2
18.272499 4.4745002 0.442 2
18.2785 4.5285001 0.45199999 2
18.2255 4.5625 0.45199999 2
18.216499 4.5904999 0.456 2
18.237499 4.5365 0.449 2
18.247499 4.5925002 0.46000001 2
18.2785 4.5345001 0.45300001 2
18.265499 4.5425 0.45300001 2
18.2435 4.5695 0.45500001 2
18.2705 4.4805002 0.44299999 2
18.2325 4.4815001 0.43799999 2
18.276501 4.4935002 0.44600001 2
18.237499 4.5675001 0.454 2
18.2465 4.4784999 0.44 2
18.2255 4.5405002 0.44800001 2
18.2055 4.6645002 0.46799999 2
18.2565 4.5875001 0.46000001 2
18.2465 4.4914999 0.442 2
18.216499 4.6554999 0.46700001 2
18.240499 4.5265002 0.447 2
18.2465 4.5415001 0.45100001 2
18.247499 4.5064998 0.44499999 2
18.2885 4.4895 0.447 2
18.2635 4.4654999 0.44 2
18.238501 4.4984999 0.442 2
18.265499 4.5665002 0.458 2
18.3395 4.5005002 0.45500001 2
18.245501 4.5875001 0.45899999 2
18.2195 4.5844998 0.45500001 2
18.2495 4.6145 0.46399999 2
18.2195 4.6005001 0.458 2
18.2705 4.5805001 0.461 2
18.3335 4.5184999 0.45699999 2
18.254499 4.5025001 0.44499999 2
18.241501 4.5174999 0.44600001 2
18.258499 4.5374999 0.45199999 2
18.268499 4.4924998 0.44499999 2
18.252501 4.5425 0.45199999 2
18.2805 4.5005002 0.44800001 2
18.261499 4.4844999 0.442 2
18.2955 4.5135002 0.45199999 2
18.240499 4.4994998 0.44299999 2
18.3015 4.5064998 0.45100001 2
18.265499 4.5595002 0.456 2
18.2745 4.5514998 0.456 2
18.2915 4.4615002 0.442 2
18.2665 4.5244999 0.44999999 2
18.2185 4.5725002 0.45300001 2
18.2295 4.5105 0.44299999 2
18.2745 4.5064998 0.44800001 2
18.2715 4.5825 0.461 2
18.276501 4.5735002 0.46000001 2
18.297501 4.5054998 0.45100001 2
18.331499 4.5155001 0.456 2
18.2195 4.5625 0.45100001 2
18.2195 4.6164999 0.461 2
18.331499 4.5235 0.458 2
18.2465 4.4415002 0.433 2
18.269501 4.5735002 0.45899999 2
18.2605 4.4905 0.44299999 2
18.2285 4.6044998 0.46000001 2
18.2365 4.4784999 0.43799999 2
18.258499 4.5235 0.449 2
18.2535 4.5244999 0.449 2
18.2505 4.6174998 0.465 2
18.2125 4.6285 0.46200001 2
18.283501 4.5875001 0.45899999 2
18.2575 4.6725001 0.44 2
18.2215 4.6545 0.465 2
18.2945 4.5875001 0.45300001 2
18.2185 4.6785002 0.458 2
18.318501 4.5444999 0.45699999 2
18.2335 4.6595001 0.45699999 2
18.258499 4.6104999 0.463 2
18.247499 4.6694999 0.447 2
18.268499 4.6385002 0.447 2
18.259501 4.6735001 0.43900001 2
18.282499 4.5904999 0.458 2
18.2155 4.6785002 0.46000001 2
18.220501 4.6735001 0.45899999 2
18.2995 4.5825 0.45199999 2
18.240499 4.6915002 0.442 2
18.259501 4.6164999 0.46000001 2
18.261499 4.6345 0.45199999 2
18.248501 4.6995001 0.435 2
18.3015 4.5885 0.449 2
18.286501 4.5784998 0.461 2
18.251499 4.6485 0.45199999 2
18.310499 4.5634999 0.454 2
18.2705 4.6094999 0.45699999 2
18.2995 4.5644999 0.45899999 2
18.304501 4.5725002 0.454 2
18.307501 4.5735002 0.45199999 2
18.2855 4.6304998 0.442 2
18.248501 4.6954999 0.43599999 2
18.276501 4.6044998 0.456 2
18.2885 4.5925002 0.454 2
18.238501 4.6314998 0.465 2
18.255501 4.6444998 0.45199999 2
18.3305 4.5314999 0.456 2
18.2395 4.6585002 0.45500001 2
18.3395 4.5225 0.45500001 2
18.2845 4.5795002 0.461 2
18.2645 4.6244998 0.45500001 2
18.300501 4.5885 0.44999999 2
18.268499 4.6255002 0.45199999 2
18.320499 4.5454998 0.456 2
18.2285 4.6595001 0.46000001 2
18.2215 4.6605 0.463 2
18.2285 4.6684999 0.456 2
18.251499 4.6704998 0.44400001 2
18.331499 4.5395002 0.45199999 2
18.231501 4.6785002 0.45100001 2
18.230499 4.6574998 0.46000001 2
18.2705 4.6275001 0.44999999 2
18.3155 4.5485001 0.45699999 2
18.2875 4.6094999 0.449 2
18.262501 4.6395001 0.44999999 2
18.324499 4.5485001 0.45300001 2
18.254499 4.6845002 0.43799999 2
18.216499 4.6735001 0.461 2
18.2805 4.6224999 0.447 2
18.2295 4.6434999 0.465 2
18.238501 4.6845002 0.44499999 2
18.2185 4.6574998 0.46599999 2
18.269501 4.6465001 0.44400001 2
18.2745 4.6224999 0.44999999 2
18.227501 4.6694999 0.45699999 2
18.2185 4.6675 0.46200001 2
18.223499 4.6774998 0.456 2
18.2495 4.6275001 0.461 2
18.2745 4.6415 0.44299999 2
18.3155 4.5605001 0.45300001 2
18.2395 4.6715002 0.44999999 2
18.2705 4.6455002 0.44400001 2
18.2645 4.6034999 0.46200001 2
18.2335 4.6405001 0.46399999 2
18.2705 4.5974998 0.46200001 2
18.282499 4.5984998 0.45500001 2
18.2885 4.6155 0.44600001 2
18.2535 4.6485 0.602 2
18.2465 4.6494999 0.62599999 2
18.2115 4.6764998 0.61400002 2
18.240499 4.6595001 0.57800001 2
18.2565 4.6485 0.58499998 2
18.2395 4.6595001 0.588 2
18.2365 4.6585002 0.61299998 2
18.2255 4.6704998 0.58200002 2
18.2575 4.6475 0.583 2
18.255501 4.6444998 0.61699998 2
18.269501 4.6364999 0.59799999 2
18.220501 4.6694999 0.61699998 2
18.223499 4.6694999 0.59799999 2
18.2575 4.6465001 0.59299999 2
18.2995 4.6094999 0.648 2
18.276501 4.6304998 0.61000001 2
18.255501 4.6494999 0.58200002 2
18.2915 4.6174998 0.625 2
18.231501 4.6634998 0.602 2
18.224501 4.6694999 0.59200001 2
18.2675 4.6385002 0.59200001 2
18.199499 4.6845002 0.60699999 2
18.2775 4.6265001 0.63499999 2
18.2675 4.6364999 0.61000001 2
18.224501 4.6684999 0.60000002 2
18.2985 4.6104999 0.63999999 2
18.2645 4.6405001 0.59100002 2
18.269501 4.6325002 0.62800002 2
18.290501 4.6164999 0.63700002 2
18.244499 4.6554999 0.59200001 2
18.237499 4.6574998 0.616 2
18.2715 4.6335001 0.60699999 2
18.234501 4.6645002 0.58099997 2
18.2295 4.6665001 0.588 2
18.238501 4.6624999 0.57099998 2
18.290501 4.6174998 0.63499999 2
18.2675 4.6335001 0.63599998 2
18.203501 4.6824999 0.60799998 2
18.238501 4.6605 0.59100002 2
18.240499 4.6554999 0.61299998 2
18.231501 4.6615 0.61799997 2
18.2885 4.6205001 0.61900002 2
18.252501 4.6515002 0.58200002 2
18.300501 4.6094999 0.64099997 2
18.2605 4.6424999 0.60799998 2
18.2505 4.6504998 0.60100001 2
18.2325 4.6605 0.61699998 2
18.247499 4.6494999 0.62400001 2
18.244499 4.6595001 0.56300002 2
18.2715 4.6325002 0.62 2
18.237499 4.6564999 0.625 2
18.227501 4.6655002 0.60600001 2
18.245501 4.6574998 0.57499999 2
18.2995 4.6094999 0.60399997 2
18.3155 4.5964999 0.63800001 2
18.2775 4.6285 0.55900002 2
18.2845 4.6215 0.56999999 2
