# .PCD v0.7 - Point Cloud Data file format
VERSION 0.7
FIELDS x y z label
SIZE 4 4 4 4
TYPE F F F U
COUNT 1 1 1 1
WIDTH 1616
HEIGHT 1
VIEWPOINT 0 0 0 1 0 0 0
POINTS 1616
DATA ascii
16.547501 5.0634999 0.43700001 2
16.518499 4.9825001 0.44999999 2
16.6325 5.0654998 0.42899999 2
16.5795 5.0054998 0.44100001 2
16.539499 4.9745002 0.449 2
16.585501 5.0135002 0.44 2
16.6395 5.0644999 0.42899999 2
16.5665 5.0984998 0.43099999 2
16.5075 4.9815001 0.45100001 2
16.6315 5.0565 0.43000001 2
16.636499 5.0514998 0.43000001 2
16.5445 4.9835 0.447 2
16.5555 5.0425 0.43900001 2
16.6035 5.0764999 0.43000001 2
16.588499 5.0685 0.433 2
16.5965 5.0834999 0.43000001 2
16.557501 5.0644999 0.43599999 2
16.5555 5.0265002 0.44100001 2
16.5665 5.0935001 0.43200001 2
16.647499 5.0615001 0.428 2
16.5765 5.1135001 0.428 2
16.511499 4.9765 0.45100001 2
16.5825 5.0135002 0.44 2
16.577499 5.0304999 0.43900001 2
16.6255 5.0774999 0.428 2
16.5455 4.9675002 0.449 2
16.630501 5.0685 0.42899999 2
16.563499 4.9994998 0.44400001 2
16.567499 5.0625 0.43599999 2
16.568501 5.0984998 0.43099999 2
16.519501 5.0105 0.447 2
16.563499 5.0535002 0.43700001 2
16.5305 4.9705 0.44999999 2
16.5385 5.0244999 0.44299999 2
16.5585 5.0825 0.43399999 2
16.578501 4.9965 0.44299999 2
16.529499 4.9914999 0.44800001 2
16.5175 4.9495001 0.454 2
16.5075 4.9565001 0.454 2
16.495501 4.9445 0.45699999 2
16.633499 5.0685 0.42899999 2
16.5625 5.0584998 0.43599999 2
16.546499 4.9984999 0.44499999 2
16.529499 4.9625001 0.45199999 2
16.567499 5.0215001 0.44100001 2
16.4755 4.8934999 0.465 2
16.5355 5.0124998 0.44499999 2
16.495501 5.1564999 0.45500001 2
16.543501 5.1554999 0.45100001 2
16.525499 5.1624999 0.45699999 2
16.5515 5.1624999 0.45500001 2
16.564501 5.1504998 0.447 2
16.540501 5.1415 0.44299999 2
16.502501 5.1554999 0.454 2
16.563499 5.1275001 0.433 2
16.5625 5.1554999 0.44999999 2
16.554501 5.1294999 0.435 2
16.498501 5.1494999 0.45100001 2
16.570499 5.1385002 0.43900001 2
16.494499 5.1545 0.454 2
16.560499 5.1655002 0.456 2
16.502501 5.1475 0.44999999 2
16.5145 5.1475 0.449 2
16.5595 5.1634998 0.45500001 2
16.540501 5.1564999 0.45199999 2
16.557501 5.1285 0.435 2
16.567499 5.1415 0.442 2
16.502501 5.1485 0.44999999 2
16.564501 5.1314998 0.43599999 2
16.5385 5.1535001 0.45100001 2
16.5445 5.1415 0.44299999 2
16.546499 5.1684999 0.458 2
16.5415 5.1595001 0.454 2
16.5695 5.1605 0.45199999 2
16.5485 5.1444998 0.44499999 2
16.543501 5.1405001 0.44299999 2
16.518499 5.1535001 0.45199999 2
16.5375 5.1904998 0.45199999 2
16.5625 5.1845002 0.458 2
16.5105 5.2205 0.43799999 2
16.5245 5.2255001 0.43700001 2
16.539499 5.2024999 0.44800001 2
16.5275 5.1995001 0.44800001 2
16.5385 5.2014999 0.44800001 2
16.509501 5.1645002 0.458 2
16.5425 5.1894999 0.45300001 2
16.480499 5.1655002 0.45500001 2
16.5415 5.2005 0.449 2
16.5305 5.2135 0.44299999 2
16.5285 5.2075 0.44499999 2
16.532499 5.2145 0.44299999 2
16.5215 5.1764998 0.45500001 2
16.5525 5.1795001 0.458 2
16.5235 5.2034998 0.44600001 2
16.5525 5.1894999 0.45500001 2
16.554501 5.1945 0.45300001 2
16.553499 5.1915002 0.454 2
16.539499 5.1764998 0.458 2
16.5175 5.1774998 0.45500001 2
16.5275 5.1985002 0.44800001 2
16.5235 5.2164998 0.44100001 2
16.5345 5.2195001 0.44100001 2
16.5285 5.1935 0.44999999 2
16.502501 5.2034998 0.44299999 2
16.5515 5.1975002 0.45100001 2
16.515499 5.1995001 0.44600001 2
16.525499 5.2055001 0.44499999 2
16.505501 5.1815 0.45100001 2
16.502501 5.1634998 0.458 2
16.487499 5.1735001 0.45199999 2
16.532499 5.1945 0.44999999 2
16.5165 5.2195001 0.43900001 2
16.5205 5.1735001 0.456 2
16.546499 5.1945 0.45199999 2
16.494499 5.1715002 0.454 2
16.5415 5.1745 0.45899999 2
16.6395 5.0035 0.43799999 2
16.488501 4.8804998 0.46700001 2
16.554501 4.9204998 0.456 2
16.6215 4.9825001 0.442 2
16.5755 4.8515 0.46599999 2
16.6525 4.9105 0.45199999 2
16.5385 4.8775001 0.46399999 2
16.495501 4.8604999 0.46900001 2
16.623501 4.9475002 0.44800001 2
16.644501 4.8734999 0.45899999 2
16.5695 4.8755002 0.463 2
16.5595 4.9604998 0.449 2
16.689501 4.8794999 0.45500001 2
16.6945 4.9004998 0.45199999 2
16.613501 4.9245 0.45199999 2
16.5755 4.8464999 0.46700001 2
16.602501 4.9175 0.454 2
16.7005 4.8915 0.45300001 2
16.5895 4.9194999 0.454 2
16.6455 4.9155002 0.45199999 2
16.622499 4.8594999 0.46200001 2
16.4655 4.8664999 0.47 2
16.6565 4.9534998 0.44499999 2
16.627501 4.8794999 0.45899999 2
16.6745 4.8525 0.46000001 2
16.578501 4.8924999 0.46000001 2
16.6525 4.8534999 0.46200001 2
16.7005 4.8585 0.458 2
16.5795 4.8575001 0.465 2
16.630501 4.8414998 0.465 2
16.5525 4.8804998 0.463 2
16.546499 4.9145002 0.458 2
16.633499 4.9175 0.45199999 2
16.665501 4.8505001 0.461 2
16.615499 4.9184999 0.45300001 2
16.6325 4.9825001 0.442 2
16.6705 4.8365002 0.463 2
16.6665 4.9025002 0.45300001 2
16.6255 4.8534999 0.463 2
16.6705 4.9685001 0.442 2
16.612499 4.9885001 0.442 2
16.678499 4.8334999 0.463 2
16.6605 4.8855 0.456 2
16.664499 4.8934999 0.454 2
16.557501 4.8744998 0.46399999 2
16.6085 4.8395 0.46599999 2
16.672501 4.8365002 0.463 2
16.584499 4.9675002 0.447 2
16.678499 4.8375001 0.463 2
16.6325 4.9784999 0.442 2
16.4895 4.8924999 0.46399999 2
16.5105 4.9225001 0.458 2
16.5625 4.8734999 0.463 2
16.577499 4.9115 0.456 2
16.6145 4.8794999 0.46000001 2
16.682501 4.8435001 0.461 2
16.6605 5.0415001 0.43099999 2
16.678499 4.9755001 0.44 2
16.688499 4.8855 0.454 2
16.5865 4.9895 0.44299999 2
16.6425 5.0135002 0.43599999 2
16.6735 5.0124998 0.435 2
16.706499 4.8885002 0.45300001 2
16.602501 4.9545002 0.44800001 2
16.564501 4.8565001 0.46599999 2
16.6915 4.9485002 0.44400001 2
16.6315 5.0015001 0.43900001 2
16.598499 4.9705 0.44600001 2
16.640499 5.0425 0.43200001 2
16.6215 4.8885002 0.458 2
16.5275 4.9274998 0.45699999 2
16.491501 4.8614998 0.46900001 2
16.664499 5.0155001 0.435 2
16.6565 5.0545001 0.42899999 2
16.689501 4.9155002 0.449 2
16.633499 4.8575001 0.46200001 2
16.658501 5.0064998 0.43599999 2
16.6325 4.9025002 0.45500001 2
16.546499 4.9524999 0.45199999 2
16.706499 4.8484998 0.45899999 2
16.6765 4.8724999 0.45699999 2
16.6675 5.0365 0.43099999 2
16.4615 4.8755002 0.46900001 2
16.6425 4.9935002 0.43900001 2
16.533501 4.8585 0.46700001 2
16.595501 4.8575001 0.46399999 2
16.5625 4.9575 0.44999999 2
16.5725 4.9714999 0.447 2
16.574499 4.8655 0.46399999 2
16.7185 4.8435001 0.45899999 2
16.567499 4.8495002 0.46700001 2
16.581499 4.9935002 0.44299999 2
16.484501 4.8905001 0.465 2
16.5165 4.8994999 0.46200001 2
16.6835 4.8484998 0.46000001 2
16.657499 4.9625001 0.44400001 2
16.6115 4.9305 0.45100001 2
16.644501 4.9835 0.44100001 2
16.6465 4.9945002 0.43900001 2
16.6665 5.0565 0.428 2
16.495501 4.9085002 0.46200001 2
16.5355 4.9145002 0.458 2
16.615499 4.9315 0.45100001 2
16.5135 4.8855 0.46399999 2
16.672501 4.9724998 0.44100001 2
16.5035 4.8874998 0.465 2
16.561501 4.8855 0.46200001 2
16.5835 4.9425001 0.45100001 2
16.661501 4.9534998 0.44499999 2
16.615499 4.9775 0.44400001 2
16.6325 4.8895001 0.45699999 2
16.668501 4.8544998 0.46000001 2
16.6425 5.0275002 0.43399999 2
16.640499 4.9454999 0.447 2
16.567499 4.9794998 0.44600001 2
16.6415 4.8625002 0.461 2
16.6535 4.9575 0.44499999 2
16.5695 4.9775 0.44600001 2
16.6255 4.9645 0.44499999 2
16.550501 4.9594998 0.44999999 2
16.647499 4.9965 0.43900001 2
16.626499 4.9394999 0.449 2
16.6635 4.9045 0.45300001 2
16.5315 4.9064999 0.46000001 2
16.637501 4.9854999 0.44100001 2
16.637501 4.8435001 0.46399999 2
16.6835 4.9175 0.449 2
16.6045 4.8915 0.458 2
16.5875 4.9984999 0.442 2
16.584499 4.9705 0.44600001 2
16.5345 4.8794999 0.46399999 2
16.605499 4.8455 0.465 2
16.675501 4.8814998 0.456 2
16.657499 4.9045 0.45300001 2
16.6735 4.8895001 0.45500001 2
16.5825 4.9924998 0.44299999 2
16.686501 4.9415002 0.44499999 2
16.609501 4.9334998 0.45100001 2
16.613501 5.0015001 0.44 2
16.494499 4.8645 0.46900001 2
16.613501 4.9625001 0.44600001 2
16.595501 4.8855 0.46000001 2
16.665501 4.9895 0.43900001 2
16.6315 5.0295 0.43399999 2
16.571501 4.9404998 0.45199999 2
16.6085 4.9045 0.456 2
16.6565 5.0064998 0.43599999 2
16.6985 4.9145002 0.449 2
16.619499 4.9394999 0.44999999 2
16.6605 5.0374999 0.43099999 2
16.696501 4.8965001 0.45199999 2
16.6695 4.8895001 0.45500001 2
16.6985 4.8495002 0.46000001 2
16.651501 4.8464999 0.463 2
16.5725 4.8544998 0.46599999 2
16.7115 4.8655 0.456 2
16.6255 5.0174999 0.43700001 2
16.6315 4.9695001 0.44400001 2
16.664499 4.9805002 0.44 2
16.560499 4.9584999 0.44999999 2
16.7045 4.8425002 0.46000001 2
16.6455 5.0475001 0.43099999 2
16.615499 4.9864998 0.442 2
16.636499 4.8705001 0.46000001 2
16.664499 5.0425 0.43000001 2
16.605499 4.9875002 0.44299999 2
16.695499 4.9445 0.44400001 2
16.6535 5.0015001 0.43700001 2
16.6325 4.9635 0.44499999 2
16.592501 4.9045 0.45699999 2
16.6555 4.9854999 0.44 2
16.671499 4.9844999 0.43900001 2
16.6185 4.8785 0.45899999 2
16.6455 4.9615002 0.44400001 2
16.563499 4.8604999 0.465 2
16.602501 5.0025001 0.44 2
16.665501 5.0644999 0.42699999 2
16.672501 5.0194998 0.43399999 2
16.661501 4.8404999 0.463 2
16.650499 4.8555002 0.461 2
16.5555 4.8585 0.46599999 2
16.6085 4.9384999 0.44999999 2
16.6705 4.8565001 0.46000001 2
16.5285 4.9105 0.45899999 2
16.5425 4.9575 0.45100001 2
16.637501 5.0335002 0.433 2
16.6355 4.9875002 0.44100001 2
16.584499 4.9825001 0.44400001 2
16.7185 4.8235002 0.463 2
16.6045 4.9285002 0.45199999 2
16.623501 5.0005002 0.43900001 2
16.716499 4.8204999 0.463 2
16.717501 4.8425002 0.46000001 2
16.7055 4.8235002 0.463 2
16.643499 4.9974999 0.43900001 2
16.570499 4.8944998 0.46000001 2
16.6875 4.8775001 0.456 2
16.5795 4.9194999 0.45500001 2
16.658501 5.0225 0.43399999 2
16.693501 4.9215002 0.44800001 2
16.5555 4.8885002 0.461 2
16.6485 4.9815001 0.44100001 2
16.6695 4.8315001 0.46399999 2
16.661501 5.0105 0.43599999 2
16.672501 4.9604998 0.44299999 2
16.6415 4.9565001 0.44600001 2
16.592501 4.9524999 0.449 2
16.602501 4.8744998 0.461 2
16.699499 4.9085002 0.44999999 2
16.504499 4.8695002 0.46700001 2
16.585501 4.9245 0.454 2
16.5975 4.9705 0.44600001 2
16.5865 4.9165001 0.45500001 2
16.5965 4.9184999 0.454 2
16.6765 4.9615002 0.44299999 2
16.5835 4.9295001 0.45300001 2
16.5245 4.8594999 0.46799999 2
16.563499 4.9295001 0.454 2
16.619499 4.9555001 0.447 2
16.6775 4.9254999 0.44800001 2
16.6395 4.9355001 0.449 2
16.6485 5.0064998 0.43700001 2
16.6085 4.9404998 0.44999999 2
16.6765 4.9745002 0.44100001 2
16.693501 4.8705001 0.456 2
16.6635 4.9324999 0.44800001 2
16.678499 5.0095 0.435 2
16.682501 4.8594999 0.45899999 2
16.560499 4.8565001 0.46599999 2
16.547501 4.8785 0.463 2
16.630501 4.8435001 0.46399999 2
16.6035 4.9825001 0.44299999 2
16.6255 4.9885001 0.44100001 2
16.540501 4.8575001 0.46700001 2
16.5495 4.8825002 0.463 2
16.5205 4.8755002 0.46599999 2
16.6105 4.8565001 0.463 2
16.612499 4.9184999 0.45300001 2
16.6775 4.8555002 0.46000001 2
16.5755 4.8585 0.465 2
16.598499 4.9204998 0.454 2
16.578501 4.9124999 0.456 2
16.6145 4.8664999 0.46200001 2
16.654499 4.9124999 0.45199999 2
16.6015 4.9514999 0.449 2
16.5835 4.9615002 0.44800001 2
16.6625 4.8674998 0.45899999 2
16.651501 5.0475001 0.43000001 2
16.633499 4.8565001 0.46200001 2
16.661501 5.0384998 0.43099999 2
16.6625 4.9844999 0.44 2
16.668501 4.8874998 0.45500001 2
16.602501 4.9145002 0.454 2
16.5895 4.9054999 0.45699999 2
16.686501 4.9165001 0.449 2
16.6485 5.0225 0.43399999 2
16.5205 4.9295001 0.45699999 2
16.495501 4.8814998 0.46599999 2
16.5455 4.8544998 0.46799999 2
16.557501 4.9664998 0.449 2
16.5445 4.8934999 0.461 2
16.647499 4.8845 0.45699999 2
16.5735 4.9815001 0.44499999 2
16.643499 5.0425 0.43099999 2
16.695499 4.9165001 0.449 2
16.599501 4.9204998 0.454 2
16.7075 4.8775001 0.454 2
16.665501 5.0644999 0.42699999 2
16.529499 4.9015002 0.461 2
16.557501 4.8674998 0.465 2
16.5445 4.9295001 0.45500001 2
16.515499 4.9194999 0.45899999 2
16.5755 4.9784999 0.44600001 2
16.6605 4.8845 0.456 2
16.5895 4.9714999 0.44600001 2
16.6425 5.0215001 0.435 2
16.5965 4.9215002 0.454 2
16.4895 4.8685002 0.46799999 2
16.672501 4.8435001 0.46200001 2
16.5205 4.8924999 0.463 2
16.647499 4.8505001 0.46200001 2
16.6845 4.9254999 0.44800001 2
16.6705 4.9235001 0.449 2
16.6735 4.9454999 0.44499999 2
16.692499 4.9184999 0.449 2
16.5205 4.9115 0.46000001 2
16.6385 4.8895001 0.456 2
16.615499 4.9635 0.44600001 2
16.6035 4.9365001 0.45100001 2
16.620501 4.9134998 0.454 2
16.6675 4.8365002 0.463 2
16.561501 4.9394999 0.45300001 2
16.640499 4.9464998 0.447 2
16.6285 4.9015002 0.45500001 2
16.692499 4.8614998 0.458 2
16.6805 4.9485002 0.44400001 2
16.633499 4.9475002 0.447 2
16.671499 4.8575001 0.46000001 2
16.615499 4.9784999 0.44299999 2
16.5905 4.9545002 0.449 2
16.6015 4.8835001 0.46000001 2
16.661501 5.0035 0.43700001 2
16.630501 5.0434999 0.43200001 2
16.619499 5.0324998 0.43399999 2
16.6565 5.0675001 0.42699999 2
16.6595 4.8505001 0.46200001 2
16.6385 4.9705 0.44299999 2
16.6775 4.9475002 0.44499999 2
16.679501 4.8354998 0.463 2
16.665501 4.9955001 0.43799999 2
16.5895 4.8744998 0.46200001 2
16.6185 4.9815001 0.44299999 2
16.643499 5.0345001 0.433 2
16.6905 4.8924999 0.45300001 2
16.6525 4.8994999 0.454 2
16.7055 4.8495002 0.45899999 2
16.568501 4.9524999 0.44999999 2
16.629499 5.0035 0.43799999 2
16.6555 4.9064999 0.45300001 2
16.6705 4.8994999 0.45300001 2
16.6255 4.9854999 0.442 2
16.539499 4.8915 0.46200001 2
16.703501 4.8455 0.46000001 2
16.560499 4.9074998 0.458 2
16.561501 4.8845 0.46200001 2
16.629499 4.9485002 0.447 2
16.692499 4.9445 0.44499999 2
16.6255 4.8715 0.46000001 2
16.6355 4.9165001 0.45199999 2
16.6905 4.9425001 0.44499999 2
16.5145 4.8975 0.46200001 2
16.678499 4.9184999 0.449 2
16.536501 4.9054999 0.46000001 2
16.5625 4.9365001 0.45300001 2
16.6185 4.8775001 0.46000001 2
16.672501 5.0285001 0.43200001 2
16.6115 4.9394999 0.44999999 2
16.5375 4.9305 0.456 2
16.5595 4.8495002 0.46799999 2
16.532499 4.9124999 0.45899999 2
16.606501 4.9464998 0.449 2
16.567499 4.9285002 0.454 2
16.7075 4.8944998 0.45199999 2
16.4965 4.8594999 0.46900001 2
16.679501 4.9264998 0.44800001 2
16.6675 4.8814998 0.456 2
16.5625 4.9115 0.45699999 2
16.5585 4.9654999 0.449 2
16.688499 4.8455 0.461 2
16.6325 5.0124998 0.43700001 2
16.5065 4.9155002 0.46000001 2
16.5175 4.8804998 0.465 2
16.568501 4.8755002 0.463 2
16.4965 4.8814998 0.46599999 2
16.7005 4.8635001 0.45699999 2
16.5875 4.8855 0.46000001 2
16.6805 4.9914999 0.43799999 2
16.487499 4.8515 0.46799999 2
16.5315 4.8455 0.46799999 2
16.4555 4.8144999 0.456 2
16.522499 4.8115001 0.45699999 2
16.6325 4.8134999 0.46000001 2
16.4505 4.8525 0.46700001 2
16.6005 4.8105001 0.45899999 2
16.6455 4.8175001 0.46200001 2
16.560499 4.8214998 0.461 2
16.637501 4.8225002 0.463 2
16.585501 4.8284998 0.46399999 2
16.4555 4.8585 0.46900001 2
16.6455 4.8144999 0.461 2
16.4685 4.8204999 0.458 2
16.501499 4.8235002 0.46000001 2
16.6105 4.8014998 0.456 2
16.477501 4.7925 0.44999999 2
16.5355 4.8204999 0.46000001 2
16.480499 4.7975001 0.45100001 2
16.571501 4.8385 0.46700001 2
16.4585 4.8354998 0.46200001 2
16.5625 4.8395 0.46599999 2
16.6385 4.8154998 0.461 2
16.467501 4.8255 0.45899999 2
16.5665 4.8185 0.46000001 2
16.626499 4.8125 0.46000001 2
16.5145 4.8425002 0.46599999 2
16.591499 4.8354998 0.46599999 2
16.5175 4.8445001 0.46700001 2
16.636499 4.8125 0.46000001 2
16.4995 4.8484998 0.46700001 2
16.5315 4.8024998 0.454 2
16.525499 4.8334999 0.46399999 2
16.487499 4.8495002 0.46799999 2
16.4895 4.8195 0.458 2
16.526501 4.8195 0.45899999 2
16.529499 4.8325 0.46399999 2
16.5595 4.8354998 0.465 2
16.519501 4.7934999 0.45100001 2
16.449499 4.8334999 0.461 2
16.5865 4.8035002 0.456 2
16.5825 4.8084998 0.458 2
16.4685 4.8084998 0.454 2
16.5415 4.8375001 0.465 2
16.505501 4.7934999 0.45100001 2
16.5245 4.8255 0.461 2
16.4935 4.7865 0.44800001 2
16.6325 4.8315001 0.46599999 2
16.5275 4.8315001 0.463 2
16.5975 4.7985001 0.45500001 2
16.501499 4.8305001 0.46200001 2
16.466499 4.7884998 0.44800001 2
16.5455 4.7934999 0.45199999 2
16.564501 4.7965002 0.45300001 2
16.5005 4.8144999 0.45699999 2
16.6325 4.8225002 0.463 2
16.709499 4.8165002 0.46399999 2
16.547501 4.8334999 0.46399999 2
16.609501 4.8284998 0.465 2
16.5665 4.8154998 0.45899999 2
16.443501 4.7804999 0.44499999 2
16.5805 4.8274999 0.463 2
16.456499 4.8214998 0.458 2
16.498501 4.8484998 0.46700001 2
16.526501 4.7965002 0.45199999 2
16.557501 4.8115001 0.458 2
16.568501 4.8214998 0.461 2
16.547501 4.8055 0.456 2
16.6175 4.8004999 0.456 2
16.584499 4.8004999 0.45500001 2
16.5035 4.8325 0.463 2
16.7045 4.8175001 0.46399999 2
16.6765 4.8225002 0.465 2
16.5205 4.8084998 0.456 2
16.449499 4.7795 0.44499999 2
16.6535 4.8235002 0.46399999 2
16.6555 4.8274999 0.465 2
16.488501 4.7845001 0.447 2
16.546499 4.7985001 0.454 2
16.4655 4.8594999 0.47 2
16.5035 4.7925 0.44999999 2
16.505501 4.8525 0.46900001 2
16.4795 4.8315001 0.46200001 2
16.4935 4.7995 0.45199999 2
16.495501 4.8024998 0.45300001 2
16.5175 4.8264999 0.461 2
16.651501 4.8115001 0.46000001 2
16.5075 4.7925 0.44999999 2
16.4505 4.7855 0.447 2
16.5735 4.8264999 0.463 2
16.5145 4.7934999 0.45100001 2
16.484501 4.8134999 0.456 2
16.4715 4.7925 0.449 2
16.473499 4.8315001 0.461 2
16.599501 4.8264999 0.46399999 2
16.6525 4.8235002 0.46399999 2
16.6415 4.8095002 0.46000001 2
16.591499 4.8185 0.461 2
16.442499 4.7775002 0.44400001 2
16.574499 4.8014998 0.45500001 2
16.536501 4.8045001 0.45500001 2
16.495501 4.7874999 0.449 2
16.460501 4.8495002 0.46700001 2
16.650499 4.8074999 0.45899999 2
16.5005 4.7915001 0.44999999 2
16.5695 4.8065 0.45699999 2
16.4555 4.8484998 0.46599999 2
16.5595 4.8264999 0.46200001 2
16.532499 4.8404999 0.46599999 2
16.6805 4.8134999 0.46200001 2
16.6325 4.8084998 0.45899999 2
16.578501 4.7995 0.45500001 2
16.554501 4.8134999 0.458 2
16.5445 4.8235002 0.461 2
16.547501 4.7934999 0.45199999 2
16.504499 4.7934999 0.45100001 2
16.5035 4.8534999 0.46900001 2
16.501499 4.8264999 0.461 2
16.6535 4.8065 0.45899999 2
16.6145 4.8325 0.46599999 2
16.665501 4.8165002 0.46200001 2
16.5285 4.7925 0.45100001 2
16.550501 4.8125 0.458 2
16.5355 4.8195 0.46000001 2
16.4765 4.7915001 0.449 2
16.4755 4.8555002 0.46900001 2
16.518499 4.8435001 0.46599999 2
16.4725 4.7995 0.45199999 2
16.4585 4.8375001 0.463 2
16.7265 4.7925 0.45300001 2
16.710501 4.7884998 0.45100001 2
16.6455 4.7855 0.449 2
16.661501 4.7965002 0.45500001 2
16.696501 4.7754998 0.44499999 2
16.7265 4.7884998 0.45100001 2
16.547501 4.7785001 0.44499999 2
16.5835 4.7934999 0.45300001 2
16.7335 4.7715001 0.44299999 2
16.7005 4.7895002 0.45100001 2
16.543501 4.7785001 0.44499999 2
16.6215 4.7995 0.456 2
16.5895 4.7965002 0.454 2
16.7055 4.7975001 0.45500001 2
16.505501 4.7814999 0.44600001 2
16.6455 4.7795 0.44600001 2
16.776501 4.7785001 0.447 2
16.620501 4.7814999 0.447 2
16.623501 4.7954998 0.454 2
16.6035 4.7795 0.44600001 2
16.7285 4.8084998 0.461 2
16.752501 4.8004999 0.45699999 2
16.5935 4.7895002 0.45100001 2
16.4615 4.7785001 0.44400001 2
16.7925 4.7765002 0.44600001 2
16.6565 4.7735 0.44400001 2
16.665501 4.7814999 0.44800001 2
16.724501 4.7785001 0.447 2
16.585501 4.7915001 0.45199999 2
16.606501 4.7845001 0.449 2
16.7285 4.8014998 0.45699999 2
16.7215 4.7855 0.44999999 2
16.7845 4.7735 0.44499999 2
16.727501 4.7895002 0.45199999 2
16.4895 4.7785001 0.44499999 2
16.6325 4.7965002 0.454 2
16.685499 4.7765002 0.44600001 2
16.6015 4.7845001 0.44800001 2
16.7195 4.8095002 0.461 2
16.7365 4.8014998 0.45699999 2
16.665501 4.7814999 0.447 2
16.693501 4.7785001 0.44600001 2
16.609501 4.7835002 0.44800001 2
16.612499 4.7775002 0.44499999 2
16.689501 4.7795 0.447 2
16.748501 4.7985001 0.456 2
16.6605 4.7985001 0.45500001 2
16.647499 4.7855 0.449 2
16.4865 4.7775002 0.44400001 2
16.7115 4.8045001 0.45899999 2
16.7255 4.8105001 0.46200001 2
16.7075 4.8045001 0.45899999 2
16.5215 4.7874999 0.449 2
16.6805 4.7905002 0.45199999 2
16.672501 4.7804999 0.447 2
16.727501 4.8084998 0.461 2
16.724501 4.7824998 0.44800001 2
16.6255 4.7824998 0.44800001 2
16.609501 4.7835002 0.44800001 2
16.6625 4.7865 0.44999999 2
16.502501 4.7775002 0.44400001 2
16.724501 4.7995 0.45699999 2
16.7805 4.7845001 0.44999999 2
16.7425 4.7905002 0.45199999 2
16.622499 4.8004999 0.456 2
16.779499 4.7884998 0.45100001 2
16.744499 4.8055 0.45899999 2
16.6425 4.7954998 0.454 2
16.6675 4.7795 0.447 2
16.643499 4.8024998 0.45699999 2
16.748501 4.7855 0.44999999 2
16.710501 4.7735 0.44400001 2
16.695499 4.7954998 0.454 2
16.7465 4.7954998 0.45500001 2
16.738501 4.8014998 0.458 2
16.5585 4.7865 0.449 2
16.761499 4.7865 0.45100001 2
16.745501 4.8014998 0.45699999 2
16.768499 4.7824998 0.449 2
16.699499 4.7985001 0.456 2
16.4825 4.7775002 0.44400001 2
16.7565 4.7975001 0.456 2
16.6735 4.7855 0.44999999 2
16.686501 4.8004999 0.45699999 2
16.724501 4.8065 0.46000001 2
16.724501 4.7765002 0.44499999 2
16.6635 4.8024998 0.458 2
16.790501 4.7785001 0.447 2
16.6625 4.8014998 0.45699999 2
16.7435 4.8004999 0.45699999 2
16.699499 4.7744999 0.44499999 2
16.5835 5.1745 0.45899999 2
16.619499 5.1434999 0.43799999 2
16.6485 5.1624999 0.447 2
16.6675 5.1834998 0.45699999 2
16.606501 5.1494999 0.44299999 2
16.658501 5.1855001 0.45899999 2
16.737499 5.1894999 0.45500001 2
16.6005 5.1444998 0.44 2
16.585501 5.1294999 0.433 2
16.6625 5.1745 0.45300001 2
16.598499 5.1624999 0.45100001 2
16.588499 5.1684999 0.45500001 2
16.692499 5.1904998 0.45899999 2
16.592501 5.1405001 0.43900001 2
16.657499 5.1634998 0.447 2
16.6675 5.1785002 0.454 2
16.703501 5.1904998 0.458 2
16.578501 5.1424999 0.44100001 2
16.6215 5.1665001 0.45100001 2
16.6945 5.1795001 0.45300001 2
16.7465 5.1975002 0.45899999 2
16.5905 5.1645002 0.45300001 2
16.6015 5.1515002 0.44499999 2
16.615499 5.1525002 0.44299999 2
16.668501 5.1645002 0.44600001 2
16.6015 5.1314998 0.433 2
16.6695 5.1735001 0.45100001 2
16.6285 5.1535001 0.44299999 2
16.654499 5.1554999 0.442 2
16.6185 5.1554999 0.44499999 2
16.5735 5.1655002 0.45500001 2
16.6185 5.1834998 0.461 2
16.723499 5.1894999 0.456 2
16.675501 5.1805 0.45500001 2
16.609501 5.1355 0.43399999 2
16.6535 5.1634998 0.447 2
16.6635 5.1805 0.456 2
16.5895 5.1725001 0.45699999 2
16.696501 5.1815 0.454 2
16.5895 5.1535001 0.447 2
16.588499 5.1554999 0.44800001 2
16.6185 5.1504998 0.44299999 2
16.6045 5.1725001 0.456 2
16.623501 5.1434999 0.43799999 2
16.6215 5.1715002 0.454 2
16.584499 5.1554999 0.44800001 2
16.647499 5.1855001 0.46000001 2
16.578501 5.1704998 0.45699999 2
16.6185 5.1475 0.44100001 2
16.706499 5.1884999 0.45699999 2
16.6465 5.1865001 0.461 2
16.633499 5.1675 0.45100001 2
16.7115 5.1945 0.46000001 2
16.6355 5.1795001 0.458 2
16.6565 5.1545 0.44100001 2
16.6255 5.1715002 0.454 2
16.727501 5.1945 0.458 2
16.5755 5.1694999 0.45699999 2
16.6285 5.1554999 0.44400001 2
16.581499 5.1745 0.45899999 2
16.6035 5.1494999 0.44299999 2
16.6595 5.1894999 0.461 2
16.602501 5.1345 0.435 2
16.6045 5.1595001 0.44800001 2
16.717501 5.1954999 0.46000001 2
16.7355 5.1954999 0.458 2
16.6635 5.1715002 0.45100001 2
16.6415 5.1764998 0.45500001 2
16.5975 5.1624999 0.45100001 2
16.585501 5.1785002 0.461 2
16.577499 5.1715002 0.458 2
16.751499 5.1945 0.456 2
16.6255 5.1875 0.458 2
16.692499 5.2034998 0.45199999 2
16.672501 5.2224998 0.43000001 2
16.634501 5.2084999 0.43900001 2
16.731501 5.2214999 0.43900001 2
16.6605 5.2245002 0.42699999 2
16.681499 5.2424998 0.41299999 2
16.720501 5.2294998 0.43099999 2
16.629499 5.2175002 0.43000001 2
16.672501 5.2265 0.426 2
16.6595 5.2294998 0.42199999 2
16.762501 5.2115002 0.454 2
16.7075 5.1975002 0.46000001 2
16.6605 5.1964998 0.45500001 2
16.6905 5.2344999 0.42199999 2
16.6385 5.2104998 0.43700001 2
16.657499 5.2065001 0.44400001 2
16.6315 5.1875 0.45899999 2
16.7125 5.2034998 0.45500001 2
16.7575 5.2115002 0.45300001 2
16.7335 5.2214999 0.44 2
16.6525 5.2275 0.42300001 2
16.706499 5.2234998 0.43399999 2
16.7155 5.2195001 0.43900001 2
16.657499 5.2115002 0.44 2
16.6975 5.2034998 0.45199999 2
16.6495 5.2135 0.43599999 2
16.675501 5.2414999 0.41299999 2
16.6635 5.2125001 0.44 2
16.6115 5.1865001 0.458 2
16.664499 5.2145 0.43700001 2
16.710501 5.2175002 0.44100001 2
16.6215 5.2115002 0.43399999 2
16.689501 5.2395 0.41600001 2
16.622499 5.1865001 0.45899999 2
16.6535 5.2224998 0.428 2
16.619499 5.2094998 0.43599999 2
16.664499 5.2145 0.43799999 2
16.688499 5.2385001 0.41800001 2
16.776501 5.2065001 0.461 2
16.647499 5.1884999 0.46000001 2
16.689501 5.2284999 0.42699999 2
16.629499 5.1925001 0.454 2
16.657499 5.2224998 0.42899999 2
16.6525 5.2305002 0.41999999 2
16.613501 5.1925001 0.45199999 2
16.7155 5.2315001 0.428 2
16.702499 5.2115002 0.44499999 2
16.630501 5.2145 0.433 2
16.682501 5.2175002 0.43700001 2
16.702499 5.2164998 0.44100001 2
16.6075 5.1964998 0.44800001 2
16.620501 5.2094998 0.43599999 2
16.7325 5.2005 0.46000001 2
16.6485 5.2195001 0.43099999 2
16.665501 5.2265 0.42500001 2
16.723499 5.2034998 0.45699999 2
16.6975 5.2135 0.442 2
16.6355 5.1894999 0.458 2
16.6635 5.1995001 0.45199999 2
16.668501 5.2224998 0.43000001 2
16.6775 5.2414999 0.412 2
16.730499 5.2185001 0.44299999 2
16.6975 5.2325001 0.42399999 2
16.768499 5.2075 0.45899999 2
16.7145 5.2224998 0.43599999 2
16.612499 5.1945 0.44999999 2
16.678499 5.2205 0.433 2
16.6845 5.2354999 0.419 2
16.748501 5.2115002 0.45199999 2
16.5875 5.1795001 0.461 2
16.6595 5.2145 0.43599999 2
16.664499 5.2385001 0.414 2
16.7155 5.2245002 0.435 2
16.6845 5.2055001 0.44800001 2
16.613501 5.1935 0.44999999 2
16.634501 5.2084999 0.43900001 2
16.7015 5.2024999 0.454 2
16.709499 5.2305002 0.428 2
16.664499 5.2435002 0.40900001 2
16.6185 5.1985002 0.44600001 2
16.6005 5.1904998 0.45100001 2
16.6315 5.1875 0.45899999 2
16.7075 5.1985002 0.45899999 2
16.6145 5.2005 0.44499999 2
16.682501 5.1985002 0.456 2
16.706499 5.2234998 0.43399999 2
16.5755 5.2164998 0.43700001 2
16.588499 5.1945 0.44800001 2
16.6215 5.2185001 0.42899999 2
16.5665 5.2224998 0.435 2
16.567499 5.2045002 0.44499999 2
16.5875 5.2175002 0.435 2
16.525499 5.2385001 0.43200001 2
16.591499 5.2115002 0.43799999 2
16.5725 5.2335 0.428 2
16.5865 5.2375002 0.42300001 2
16.5285 5.2445002 0.428 2
16.5355 5.2335 0.43399999 2
16.560499 5.2135 0.44100001 2
16.606501 5.2234998 0.42899999 2
16.5595 5.2325001 0.43000001 2
16.595501 5.2265 0.428 2
16.5805 5.2075 0.442 2
16.598499 5.2135 0.435 2
16.6175 5.2344999 0.41999999 2
16.6565 5.2455001 0.40799999 2
16.616501 5.2294998 0.42399999 2
16.5285 5.2364998 0.433 2
16.640499 5.2414999 0.41299999 2
16.6115 5.2294998 0.42500001 2
16.6185 5.2424998 0.41600001 2
16.6045 5.2435002 0.417 2
16.626499 5.2354999 0.419 2
16.5895 5.2294998 0.42699999 2
16.5665 5.2344999 0.428 2
16.563499 5.1894999 0.454 2
16.637501 5.2325001 0.419 2
16.556499 5.2344999 0.42899999 2
16.6495 5.2424998 0.41100001 2
16.563499 5.2115002 0.442 2
16.598499 5.2094998 0.43799999 2
16.5445 5.2275 0.43599999 2
16.577499 5.2265 0.43099999 2
16.529499 5.2364998 0.433 2
16.6555 5.2435002 0.41 2
16.5385 5.2315001 0.43399999 2
16.574499 5.1884999 0.454 2
16.568501 5.1774998 0.461 2
16.5625 5.2275 0.433 2
16.633499 5.2344999 0.41800001 2
16.606501 5.2185001 0.43099999 2
16.577499 5.2385001 0.42399999 2
16.6565 5.2424998 0.41 2
16.591499 5.2405 0.421 2
16.5425 5.2325001 0.433 2
16.5905 5.2354999 0.42399999 2
16.654499 5.2405 0.412 2
16.5305 5.2405 0.43000001 2
16.615499 5.2335 0.421 2
16.5935 5.2455001 0.41800001 2
16.5805 5.2414999 0.42199999 2
16.557501 5.1975002 0.45100001 2
16.5655 5.2214999 0.43599999 2
16.574499 5.1824999 0.45699999 2
16.627501 5.2224998 0.426 2
16.5795 5.2435002 0.421 2
16.6315 5.2405 0.41499999 2
16.6775 5.1595001 0.44400001 2
16.7155 5.1395001 0.44100001 2
16.626499 5.1135001 0.43000001 2
16.6635 5.0914998 0.42699999 2
16.650499 5.1265001 0.43399999 2
16.592501 5.1255002 0.43099999 2
16.685499 5.1275001 0.43700001 2
16.626499 5.1085 0.42899999 2
16.6595 5.1415 0.43799999 2
16.7285 5.1525002 0.44499999 2
16.6395 5.1034999 0.42899999 2
16.672501 5.1294999 0.43700001 2
16.7285 5.1634998 0.44800001 2
16.703501 5.1485 0.44299999 2
16.716499 5.1655002 0.447 2
16.6485 5.1195002 0.433 2
16.636499 5.1415 0.43700001 2
16.6905 5.1065001 0.43200001 2
16.592501 5.1244998 0.43099999 2
16.759501 5.1865001 0.45500001 2
16.664499 5.1515002 0.44100001 2
16.6745 5.1595001 0.44299999 2
16.620501 5.1155 0.43000001 2
16.636499 5.1234999 0.433 2
16.703501 5.1525002 0.44299999 2
16.665501 5.1554999 0.442 2
16.6015 5.1234999 0.43099999 2
16.6455 5.1424999 0.43799999 2
16.703501 5.1374998 0.44 2
16.747499 5.1745 0.45100001 2
16.6355 5.1434999 0.43700001 2
16.682501 5.1465001 0.44100001 2
16.6735 5.1255002 0.43599999 2
16.738501 5.1585002 0.447 2
16.678499 5.0984998 0.43000001 2
16.6255 5.1345 0.435 2
16.6285 5.1205001 0.43200001 2
16.6175 5.1085 0.428 2
16.657499 5.0854998 0.426 2
16.6705 5.1504998 0.44100001 2
16.734501 5.1815 0.45199999 2
16.6605 5.1255002 0.435 2
16.602501 5.1244998 0.43099999 2
16.6595 5.1034999 0.43000001 2
16.723499 5.1764998 0.44999999 2
16.658501 5.1395001 0.43799999 2
16.6915 5.1675 0.44600001 2
16.710501 5.1735001 0.449 2
16.717501 5.1424999 0.442 2
16.6905 5.1615 0.44499999 2
16.609501 5.1285 0.43200001 2
16.679501 5.1574998 0.44299999 2
16.693501 5.1535001 0.44299999 2
16.6255 5.1065001 0.428 2
16.702499 5.1255002 0.43700001 2
16.696501 5.1385002 0.44 2
16.6605 5.1085 0.43099999 2
16.6745 5.1125002 0.433 2
16.6535 5.1164999 0.43200001 2
16.7715 5.1975002 0.458 2
16.6705 5.0875001 0.42699999 2
16.7085 5.1545 0.44400001 2
16.657499 5.1335001 0.43700001 2
16.6665 5.1535001 0.442 2
16.7225 5.1475 0.44400001 2
16.671499 5.0925002 0.428 2
16.703501 5.1485 0.44299999 2
16.6705 5.1265001 0.43599999 2
16.7715 5.1945 0.45699999 2
16.6775 5.1234999 0.43599999 2
16.626499 5.1335001 0.435 2
16.6805 5.1114998 0.433 2
16.665501 5.0834999 0.426 2
16.6735 5.0995002 0.43000001 2
16.6845 5.1504998 0.442 2
16.6495 5.1114998 0.43099999 2
16.6145 5.1145 0.42899999 2
16.654499 5.1114998 0.43099999 2
16.595501 5.1224999 0.43000001 2
16.7145 5.1774998 0.44999999 2
16.6705 5.1015 0.43000001 2
16.6485 5.0885 0.426 2
16.626499 5.1145 0.43000001 2
16.665501 5.1164999 0.433 2
16.6625 5.1465001 0.44 2
16.796499 4.7865 0.44999999 2
16.835501 4.8065 0.45300001 2
16.7705 4.8214998 0.463 2
16.7875 4.7985001 0.454 2
16.7775 4.8245001 0.463 2
16.796499 4.8175001 0.45899999 2
16.813499 4.8445001 0.46599999 2
16.7855 4.8225002 0.46200001 2
16.765499 4.8045001 0.458 2
16.747499 4.8105001 0.461 2
16.849501 4.8585 0.46799999 2
16.818501 4.8404999 0.465 2
16.866501 4.8565001 0.46599999 2
16.7705 4.8125 0.46000001 2
16.820499 4.7905002 0.449 2
16.813499 4.8185 0.458 2
16.8505 4.8255 0.458 2
16.8195 4.8365002 0.463 2
16.807501 4.8295002 0.46200001 2
16.821501 4.8455 0.46599999 2
16.7955 4.8035002 0.45500001 2
16.828501 4.7985001 0.45100001 2
16.744499 4.8084998 0.46000001 2
16.7675 4.8165002 0.461 2
16.8155 4.8065 0.454 2
16.7875 4.8175001 0.46000001 2
16.828501 4.8165002 0.45699999 2
16.824499 4.8225002 0.45899999 2
16.841499 4.8515 0.46599999 2
16.8155 4.8455 0.46599999 2
16.7635 4.8024998 0.45699999 2
16.831499 4.8525 0.46700001 2
16.8305 4.8334999 0.46200001 2
16.7805 4.8125 0.45899999 2
16.7985 4.8354998 0.465 2
16.7845 4.8014998 0.45500001 2
16.804501 4.7944999 0.45199999 2
16.7985 4.8035002 0.45500001 2
16.796499 4.8074999 0.456 2
16.783501 4.7965002 0.454 2
16.8155 4.8425002 0.46599999 2
16.776501 4.8024998 0.456 2
16.7745 4.8305001 0.465 2
16.8015 4.8404999 0.46599999 2
16.7885 4.7915001 0.45199999 2
16.811501 4.7824998 0.447 2
16.8265 4.8385 0.463 2
16.797501 4.7804999 0.44800001 2
16.8085 4.7865 0.449 2
16.8575 4.8484998 0.46399999 2
16.7985 4.7925 0.45100001 2
16.811501 4.7824998 0.447 2
16.845501 4.8354998 0.461 2
16.856501 4.8575001 0.46700001 2
16.7955 4.8004999 0.454 2
16.7805 4.7895002 0.45199999 2
16.8165 4.8065 0.454 2
16.8465 4.8455 0.46399999 2
16.797501 4.8065 0.456 2
16.820499 4.7865 0.44800001 2
16.7985 4.7975001 0.45300001 2
16.7875 4.8154998 0.45899999 2
16.831499 4.8544998 0.46700001 2
16.7395 4.9815001 0.44299999 2
16.734501 4.8915 0.454 2
16.738501 4.9575 0.44600001 2
16.6775 5.0434999 0.43000001 2
16.7715 4.8814998 0.45899999 2
16.8155 4.8515 0.46599999 2
16.744499 4.9384999 0.449 2
16.772499 4.8655 0.461 2
16.703501 5.0105 0.43599999 2
16.7465 4.9085002 0.45300001 2
16.696501 5.0314999 0.433 2
16.772499 4.9315 0.45199999 2
16.8465 4.8845 0.465 2
16.7845 4.9054999 0.45699999 2
16.7395 4.9565001 0.44600001 2
16.7495 4.9445 0.449 2
16.8605 4.8744998 0.46700001 2
16.7325 4.8225002 0.463 2
16.7215 5.0225 0.43599999 2
16.8085 4.8845 0.461 2
16.7605 4.8765001 0.458 2
16.751499 4.8375001 0.463 2
16.8055 4.8895001 0.461 2
16.7325 4.9254999 0.44999999 2
16.758499 4.9835 0.44499999 2
16.8395 4.8955002 0.463 2
16.803499 4.8845 0.461 2
16.744499 4.8555002 0.46000001 2
16.7635 4.9155002 0.454 2
16.695499 5.0295 0.433 2
16.6985 5.0064998 0.43599999 2
16.8155 4.8885002 0.46200001 2
16.814501 4.9095001 0.45899999 2
16.741501 5.0005002 0.44100001 2
16.747499 4.8255 0.46399999 2
16.7435 4.9555001 0.447 2
16.7395 4.8344998 0.46200001 2
16.675501 5.0634999 0.42699999 2
16.8375 4.8645 0.46599999 2
16.737499 4.9625001 0.44499999 2
16.716499 4.9274998 0.44800001 2
16.738501 4.9175 0.45100001 2
16.7775 4.8724999 0.46000001 2
16.8305 4.8555002 0.46700001 2
16.716499 4.8994999 0.45199999 2
16.7045 4.9864998 0.44 2
16.755501 4.9594998 0.447 2
16.807501 4.8724999 0.463 2
16.703501 4.9334998 0.44600001 2
16.7115 4.9134998 0.44999999 2
16.747499 4.9025002 0.454 2
16.6975 4.9734998 0.44100001 2
16.7785 4.9594998 0.449 2
16.7195 4.9074998 0.45100001 2
16.738501 4.8674998 0.458 2
16.8375 4.8565001 0.46700001 2
16.810499 4.8835001 0.46200001 2
16.821501 4.8534999 0.46700001 2
16.7775 4.8515 0.463 2
16.7645 4.9025002 0.45500001 2
16.727501 4.9445 0.447 2
16.747499 4.9784999 0.44400001 2
16.6945 5.0345001 0.43200001 2
16.7145 4.9775 0.442 2
16.7225 4.8604999 0.45699999 2
16.7425 4.9285002 0.44999999 2
16.709499 5.0015001 0.43799999 2
16.7875 4.8614998 0.463 2
16.835501 4.8555002 0.46700001 2
16.796499 4.8525 0.465 2
16.7635 4.8785 0.458 2
16.6765 5.0475001 0.42899999 2
16.747499 4.8835001 0.45699999 2
16.741501 4.8655 0.458 2
16.702499 4.9394999 0.44499999 2
16.6945 4.9805002 0.44 2
16.7605 4.8295002 0.465 2
16.7435 4.8214998 0.46399999 2
16.702499 4.9215002 0.44800001 2
16.7255 4.9464998 0.447 2
16.7125 4.8924999 0.45199999 2
16.817499 4.9064999 0.45899999 2
16.7285 4.8484998 0.45899999 2
16.797501 4.9095001 0.45699999 2
16.7505 4.8544998 0.46000001 2
16.7665 4.9575 0.44800001 2
16.7635 4.9134998 0.454 2
16.7255 4.9875002 0.44100001 2
16.7925 4.9404998 0.45300001 2
16.824499 4.8505001 0.46700001 2
16.6875 5.0514998 0.43000001 2
16.7115 4.9375 0.44600001 2
16.7915 4.8395 0.46599999 2
16.747499 4.8295002 0.463 2
16.7715 4.9404998 0.45100001 2
16.710501 5.0015001 0.43799999 2
16.745501 4.9645 0.44600001 2
16.8545 4.8705001 0.46700001 2
16.789499 4.9355001 0.45300001 2
16.6945 5.0165 0.435 2
16.755501 4.8274999 0.46399999 2
16.7945 4.8685002 0.46200001 2
16.7425 4.9064999 0.45300001 2
16.7215 4.8474998 0.45899999 2
16.723499 4.9584999 0.44499999 2
16.7185 4.9074998 0.45100001 2
16.734501 4.8594999 0.45899999 2
16.8615 4.8685002 0.46799999 2
16.734501 4.8944998 0.454 2
16.720501 5.0035 0.43900001 2
16.8325 4.8804998 0.46399999 2
16.7715 4.9695001 0.447 2
16.7855 4.8585 0.463 2
16.807501 4.9085002 0.458 2
16.761499 4.9435 0.44999999 2
16.7785 4.9004998 0.45699999 2
16.779499 4.9115 0.456 2
16.751499 4.8794999 0.45699999 2
16.7005 5.0415001 0.43200001 2
16.804501 4.8924999 0.46000001 2
16.797501 4.9085002 0.45699999 2
16.7145 4.9105 0.44999999 2
16.8375 4.8835001 0.46399999 2
16.796499 4.9285002 0.45500001 2
16.8055 4.8715 0.463 2
16.7005 5.0165 0.435 2
16.8225 4.9155002 0.45899999 2
16.768499 4.8635001 0.461 2
16.717501 4.8664999 0.456 2
16.768499 4.8705001 0.46000001 2
16.7125 4.9345002 0.447 2
16.7985 4.8614998 0.46399999 2
16.8085 4.8724999 0.463 2
16.827499 4.8845 0.463 2
16.7945 4.9004998 0.458 2
16.789499 4.9524999 0.45100001 2
16.7565 4.9784999 0.44499999 2
16.754499 4.9045 0.454 2
16.762501 4.8934999 0.456 2
16.7665 4.9435 0.44999999 2
16.7425 4.8765001 0.45699999 2
16.8265 4.8814998 0.463 2
16.8305 4.8965001 0.46200001 2
16.7335 4.8674998 0.45699999 2
16.769501 4.8804998 0.45899999 2
16.678499 5.0485001 0.42899999 2
16.790501 4.9175 0.456 2
16.754499 4.9225001 0.45199999 2
16.811501 4.9295001 0.456 2
16.720501 4.8985 0.45199999 2
16.685499 5.0545001 0.42899999 2
16.717501 4.8744998 0.45500001 2
16.7335 4.9274998 0.44999999 2
16.723499 4.8994999 0.45199999 2
16.7955 4.9145002 0.456 2
16.7735 4.9495001 0.44999999 2
16.745501 4.9194999 0.45199999 2
16.7115 4.9015002 0.45100001 2
16.803499 4.8934999 0.46000001 2
16.817499 4.9225001 0.45699999 2
16.685499 5.0395002 0.43099999 2
16.7505 4.8944998 0.45500001 2
16.720501 4.9545002 0.44499999 2
16.776501 4.9565001 0.449 2
16.8405 4.8755002 0.465 2
16.710501 4.9625001 0.44299999 2
16.8305 4.8864999 0.463 2
16.6835 5.0355 0.43200001 2
16.813499 4.8814998 0.46200001 2
16.845501 4.8835001 0.465 2
16.7155 4.9664998 0.44299999 2
16.752501 4.9165001 0.45300001 2
16.838499 4.8604999 0.46700001 2
16.8095 4.9315 0.45500001 2
16.709499 4.9425001 0.44600001 2
16.7285 4.9165001 0.45100001 2
16.710501 4.9184999 0.449 2
16.7295 4.9415002 0.44800001 2
16.724501 4.9945002 0.44 2
16.7265 5.0005002 0.44 2
16.820499 4.8674998 0.465 2
16.7425 4.9175 0.45199999 2
16.7045 4.9165001 0.449 2
16.7465 4.8414998 0.46200001 2
16.679501 5.0155001 0.43399999 2
16.786501 4.8994999 0.458 2
16.7145 4.8944998 0.45199999 2
16.7575 4.8435001 0.46200001 2
16.776501 4.8975 0.45699999 2
16.772499 4.8325 0.465 2
16.688499 5.0405002 0.43099999 2
16.7285 4.8235002 0.463 2
16.8325 4.9064999 0.461 2
16.811501 4.8874998 0.461 2
16.7855 4.8655 0.46200001 2
16.679501 5.0584998 0.428 2
16.8025 4.9404998 0.454 2
16.811501 4.9295001 0.456 2
16.6745 5.0465002 0.42899999 2
16.7665 4.8905001 0.45699999 2
16.6975 4.9594998 0.442 2
16.824499 4.8565001 0.46599999 2
16.7145 4.9095001 0.44999999 2
16.789499 4.8695002 0.46200001 2
16.7465 4.9514999 0.44800001 2
16.745501 4.9924998 0.442 2
16.699499 5.0155001 0.435 2
16.724501 4.8864999 0.454 2
16.751499 4.9355001 0.44999999 2
16.7285 4.9974999 0.44 2
16.821501 4.9064999 0.46000001 2
16.761499 4.8664999 0.46000001 2
16.8015 4.8934999 0.46000001 2
16.6915 4.9945002 0.43700001 2
16.813499 4.9334998 0.456 2
16.7355 5.1465001 0.44600001 2
16.7705 5.1564999 0.45500001 2
16.675501 5.0825 0.42699999 2
16.806499 4.9615002 0.456 2
16.8375 4.9115 0.461 2
16.8125 5.0815001 0.463 2
16.7255 5.0844998 0.44 2
16.752501 5.1085 0.44800001 2
16.7155 5.1125002 0.43900001 2
16.8095 5.0964999 0.463 2
16.7565 5.1504998 0.45100001 2
16.8325 4.9445 0.461 2
16.8305 4.9604998 0.46200001 2
16.7675 5.1155 0.45300001 2
16.748501 5.0155001 0.44299999 2
16.7845 5.0285001 0.45300001 2
16.7195 5.0774999 0.43900001 2
16.7115 5.0834999 0.43700001 2
16.783501 5.1164999 0.45699999 2
16.713499 5.0714998 0.43700001 2
16.804501 4.9475002 0.454 2
16.796499 5.1294999 0.461 2
16.7815 5.1215 0.45699999 2
16.804501 5.0615001 0.46000001 2
16.7665 5.0215001 0.44800001 2
16.814501 4.9505 0.45699999 2
16.817499 4.9885001 0.46000001 2
16.8165 5.0064998 0.46000001 2
16.7745 5.1325002 0.45500001 2
16.8125 5.0295 0.46000001 2
16.7295 5.0685 0.44100001 2
16.7505 5.1104999 0.44800001 2
16.731501 5.0654998 0.44100001 2
16.8265 4.9254999 0.45899999 2
16.793501 5.1125002 0.45899999 2
16.689501 5.0625 0.43000001 2
16.731501 5.0595002 0.44100001 2
16.828501 4.9475002 0.461 2
16.7985 4.9565001 0.45300001 2
16.748501 5.1455002 0.449 2
16.734501 5.1125002 0.44400001 2
16.7645 5.1155 0.45199999 2
16.768499 5.1364999 0.454 2
16.7715 5.1904998 0.45699999 2
16.7255 5.1104999 0.44100001 2
16.734501 5.0685 0.442 2
16.807501 4.9854999 0.45699999 2
16.7705 5.1185002 0.454 2
16.8445 4.9784999 0.46599999 2
16.8195 5.0174999 0.46200001 2
16.693501 5.1065001 0.433 2
16.831499 5.0254998 0.465 2
16.786501 5.1834998 0.461 2
16.7945 5.0704999 0.458 2
16.7365 5.1455002 0.44600001 2
16.8225 5.0285001 0.463 2
16.752501 5.0595002 0.44600001 2
16.769501 5.1145 0.45300001 2
16.745501 5.0644999 0.44499999 2
16.7855 5.1205001 0.45699999 2
16.7605 5.1754999 0.454 2
16.7945 4.9705 0.45300001 2
16.752501 5.0595002 0.44600001 2
16.693501 5.0735002 0.43200001 2
16.8165 5.0105 0.46000001 2
16.7265 5.0644999 0.44 2
16.821501 4.9334998 0.458 2
16.6985 5.0514998 0.43200001 2
16.745501 5.1415 0.44800001 2
16.7085 5.0665002 0.435 2
16.7875 5.1155 0.458 2
16.702499 5.0805001 0.43399999 2
16.8155 4.9394999 0.45699999 2
16.797501 4.9654999 0.45300001 2
16.738501 5.0605001 0.442 2
16.7215 5.0514998 0.43799999 2
16.8155 4.9454999 0.45699999 2
16.7265 5.0415001 0.43900001 2
16.8435 4.9445 0.46399999 2
16.7875 5.1025 0.45699999 2
16.813499 4.9974999 0.45899999 2
16.762501 5.0285001 0.447 2
16.717501 5.0935001 0.43900001 2
16.755501 5.1655002 0.45199999 2
16.7355 5.0454998 0.44100001 2
16.8155 5.0064998 0.46000001 2
16.7745 5.0465002 0.45100001 2
16.7295 5.1374998 0.44400001 2
16.738501 5.0565 0.442 2
16.8295 4.9654999 0.46200001 2
16.769501 5.1815 0.456 2
16.7955 5.0145001 0.45500001 2
16.8435 4.9264998 0.463 2
16.730499 5.1085 0.44299999 2
16.797501 5.0265002 0.456 2
16.8125 5.0745001 0.46200001 2
16.8645 4.8955002 0.46700001 2
16.7745 5.0895 0.45300001 2
16.842501 4.9285002 0.463 2
16.7705 5.0784998 0.45199999 2
16.7715 5.1205001 0.454 2
16.818501 5.0105 0.461 2
16.8195 5.0654998 0.46399999 2
16.827499 4.9914999 0.46200001 2
16.818501 4.9765 0.45899999 2
16.7055 5.0695 0.43399999 2
16.7635 5.1824999 0.45500001 2
16.6945 5.0964999 0.433 2
16.7675 5.0324998 0.449 2
16.689501 5.0865002 0.43099999 2
16.7775 5.0644999 0.45300001 2
16.8325 5.0174999 0.465 2
16.782499 5.1855001 0.46000001 2
16.7985 5.0904999 0.45899999 2
16.7575 5.1174998 0.44999999 2
16.7715 5.1285 0.454 2
16.7265 5.0335002 0.43799999 2
16.716499 5.0865002 0.43799999 2
16.7145 5.0545001 0.43599999 2
16.7925 5.0695 0.45699999 2
16.7075 5.0945001 0.43599999 2
16.7195 5.1304998 0.44100001 2
16.863501 4.8864999 0.46700001 2
16.692499 5.0595002 0.43099999 2
16.8015 5.0275002 0.45699999 2
16.737499 5.0844998 0.44299999 2
16.7915 5.1085 0.458 2
16.7495 5.1174998 0.44800001 2
16.7365 5.1174998 0.44499999 2
16.6985 5.1104999 0.435 2
16.7005 5.0485001 0.43200001 2
16.734501 5.0925002 0.44299999 2
16.762501 5.0215001 0.447 2
16.782499 5.1444998 0.458 2
16.790501 5.0995002 0.458 2
16.7265 5.0885 0.44100001 2
16.703501 5.1094999 0.43599999 2
16.7465 5.0194998 0.44299999 2
16.7815 5.1735001 0.45899999 2
16.8295 4.9184999 0.46000001 2
16.786501 5.0365 0.454 2
16.709499 5.0384998 0.43399999 2
16.7255 5.0885 0.44 2
16.689501 5.0895 0.43099999 2
16.8165 4.9305 0.45699999 2
16.790501 5.0135002 0.454 2
16.731501 5.0124998 0.43900001 2
16.8025 5.0235 0.45699999 2
16.817499 4.9685001 0.45899999 2
16.793501 4.9895 0.45300001 2
16.786501 5.0955 0.45699999 2
16.849501 4.9375 0.465 2
16.7945 4.9745002 0.45300001 2
16.797501 5.0335002 0.45699999 2
16.789499 5.1745 0.461 2
16.7645 5.1405001 0.45300001 2
16.8025 4.9445 0.454 2
16.671499 5.0795002 0.426 2
16.8435 4.9225001 0.463 2
16.688499 5.0825 0.43099999 2
16.7005 5.0945001 0.43399999 2
16.7945 5.0035 0.454 2
16.759501 5.0844998 0.449 2
16.7985 4.9994998 0.45500001 2
16.8085 5.0145001 0.45899999 2
16.776501 5.1595001 0.45699999 2
16.7775 5.1585002 0.45699999 2
16.814501 5.0555 0.46200001 2
16.7665 5.1574998 0.454 2
16.762501 5.0755 0.449 2
16.692499 5.0665002 0.43099999 2
16.7845 4.9974999 0.45100001 2
16.7185 5.0395002 0.43599999 2
16.7675 5.0114999 0.44800001 2
16.7955 5.1294999 0.461 2
16.7915 5.0475001 0.456 2
16.7855 5.1684999 0.46000001 2
16.8125 4.9765 0.458 2
16.7255 5.1255002 0.442 2
16.835501 5.0025001 0.465 2
16.7115 5.1075001 0.43799999 2
16.7605 5.0145001 0.44600001 2
16.7785 5.0774999 0.454 2
16.754499 5.0485001 0.44600001 2
16.783501 5.0095 0.45199999 2
16.758499 5.1275001 0.45100001 2
16.800501 4.9475002 0.45300001 2
16.800501 4.9664998 0.454 2
16.741501 5.0335002 0.442 2
16.7005 5.0644999 0.433 2
16.7125 5.0405002 0.435 2
16.7195 5.1125002 0.44 2
16.834499 5.0155001 0.465 2
16.7605 5.0695 0.449 2
16.814501 5.0295 0.461 2
16.7565 5.0064998 0.44499999 2
16.748501 5.0105 0.44299999 2
16.745501 5.0815001 0.44499999 2
16.8095 4.9404998 0.45500001 2
16.806499 5.0444999 0.45899999 2
16.845501 4.9274998 0.46399999 2
16.6985 5.0745001 0.433 2
16.8265 4.9475002 0.46000001 2
16.782499 5.0485001 0.45300001 2
16.7955 5.1094999 0.46000001 2
16.7505 5.0955 0.447 2
16.7395 5.1304998 0.44600001 2
16.7335 5.0625 0.44100001 2
16.8465 4.9485002 0.465 2
16.703501 5.0885 0.435 2
16.720501 5.1104999 0.44 2
16.786501 5.0155001 0.45300001 2
16.800501 5.1415 0.46200001 2
16.772499 5.0584998 0.45100001 2
16.7745 5.1605 0.456 2
16.7815 4.9794998 0.44999999 2
16.7955 4.9604998 0.45300001 2
16.748501 5.0434999 0.44400001 2
16.790501 5.0865002 0.45699999 2
16.7125 5.1174998 0.43799999 2
16.8295 5.0095 0.46399999 2
16.7335 5.0885 0.44299999 2
16.783501 4.9664998 0.44999999 2
16.754499 5.1585002 0.45100001 2
16.797501 5.0044999 0.45500001 2
16.7675 5.0565 0.44999999 2
16.775499 5.1285 0.45500001 2
16.7745 5.1114998 0.454 2
16.740499 5.0704999 0.44400001 2
16.827499 4.9435 0.46000001 2
16.7505 5.0654998 0.44600001 2
16.800501 5.1005001 0.46000001 2
16.810499 5.0964999 0.463 2
16.8225 4.9815001 0.46000001 2
16.7845 4.9984999 0.45199999 2
16.8365 4.9664998 0.46399999 2
16.702499 5.0834999 0.43399999 2
16.7495 5.0085001 0.44299999 2
16.845501 4.9315 0.46399999 2
16.842501 4.9105 0.46200001 2
16.752501 5.0764999 0.447 2
16.727501 5.0745001 0.44 2
16.754499 5.0035 0.44400001 2
16.730499 5.1174998 0.44299999 2
16.7805 5.0865002 0.45500001 2
16.782499 4.9755001 0.44999999 2
16.811501 5.0654998 0.46200001 2
16.797501 4.9844999 0.454 2
16.803499 5.1304998 0.46200001 2
16.7915 5.1535001 0.46000001 2
16.807501 4.9875002 0.45699999 2
16.717501 5.0495 0.43700001 2
16.7565 5.1135001 0.44999999 2
16.834499 4.9264998 0.461 2
16.7775 4.9935002 0.44999999 2
16.8585 4.8985 0.46599999 2
16.786501 5.1655002 0.46000001 2
16.7805 5.0825 0.454 2
16.7355 5.0395002 0.44100001 2
16.800501 5.1234999 0.461 2
16.7955 5.0514998 0.45699999 2
16.747499 5.0735002 0.44600001 2
16.7715 5.1465001 0.45500001 2
16.716499 5.0725002 0.43700001 2
16.738501 5.0685 0.44299999 2
16.7855 5.0545001 0.454 2
16.772499 5.1075001 0.45300001 2
16.8925 5.0535002 0.43900001 2
16.886499 5.0444999 0.44600001 2
16.887501 5.0745001 0.442 2
16.884501 4.9384999 0.45500001 2
16.8965 5.0685 0.43399999 2
16.890499 5.0875001 0.43799999 2
16.8855 4.9864998 0.44999999 2
16.8895 5.1564999 0.43399999 2
16.8955 5.0795002 0.43399999 2
16.8915 5.0285001 0.442 2
16.8815 4.9264998 0.458 2
16.8885 5.0225 0.44499999 2
16.883499 5.0215001 0.44999999 2
16.886499 5.0685 0.44299999 2
16.8855 5.0254998 0.44800001 2
16.8855 5.0124998 0.44800001 2
16.883499 4.9415002 0.456 2
16.8955 5.0415001 0.43599999 2
16.8825 4.9575 0.456 2
16.8855 4.9555001 0.45300001 2
16.886499 4.9675002 0.45100001 2
16.893499 5.1125002 0.43399999 2
16.884501 4.9864998 0.45100001 2
16.884501 5.0615001 0.44600001 2
16.8965 5.0815001 0.433 2
16.883499 4.9835 0.45300001 2
16.8825 4.9875002 0.454 2
16.8925 5.0304999 0.44100001 2
16.893499 5.1205001 0.433 2
16.883499 4.9914999 0.45199999 2
16.8825 5.0374999 0.44999999 2
16.884501 4.9914999 0.45100001 2
16.8955 5.0535002 0.43599999 2
16.884501 4.9524999 0.454 2
16.8955 5.0825 0.43399999 2
16.8785 4.9994998 0.45500001 2
16.8085 5.1935 0.45500001 2
16.877501 5.0665002 0.44800001 2
16.797501 5.1785002 0.46000001 2
16.870501 5.1424999 0.44299999 2
16.8235 5.0865002 0.46200001 2
16.834499 5.0225 0.465 2
16.8515 5.1595001 0.44600001 2
16.8515 5.1294999 0.449 2
16.8515 4.9775 0.465 2
16.8055 5.1655002 0.45899999 2
16.8335 5.0925002 0.458 2
16.865499 5.0595002 0.45199999 2
16.863501 5.1675 0.442 2
16.813499 5.1585002 0.45699999 2
16.8505 4.9604998 0.46700001 2
16.8785 5.1265001 0.442 2
16.8715 5.1114998 0.44499999 2
16.8095 5.1574998 0.45899999 2
16.817499 5.1215 0.46000001 2
16.8605 4.9394999 0.46599999 2
16.813499 5.1945 0.454 2
16.8015 5.1975002 0.45699999 2
16.841499 5.0475001 0.461 2
16.870501 4.9575 0.461 2
16.8475 4.9924998 0.46399999 2
16.869499 5.1545 0.442 2
16.855499 5.0124998 0.46000001 2
16.8015 5.1574998 0.461 2
16.865499 5.1605 0.442 2
16.8715 4.9885001 0.458 2
16.818501 5.1694999 0.45500001 2
16.811501 5.1424999 0.45899999 2
16.872499 5.1385002 0.442 2
16.845501 4.9924998 0.465 2
16.811501 5.1985002 0.454 2
16.856501 5.0805001 0.45300001 2
16.855499 5.0035 0.461 2
